ply
format ascii 1.0
element vertex 1307
property float x
property float y
property float z
property uchar red
property uchar green
property uchar blue
end_header
0.775472 -0.220234 1.772000 57 38 53
0.775472 -0.217132 1.772000 58 40 59
0.775472 -0.214030 1.772000 58 42 65
0.775472 -0.210928 1.772000 59 44 71
0.775472 -0.207826 1.772000 61 49 78
0.775472 -0.204724 1.772000 64 51 79
0.775472 -0.201623 1.772000 58 49 81
0.775472 -0.198521 1.772000 53 44 82
0.775472 -0.195419 1.772000 53 44 83
0.775472 -0.192317 1.772000 54 42 72
0.775472 -0.189215 1.772000 55 49 62
0.775472 -0.186113 1.772000 57 57 72
0.775472 -0.183011 1.772000 56 52 82
0.775472 -0.179909 1.772000 55 47 75
0.779410 -0.177705 1.781000 50 37 69
0.775472 -0.173706 1.772000 46 27 61
0.779410 -0.171470 1.781000 46 27 54
0.779410 -0.168353 1.781000 46 25 50
0.779410 -0.165235 1.781000 46 24 47
0.775472 -0.161298 1.772000 45 20 44
0.775472 -0.158196 1.772000 46 26 42
0.775472 -0.155094 1.772000 47 32 45
0.775472 -0.151992 1.772000 49 32 49
0.775472 -0.148890 1.772000 51 30 47
0.775472 -0.145789 1.772000 52 32 46
0.775472 -0.142687 1.772000 53 32 42
0.775472 -0.139585 1.772000 52 30 39
0.775472 -0.136483 1.772000 51 30 44
0.775472 -0.133381 1.772000 52 31 50
0.771533 -0.129617 1.763000 52 31 54
0.771533 -0.126531 1.763000 53 33 58
0.771533 -0.123445 1.763000 54 37 54
0.771533 -0.120359 1.763000 54 39 51
0.771533 -0.117273 1.763000 53 42 51
0.771533 -0.114187 1.763000 58 39 51
0.771533 -0.111101 1.763000 63 39 51
0.771533 -0.108015 1.763000 61 37 51
0.771533 -0.104928 1.763000 59 35 48
0.771533 -0.101842 1.763000 59 37 45
0.771533 -0.098756 1.763000 58 41 57
0.767594 -0.095182 1.754000 65 42 69
0.767594 -0.092111 1.754000 71 42 77
0.771533 -0.089498 1.763000 73 48 85
0.840240 -0.070580 1.920000 78 47 57
0.835426 -0.066834 1.909000 77 47 52
0.835426 -0.063492 1.909000 77 50 48
0.835426 -0.060151 1.909000 78 52 47
0.835426 -0.056809 1.909000 78 52 46
0.835426 -0.053467 1.909000 78 54 50
0.835426 -0.050126 1.909000 76 50 54
0.835426 -0.046784 1.909000 74 50 57
0.835426 -0.043442 1.909000 71 53 61
0.835426 -0.040100 1.909000 67 56 57
0.759717 -0.033428 1.736000 65 49 53
0.759717 -0.030389 1.736000 62 45 49
0.759717 -0.027350 1.736000 58 45 45
0.759717 -0.024311 1.736000 54 45 45
0.763656 -0.021382 1.745000 56 47 45
0.771533 -0.018517 1.763000 59 50 47
0.775472 -0.015509 1.772000 61 52 50
0.779410 -0.012471 1.781000 64 54 51
0.779410 -0.009353 1.781000 67 58 53
0.775472 -0.006204 1.772000 71 63 55
0.779410 -0.003118 1.781000 73 65 58
0.791664 -0.000000 1.809000 76 67 67
0.813107 0.003252 1.858000 76 65 76
0.813107 0.006505 1.858000 77 64 63
0.808731 0.009705 1.848000 76 62 50
0.804355 0.012870 1.838000 75 62 59
0.799978 0.016000 1.828000 77 63 68
0.799978 0.019200 1.828000 79 66 68
0.804355 0.022522 1.838000 77 70 68
0.799978 0.025599 1.828000 76 76 66
0.799978 0.028799 1.828000 63 66 65
0.804355 0.032174 1.838000 50 54 65
0.804355 0.035392 1.838000 56 45 66
0.804355 0.038609 1.838000 63 41 71
0.804355 0.041826 1.838000 66 49 77
0.804355 0.045044 1.838000 70 51 80
0.804355 0.048261 1.838000 71 52 84
0.804355 0.051479 1.838000 72 51 78
0.900195 0.100822 2.057000 59 17 41
0.900195 0.104423 2.057000 150 90 2
0.900195 0.108023 2.057000 241 182 124
0.900195 0.111624 2.057000 247 236 247
0.900195 0.115225 2.057000 254 254 250
0.905446 0.119519 2.069000 254 254 254
0.905446 0.123141 2.069000 254 254 254
0.905446 0.126762 2.069000 254 254 254
0.905446 0.130384 2.069000 254 254 254
0.905446 0.134006 2.069000 254 254 254
0.905446 0.137628 2.069000 254 254 254
0.905446 0.141250 2.069000 254 254 254
0.905446 0.144871 2.069000 254 254 254
0.905446 0.148493 2.069000 254 254 254
0.905446 0.152115 2.069000 254 254 254
0.905446 0.155737 2.069000 254 254 254
0.905446 0.159359 2.069000 254 254 254
0.905446 0.162980 2.069000 254 254 254
0.905446 0.166602 2.069000 254 254 254
0.905446 0.170224 2.069000 254 254 254
0.905446 0.173846 2.069000 254 254 254
0.905446 0.177468 2.069000 254 254 254
0.905446 0.181089 2.069000 254 254 254
0.905446 0.184711 2.069000 206 229 254
0.905446 0.188333 2.069000 158 157 156
0.905446 0.191955 2.069000 95 47 59
0.900195 0.194442 2.057000 32 30 51
0.900195 0.198043 2.057000 44 42 44
0.900195 0.201644 2.057000 55 44 46
0.900195 0.205244 2.057000 52 44 48
0.900195 0.208845 2.057000 49 41 50
0.900195 0.212446 2.057000 48 39 52
0.900195 0.216047 2.057000 47 37 52
0.900195 0.219648 2.057000 47 40 52
0.900195 0.223248 2.057000 47 42 50
0.900195 0.226849 2.057000 47 42 49
0.900195 0.230450 2.057000 47 41 48
0.900195 0.234051 2.057000 45 39 47
0.900195 0.237651 2.057000 43 36 43
0.900195 0.241252 2.057000 41 35 39
0.900195 0.244853 2.057000 39 33 39
0.900195 0.248454 2.057000 39 30 39
0.900195 0.252055 2.057000 39 29 36
0.900195 0.255655 2.057000 39 28 34
0.900195 0.259256 2.057000 40 27 37
0.894943 0.261324 2.045000 43 28 41
0.894943 0.264903 2.045000 46 28 44
0.894943 0.268483 2.045000 41 28 47
0.894943 0.272063 2.045000 36 28 43
0.884440 0.272408 2.021000 42 28 39
0.879189 0.274307 2.009000 48 31 41
0.879189 0.277824 2.009000 47 37 43
0.879189 0.281340 2.009000 46 41 45
0.879189 0.284857 2.009000 44 40 47
0.884440 0.290096 2.021000 43 43 47
0.884440 0.293634 2.021000 44 41 47
0.889692 0.298936 2.033000 45 42 51
0.889692 0.302495 2.033000 44 38 56
0.884440 0.304247 2.021000 44 36 50
0.884440 0.307785 2.021000 43 36 44
0.884440 0.311323 2.021000 42 37 41
0.884440 0.314861 2.021000 43 34 39
0.884440 0.318399 2.021000 44 35 42
0.884440 0.321936 2.021000 32 24 46
0.884440 0.325474 2.021000 21 17 40
0.884440 0.329012 2.021000 20 19 35
0.884440 0.332550 2.021000 20 21 35
0.884440 0.336087 2.021000 21 21 35
0.884440 0.339625 2.021000 23 23 37
0.884440 0.343163 2.021000 23 24 39
0.884440 0.346701 2.021000 24 24 39
0.884440 0.350238 2.021000 25 24 39
0.879189 0.351676 2.009000 26 27 33
0.879189 0.355192 2.009000 35 31 28
0.879189 0.358709 2.009000 45 34 24
0.874375 0.360243 1.998000 43 26 21
0.632806 0.265779 1.446000 37 16 15
0.632806 0.268310 1.446000 34 12 15
0.632806 0.270841 1.446000 30 10 16
0.632806 0.273372 1.446000 26 10 16
0.640683 0.279338 1.464000 28 11 16
0.638057 0.280745 1.458000 29 14 14
0.638057 0.283298 1.458000 29 14 12
0.638057 0.285850 1.458000 30 16 12
0.638057 0.288402 1.458000 28 14 12
0.638057 0.290954 1.458000 27 12 12
0.706764 0.325112 1.615000 28 12 12
0.706764 0.327939 1.615000 30 11 14
0.706764 0.330766 1.615000 29 12 17
0.614425 0.290009 1.404000 29 14 15
0.614425 0.292467 1.404000 27 13 13
0.617051 0.296185 1.410000 26 13 9
0.630180 0.305007 1.440000 29 11 6
0.627554 0.306247 1.434000 33 11 7
0.630180 0.310049 1.440000 29 9 9
0.630180 0.312569 1.440000 25 10 9
0.703263 0.351632 1.607000 27 9 10
0.706764 0.356209 1.615000 30 10 10
0.703263 0.357258 1.607000 31 10 10
0.703263 0.360071 1.607000 32 12 9
0.703263 0.362884 1.607000 31 12 8
0.703263 0.365697 1.607000 30 12 9
0.703263 0.368510 1.607000 30 10 10
0.703263 0.371323 1.607000 30 10 10
0.709828 0.377628 1.622000 31 9 10
0.713329 0.382344 1.630000 31 10 10
0.706764 0.381653 1.615000 30 11 11
0.706764 0.384480 1.615000 29 13 14
0.703263 0.385388 1.607000 33 13 18
0.696699 0.384578 1.592000 37 14 18
0.696699 0.387365 1.592000 37 18 19
0.696699 0.390152 1.592000 37 19 22
0.693636 0.391211 1.585000 38 18 26
0.693636 0.393985 1.585000 39 17 26
0.693636 0.396760 1.585000 37 21 26
0.693636 0.399534 1.585000 34 26 30
0.696699 0.404086 1.592000 35 24 34
0.693636 0.405083 1.585000 36 23 31
0.693636 0.407858 1.585000 38 22 28
0.693636 0.410632 1.585000 40 22 19
0.696699 0.415233 1.592000 40 21 10
0.693636 0.416181 1.585000 41 20 22
0.693636 0.418956 1.585000 42 18 34
0.693636 0.421731 1.585000 44 14 41
0.693636 0.424505 1.585000 45 18 48
0.693636 0.427280 1.585000 46 21 31
0.696699 0.431953 1.592000 45 24 14
0.700200 0.436925 1.600000 45 24 21
0.690572 0.450253 1.578000 50 26 40
0.693636 0.455025 1.585000 47 27 40
0.693636 0.457800 1.585000 47 29 41
0.693636 0.460574 1.585000 48 29 37
0.696699 0.465395 1.592000 49 35 34
0.696699 0.468182 1.592000 51 38 34
0.690572 0.466827 1.578000 53 35 34
0.690572 0.469589 1.578000 55 33 36
0.687509 0.470256 1.571000 57 34 39
0.687509 0.473006 1.571000 59 39 39
0.687509 0.475756 1.571000 58 42 39
0.684008 0.476070 1.563000 58 44 39
0.687509 0.481256 1.571000 59 42 40
0.687509 0.484006 1.571000 61 42 43
0.687509 0.486756 1.571000 63 41 46
0.684008 0.487014 1.563000 65 44 44
0.687509 0.492256 1.571000 65 47 43
0.690572 0.497212 1.578000 66 50 43
0.690572 0.499974 1.578000 67 47 43
0.690572 0.502737 1.578000 68 48 42
0.693636 0.507741 1.585000 70 50 41
0.693636 0.510516 1.585000 72 53 45
0.693636 0.513290 1.585000 72 53 49
0.693636 0.516065 1.585000 72 54 49
0.693636 0.518840 1.585000 75 53 49
0.693636 0.521614 1.585000 77 55 51
0.693636 0.524389 1.585000 80 55 54
0.693636 0.527163 1.585000 82 54 58
0.693636 0.529938 1.585000 83 59 62
0.693636 0.532712 1.585000 84 54 58
0.693636 0.535487 1.585000 82 55 55
0.693636 0.538261 1.585000 80 55 54
0.690572 0.538646 1.578000 80 53 53
0.690572 0.541409 1.578000 80 56 51
0.690572 0.544171 1.578000 75 53 50
0.690572 0.546933 1.578000 70 52 49
0.696699 0.554573 1.592000 64 43 48
0.690572 0.552458 1.578000 59 39 40
0.700200 0.562961 1.600000 55 36 33
0.700200 0.565762 1.600000 51 38 37
0.693636 0.563232 1.585000 62 45 42
0.693636 0.566007 1.585000 73 51 43
0.693636 0.568781 1.585000 74 55 44
0.693636 0.571556 1.585000 76 58 47
0.693636 0.574330 1.585000 77 55 50
0.693636 0.577105 1.585000 78 53 52
0.693636 0.579879 1.585000 80 53 54
0.693636 0.582654 1.585000 82 56 54
0.693636 0.585429 1.585000 85 54 55
0.693636 0.588203 1.585000 88 51 61
0.690572 0.588368 1.578000 87 63 67
0.693636 0.593752 1.585000 87 71 59
0.690572 0.593892 1.578000 85 68 52
0.687509 0.594008 1.571000 83 65 55
0.684008 0.593719 1.563000 79 58 58
0.677881 0.591112 1.549000 75 56 54
0.666065 0.583473 1.522000 70 50 50
0.660376 0.581131 1.509000 66 47 49
0.657313 0.581065 1.502000 68 47 49
0.651624 0.578642 1.489000 70 50 51
0.651624 0.581248 1.489000 69 48 53
0.848434 -0.757168 1.931000 63 33 30
0.848434 -0.753788 1.931000 61 34 29
0.843601 -0.746133 1.920000 60 34 34
0.843601 -0.742772 1.920000 57 35 39
0.790876 -0.690047 1.800000 48 29 26
0.790876 -0.686896 1.800000 43 25 30
0.790876 -0.683745 1.800000 38 22 33
0.790876 -0.680594 1.800000 33 22 36
0.790876 -0.677444 1.800000 33 24 40
0.790876 -0.674293 1.800000 34 24 42
0.794830 -0.674497 1.809000 32 27 45
0.790876 -0.667991 1.800000 30 25 37
0.807572 -0.678875 1.838000 32 26 30
0.807572 -0.675658 1.838000 34 26 32
0.807572 -0.672441 1.838000 35 29 34
0.807572 -0.669223 1.838000 36 27 34
0.803178 -0.662382 1.828000 37 28 35
0.807572 -0.662788 1.838000 39 29 38
0.799224 -0.652753 1.819000 38 30 41
0.790876 -0.642784 1.800000 38 30 39
0.786482 -0.636079 1.790000 41 33 37
0.786482 -0.632946 1.790000 45 31 39
0.782528 -0.626646 1.781000 41 33 42
0.790876 -0.488390 1.800000 33 17 22
0.790876 -0.485239 1.800000 33 16 25
0.790876 -0.482088 1.800000 32 14 28
0.790876 -0.478937 1.800000 32 16 24
0.790876 -0.475786 1.800000 37 17 19
0.790876 -0.472635 1.800000 42 15 23
0.790876 -0.469484 1.800000 37 15 28
0.790876 -0.466333 1.800000 33 16 19
0.790876 -0.463182 1.800000 31 18 11
0.790876 -0.460031 1.800000 30 19 21
0.790876 -0.456881 1.800000 31 16 30
0.790876 -0.453730 1.800000 32 15 28
0.790876 -0.450579 1.800000 34 14 26
0.790876 -0.447428 1.800000 37 17 23
0.790876 -0.444277 1.800000 36 23 20
0.790876 -0.441126 1.800000 35 19 18
0.786482 -0.435542 1.790000 36 16 16
0.790876 -0.434824 1.800000 38 16 15
0.786482 -0.429275 1.790000 37 20 13
0.786482 -0.426142 1.790000 36 21 17
0.786482 -0.423008 1.790000 40 23 21
0.790876 -0.422221 1.800000 45 22 20
0.790876 -0.419070 1.800000 49 21 19
0.790876 -0.415919 1.800000 54 20 23
0.786482 -0.410475 1.790000 50 18 27
0.786482 -0.407341 1.790000 46 18 25
0.790876 -0.406466 1.800000 43 17 23
0.786482 -0.401075 1.790000 41 17 24
0.786482 -0.397941 1.790000 38 18 26
0.786482 -0.394808 1.790000 36 18 28
0.782528 -0.389705 1.781000 35 18 31
0.790876 -0.390712 1.800000 34 18 20
0.786482 -0.385408 1.790000 38 21 10
0.786482 -0.382274 1.790000 42 20 18
0.786482 -0.379141 1.790000 38 19 26
0.790876 -0.378108 1.800000 35 19 22
0.790876 -0.374957 1.800000 34 21 19
0.790876 -0.371806 1.800000 34 19 18
0.790876 -0.368655 1.800000 38 17 17
0.790876 -0.365504 1.800000 42 15 18
0.790876 -0.362353 1.800000 41 14 19
0.790876 -0.359203 1.800000 41 17 15
0.790876 -0.356052 1.800000 41 20 12
0.790876 -0.352901 1.800000 41 19 17
0.790876 -0.349750 1.800000 42 21 23
0.790876 -0.346599 1.800000 43 22 25
0.790876 -0.343448 1.800000 46 26 27
0.786482 -0.338407 1.790000 50 28 32
0.782528 -0.333588 1.781000 54 29 37
0.782528 -0.330470 1.781000 59 29 30
0.782528 -0.327352 1.781000 55 26 24
0.782528 -0.324235 1.781000 51 27 26
0.782528 -0.321117 1.781000 49 25 28
0.778573 -0.316392 1.772000 47 25 28
0.778573 -0.313290 1.772000 44 27 28
0.778573 -0.310189 1.772000 42 26 22
0.778573 -0.307087 1.772000 39 26 16
0.778573 -0.303985 1.772000 37 22 19
0.778573 -0.300883 1.772000 36 19 23
0.778573 -0.297781 1.772000 36 20 23
0.778573 -0.294679 1.772000 38 24 23
0.778573 -0.291577 1.772000 40 23 20
0.778573 -0.288475 1.772000 41 22 18
0.778573 -0.285374 1.772000 43 21 21
0.778573 -0.282272 1.772000 42 18 24
0.778573 -0.279170 1.772000 41 17 25
0.778573 -0.276068 1.772000 41 18 26
0.778573 -0.272966 1.772000 41 18 25
0.782528 -0.271235 1.781000 39 14 23
0.782528 -0.268117 1.781000 38 15 18
0.778573 -0.263660 1.772000 35 17 13
0.778573 -0.260558 1.772000 33 16 14
0.778573 -0.257457 1.772000 31 14 16
0.778573 -0.254355 1.772000 30 13 18
0.774619 -0.249977 1.763000 35 13 21
0.774619 -0.246891 1.763000 41 16 27
0.774619 -0.243804 1.763000 45 22 33
0.778573 -0.241947 1.772000 50 29 46
0.778573 -0.238845 1.772000 55 39 58
0.778573 -0.235743 1.772000 61 36 56
0.782528 -0.233823 1.781000 55 34 53
0.778573 -0.229540 1.772000 50 28 51
0.778573 -0.226438 1.772000 52 30 50
0.778573 -0.223336 1.772000 55 37 54
0.778573 -0.220234 1.772000 56 42 59
0.778573 -0.217132 1.772000 57 44 62
0.778573 -0.214030 1.772000 57 47 65
0.778573 -0.210928 1.772000 58 49 72
0.778573 -0.207826 1.772000 64 52 79
0.778573 -0.204724 1.772000 70 52 83
0.778573 -0.201623 1.772000 60 50 87
0.778573 -0.198521 1.772000 50 48 86
0.778573 -0.195419 1.772000 52 47 86
0.778573 -0.192317 1.772000 54 48 83
0.778573 -0.189215 1.772000 54 50 81
0.778573 -0.186113 1.772000 55 56 83
0.778573 -0.183011 1.772000 53 55 86
0.778573 -0.179909 1.772000 52 46 78
0.778573 -0.176807 1.772000 49 35 71
0.778573 -0.173706 1.772000 46 31 61
0.778573 -0.170604 1.772000 45 26 52
0.778573 -0.167502 1.772000 44 26 47
0.778573 -0.164400 1.772000 43 21 43
0.778573 -0.161298 1.772000 43 21 37
0.778573 -0.158196 1.772000 42 21 31
0.774619 -0.154307 1.763000 41 30 40
0.774619 -0.151220 1.763000 45 34 49
0.778573 -0.148890 1.772000 49 32 48
0.774619 -0.145048 1.763000 50 34 48
0.774619 -0.141962 1.763000 52 32 46
0.774619 -0.138876 1.763000 52 30 44
0.774619 -0.135790 1.763000 52 29 48
0.774619 -0.132704 1.763000 52 28 51
0.770665 -0.128956 1.754000 52 31 55
0.770665 -0.125885 1.754000 54 34 58
0.770665 -0.122815 1.754000 56 37 54
0.770665 -0.119745 1.754000 57 40 49
0.770665 -0.116674 1.754000 58 40 48
0.770665 -0.113604 1.754000 60 38 47
0.770665 -0.110534 1.754000 63 38 49
0.774619 -0.108015 1.763000 61 36 52
0.774619 -0.104928 1.763000 60 35 51
0.774619 -0.101842 1.763000 59 39 50
0.770665 -0.098252 1.754000 58 40 58
0.774619 -0.095670 1.763000 64 42 67
0.774619 -0.092584 1.763000 71 44 71
0.774619 -0.089498 1.763000 74 46 76
0.774619 -0.086412 1.763000 77 49 66
0.838768 -0.070176 1.909000 83 46 55
0.838768 -0.066834 1.909000 81 47 51
0.838768 -0.063492 1.909000 82 50 48
0.834374 -0.059836 1.899000 84 53 51
0.838768 -0.056809 1.909000 82 55 54
0.838768 -0.053467 1.909000 81 53 52
0.838768 -0.050126 1.909000 78 52 50
0.838768 -0.046784 1.909000 76 53 52
0.838768 -0.043442 1.909000 70 53 53
0.762756 -0.036466 1.736000 64 50 52
0.762756 -0.033428 1.736000 62 46 50
0.762756 -0.030389 1.736000 60 44 47
0.762756 -0.027350 1.736000 56 43 44
0.762756 -0.024311 1.736000 53 44 45
0.762756 -0.021272 1.736000 56 46 47
0.774619 -0.018517 1.763000 60 50 49
0.778573 -0.015509 1.772000 62 56 51
0.778573 -0.012407 1.772000 65 56 56
0.778573 -0.009306 1.772000 67 60 61
0.782528 -0.006235 1.781000 69 63 59
0.786482 -0.003133 1.790000 72 66 56
0.794830 -0.000000 1.809000 76 66 63
0.811966 0.003235 1.848000 75 66 70
0.811966 0.006470 1.848000 75 63 65
0.807572 0.009652 1.838000 76 62 60
0.799224 0.012737 1.819000 77 61 64
0.799224 0.015921 1.819000 79 63 68
0.799224 0.019105 1.819000 82 66 70
0.803178 0.022399 1.828000 79 70 73
0.799224 0.025473 1.819000 77 70 71
0.803178 0.028799 1.828000 60 63 69
0.803178 0.031999 1.828000 43 53 70
0.807572 0.035392 1.838000 56 44 71
0.807572 0.038609 1.838000 69 45 73
0.807572 0.041826 1.838000 71 54 76
0.807572 0.045044 1.838000 74 50 74
0.807572 0.048261 1.838000 74 49 73
0.803178 0.051199 1.828000 75 55 96
0.953884 0.106409 2.171000 79 41 41
0.903795 0.104423 2.057000 153 56 23
0.903795 0.108023 2.057000 228 123 73
0.903795 0.111624 2.057000 241 254 124
0.903795 0.115225 2.057000 254 190 156
0.903795 0.118826 2.057000 254 254 188
0.909068 0.123141 2.069000 254 215 204
0.909068 0.134006 2.069000 254 254 227
0.909068 0.137628 2.069000 254 245 232
0.909068 0.141250 2.069000 254 254 237
0.909068 0.144871 2.069000 254 254 245
0.909068 0.148493 2.069000 254 254 254
0.909068 0.152115 2.069000 254 254 254
0.909068 0.155737 2.069000 254 254 254
0.909068 0.159359 2.069000 254 254 254
0.909068 0.162980 2.069000 254 254 254
0.909068 0.166602 2.069000 254 254 254
0.909068 0.170224 2.069000 254 254 254
0.909068 0.173846 2.069000 254 254 254
0.909068 0.177468 2.069000 254 254 254
0.909068 0.181089 2.069000 254 248 222
0.909068 0.184711 2.069000 205 254 191
0.903795 0.187241 2.057000 157 124 111
0.903795 0.190841 2.057000 101 2 30
0.903795 0.194442 2.057000 45 31 40
0.903795 0.198043 2.057000 52 50 50
0.903795 0.201644 2.057000 60 49 50
0.903795 0.205244 2.057000 55 46 50
0.903795 0.208845 2.057000 51 44 50
0.903795 0.212446 2.057000 51 45 49
0.903795 0.216047 2.057000 51 43 49
0.903795 0.219648 2.057000 50 44 48
0.903795 0.223248 2.057000 49 45 49
0.903795 0.226849 2.057000 48 43 51
0.903795 0.230450 2.057000 47 43 49
0.909068 0.235416 2.069000 45 41 48
0.903795 0.237651 2.057000 44 40 46
0.903795 0.241252 2.057000 44 38 45
0.909068 0.246281 2.069000 45 35 40
0.903795 0.248454 2.057000 42 32 36
0.903795 0.252055 2.057000 39 30 35
0.903795 0.255655 2.057000 40 26 34
0.903795 0.259256 2.057000 42 26 35
0.898523 0.261324 2.045000 45 28 37
0.898523 0.264903 2.045000 49 27 38
0.898523 0.268483 2.045000 45 27 40
0.898523 0.272063 2.045000 42 26 37
0.887978 0.272408 2.021000 48 24 34
0.877872 0.272805 1.998000 54 30 37
0.877872 0.276303 1.998000 50 39 41
0.877872 0.279800 1.998000 46 40 47
0.877872 0.283298 1.998000 44 38 53
0.887978 0.290096 2.021000 42 39 47
0.887978 0.293634 2.021000 42 40 41
0.887978 0.297172 2.021000 43 40 43
0.893250 0.302495 2.033000 43 38 45
0.893250 0.306054 2.033000 44 37 42
0.887978 0.307785 2.021000 43 37 39
0.887978 0.311323 2.021000 42 35 37
0.887978 0.314861 2.021000 42 31 35
0.887978 0.318399 2.021000 42 31 40
0.882705 0.320025 2.009000 32 21 45
0.887978 0.325474 2.021000 22 20 41
0.887978 0.329012 2.021000 24 20 37
0.887978 0.332550 2.021000 26 21 39
0.887978 0.336087 2.021000 26 21 42
0.887978 0.339625 2.021000 26 22 39
0.887978 0.343163 2.021000 26 26 36
0.887978 0.346701 2.021000 26 25 36
0.887978 0.350238 2.021000 30 24 36
0.887978 0.353776 2.021000 34 27 33
0.882705 0.355192 2.009000 39 30 30
0.882705 0.358709 2.009000 45 30 23
0.877872 0.360243 1.998000 43 26 17
0.632701 0.264676 1.440000 37 16 15
0.635337 0.268310 1.446000 34 13 14
0.635337 0.270841 1.446000 30 11 14
0.635337 0.273372 1.446000 27 10 13
0.635337 0.275903 1.446000 30 10 13
0.637973 0.279590 1.452000 34 12 12
0.637973 0.282132 1.452000 32 15 11
0.637973 0.284673 1.452000 30 14 11
0.637973 0.287215 1.452000 28 14 11
0.637973 0.289757 1.452000 27 13 11
0.637973 0.292299 1.452000 28 14 11
0.635337 0.293622 1.446000 29 12 11
0.635337 0.296153 1.446000 29 12 12
0.632701 0.297445 1.440000 29 13 11
0.632701 0.299966 1.440000 27 14 11
0.632701 0.302487 1.440000 26 11 8
0.632701 0.305007 1.440000 30 10 5
0.632701 0.307528 1.440000 34 10 7
0.635337 0.311340 1.446000 30 9 9
0.635337 0.313872 1.446000 26 9 9
0.635337 0.316403 1.446000 28 8 9
0.635337 0.318934 1.446000 30 8 9
0.632701 0.320131 1.440000 30 10 9
0.632701 0.322652 1.440000 31 11 9
0.632701 0.325173 1.440000 29 12 9
0.632701 0.327694 1.440000 27 12 13
0.630064 0.328839 1.434000 29 11 18
0.709592 0.373172 1.615000 31 10 13
0.716182 0.379491 1.630000 31 10 9
0.719697 0.384221 1.638000 31 10 8
0.719697 0.387088 1.638000 31 11 8
0.706077 0.382575 1.607000 32 11 11
0.706077 0.385388 1.607000 34 13 14
0.706077 0.388201 1.607000 36 15 15
0.635337 0.351840 1.446000 35 21 17
0.703001 0.392112 1.600000 35 19 21
0.632701 0.355422 1.440000 36 20 25
0.632701 0.357942 1.440000 37 19 25
0.632701 0.360463 1.440000 34 20 25
0.630064 0.361471 1.434000 31 24 27
0.699486 0.404086 1.592000 32 25 30
0.696410 0.405083 1.585000 34 22 29
0.614686 0.359996 1.399000 36 24 28
0.614686 0.362445 1.399000 39 22 20
0.624792 0.370893 1.422000 40 20 12
0.696410 0.416181 1.585000 41 20 20
0.696410 0.418956 1.585000 41 20 27
0.693335 0.419868 1.578000 42 19 34
0.696410 0.424505 1.585000 42 21 41
0.674002 0.413531 1.534000 43 23 30
0.677078 0.418116 1.541000 43 26 19
0.679275 0.422179 1.546000 44 26 22
0.693335 0.450253 1.578000 45 23 36
0.624792 0.408231 1.422000 44 26 36
0.696410 0.457800 1.585000 45 26 37
0.699486 0.462608 1.592000 47 29 34
0.630064 0.419206 1.434000 48 35 32
0.699486 0.468182 1.592000 49 35 31
0.693335 0.466827 1.578000 51 34 30
0.693335 0.469589 1.578000 53 31 32
0.690259 0.470256 1.571000 55 26 34
0.690259 0.473006 1.571000 58 33 35
0.686744 0.473334 1.563000 57 41 37
0.686744 0.476070 1.563000 56 40 37
0.686744 0.478806 1.563000 55 39 38
0.683668 0.479385 1.556000 55 39 39
0.686744 0.484278 1.563000 57 36 41
0.686744 0.487014 1.563000 60 41 41
0.690259 0.492256 1.571000 60 46 41
0.690259 0.495007 1.571000 61 45 41
0.693335 0.499974 1.578000 62 46 42
0.693335 0.502737 1.578000 63 45 41
0.696410 0.507741 1.585000 65 48 40
0.696410 0.510516 1.585000 68 49 42
0.696410 0.513290 1.585000 68 49 45
0.696410 0.516065 1.585000 68 50 37
0.699486 0.521131 1.592000 71 50 30
0.696410 0.521614 1.585000 74 51 38
0.693335 0.522073 1.578000 76 53 47
0.693335 0.524835 1.578000 78 52 51
0.690259 0.525257 1.571000 78 49 55
0.696410 0.532712 1.585000 79 49 51
0.696410 0.535487 1.585000 78 51 47
0.693335 0.535884 1.578000 77 50 46
0.690259 0.536257 1.571000 77 48 45
0.690259 0.539007 1.571000 78 52 43
0.690259 0.541757 1.571000 73 53 42
0.690259 0.544507 1.571000 68 49 41
0.690259 0.547257 1.571000 64 41 41
0.690259 0.550007 1.571000 60 36 36
0.693335 0.555220 1.578000 58 34 32
0.693335 0.557983 1.578000 56 36 36
0.693335 0.560745 1.578000 63 45 39
0.693335 0.563507 1.578000 71 50 42
0.693335 0.566269 1.578000 72 53 44
0.693335 0.569032 1.578000 73 54 47
0.693335 0.571794 1.578000 73 52 51
0.693335 0.574556 1.578000 73 51 51
0.693335 0.577318 1.578000 75 51 51
0.693335 0.580081 1.578000 77 51 50
0.693335 0.582843 1.578000 78 50 50
0.693335 0.585605 1.578000 80 51 50
0.690259 0.585758 1.571000 81 55 50
0.690259 0.588508 1.571000 82 61 48
0.690259 0.591258 1.571000 81 62 47
0.686744 0.590983 1.563000 80 60 49
0.683668 0.591060 1.556000 75 55 51
0.677517 0.588441 1.542000 70 51 50
0.668730 0.583473 1.522000 65 45 49
0.663018 0.581131 1.509000 61 44 44
0.657306 0.578743 1.496000 63 46 39
0.654230 0.578642 1.489000 65 45 42
0.651594 0.578906 1.483000 65 45 45
0.846962 -0.752855 1.920000 59 32 32
0.846962 -0.749494 1.920000 57 31 28
0.846962 -0.746133 1.920000 54 30 25
0.794027 -0.686896 1.800000 39 26 27
0.794027 -0.683745 1.800000 36 24 28
0.794027 -0.680594 1.800000 33 23 31
0.794027 -0.677444 1.800000 32 24 34
0.797997 -0.677664 1.809000 32 24 38
0.797997 -0.674497 1.809000 30 26 42
0.794027 -0.667991 1.800000 29 24 38
0.810790 -0.678875 1.838000 31 24 35
0.810790 -0.675658 1.838000 33 26 36
0.810790 -0.672441 1.838000 34 27 38
0.810790 -0.669223 1.838000 35 27 38
0.806378 -0.662382 1.828000 35 27 38
0.810790 -0.662788 1.838000 36 30 39
0.806378 -0.655982 1.828000 36 30 41
0.794027 -0.642784 1.800000 36 30 40
0.789616 -0.636079 1.790000 34 31 40
0.789616 -0.632946 1.790000 33 31 37
0.785645 -0.626646 1.781000 34 30 34
0.794027 -0.491540 1.800000 32 14 30
0.794027 -0.488390 1.800000 30 17 22
0.794027 -0.485239 1.800000 28 19 21
0.794027 -0.482088 1.800000 30 16 21
0.794027 -0.478937 1.800000 32 15 21
0.794027 -0.475786 1.800000 35 16 21
0.794027 -0.472635 1.800000 38 15 17
0.794027 -0.469484 1.800000 35 16 14
0.794027 -0.466333 1.800000 32 16 7
0.794027 -0.463182 1.800000 33 19 1
0.794027 -0.460031 1.800000 34 22 13
0.794027 -0.456881 1.800000 32 19 25
0.794027 -0.453730 1.800000 31 18 26
0.794027 -0.450579 1.800000 33 15 27
0.794027 -0.447428 1.800000 35 16 27
0.794027 -0.444277 1.800000 35 19 27
0.794027 -0.441126 1.800000 35 19 21
0.789616 -0.435542 1.790000 36 16 16
0.794027 -0.434824 1.800000 38 14 14
0.789616 -0.429275 1.790000 38 19 13
0.794027 -0.428522 1.800000 39 21 17
0.789616 -0.423008 1.790000 42 23 21
0.794027 -0.422221 1.800000 44 24 19
0.794027 -0.419070 1.800000 46 22 17
0.794027 -0.415919 1.800000 47 21 19
0.789616 -0.410475 1.790000 45 19 21
0.789616 -0.407341 1.790000 44 18 23
0.789616 -0.404208 1.790000 40 18 25
0.789616 -0.401075 1.790000 37 17 22
0.785645 -0.395940 1.781000 35 19 20
0.789616 -0.394808 1.790000 33 21 18
0.794027 -0.393862 1.800000 31 20 17
0.789616 -0.388541 1.790000 30 19 9
0.789616 -0.385408 1.790000 32 20 2
0.789616 -0.382274 1.790000 34 19 10
0.794027 -0.381259 1.800000 35 18 19
0.794027 -0.378108 1.800000 36 21 17
0.794027 -0.374957 1.800000 36 19 16
0.794027 -0.371806 1.800000 36 17 15
0.789616 -0.366607 1.790000 38 15 15
0.789616 -0.363474 1.790000 40 13 14
0.794027 -0.362353 1.800000 40 16 13
0.794027 -0.359203 1.800000 41 19 9
0.794027 -0.356052 1.800000 40 18 5
0.794027 -0.352901 1.800000 40 18 13
0.794027 -0.349750 1.800000 42 20 21
0.794027 -0.346599 1.800000 45 22 24
0.794027 -0.343448 1.800000 47 26 28
0.789616 -0.338407 1.790000 50 32 28
0.789616 -0.335273 1.790000 52 31 28
0.789616 -0.332140 1.790000 54 32 26
0.785645 -0.327352 1.781000 51 28 24
0.785645 -0.324235 1.781000 49 26 25
0.785645 -0.321117 1.781000 47 23 26
0.781675 -0.316392 1.772000 45 22 27
0.781675 -0.313290 1.772000 43 23 29
0.781675 -0.310189 1.772000 40 26 19
0.777705 -0.305527 1.763000 39 24 10
0.781675 -0.303985 1.772000 37 22 17
0.777705 -0.299355 1.763000 38 19 25
0.781675 -0.297781 1.772000 38 18 21
0.777705 -0.293183 1.763000 38 21 18
0.777705 -0.290096 1.763000 38 21 19
0.781675 -0.288475 1.772000 39 22 21
0.781675 -0.285374 1.772000 41 24 21
0.781675 -0.282272 1.772000 39 20 21
0.781675 -0.279170 1.772000 38 17 23
0.781675 -0.276068 1.772000 38 18 26
0.781675 -0.272966 1.772000 38 21 20
0.785645 -0.271235 1.781000 37 16 15
0.785645 -0.268117 1.781000 37 15 9
0.785645 -0.264999 1.781000 34 14 3
0.781675 -0.260558 1.772000 31 12 8
0.781675 -0.257457 1.772000 30 13 13
0.781675 -0.254355 1.772000 28 13 17
0.777705 -0.249977 1.763000 34 15 21
0.777705 -0.246891 1.763000 40 20 27
0.777705 -0.243804 1.763000 45 24 34
0.777705 -0.240718 1.763000 50 29 38
0.777705 -0.237632 1.763000 53 33 43
0.781675 -0.235743 1.772000 56 36 48
0.781675 -0.232641 1.772000 52 32 53
0.781675 -0.229540 1.772000 48 29 51
0.781675 -0.226438 1.772000 51 33 50
0.781675 -0.223336 1.772000 54 41 57
0.781675 -0.220234 1.772000 55 43 65
0.781675 -0.217132 1.772000 56 47 65
0.781675 -0.214030 1.772000 57 47 65
0.781675 -0.210928 1.772000 59 53 72
0.781675 -0.207826 1.772000 62 54 80
0.781675 -0.204724 1.772000 65 56 86
0.781675 -0.201623 1.772000 59 52 93
0.781675 -0.198521 1.772000 53 51 91
0.781675 -0.195419 1.772000 54 52 89
0.781675 -0.192317 1.772000 56 56 94
0.777705 -0.188254 1.763000 58 55 100
0.781675 -0.186113 1.772000 60 62 95
0.781675 -0.183011 1.772000 56 55 90
0.781675 -0.179909 1.772000 52 48 81
0.781675 -0.176807 1.772000 49 41 73
0.777705 -0.172823 1.763000 45 38 61
0.781675 -0.170604 1.772000 43 33 50
0.781675 -0.167502 1.772000 42 33 45
0.781675 -0.164400 1.772000 42 26 40
0.781675 -0.161298 1.772000 43 23 30
0.777705 -0.157393 1.763000 43 26 21
0.777705 -0.154307 1.763000 44 35 35
0.777705 -0.151220 1.763000 46 34 49
0.781675 -0.148890 1.772000 49 30 50
0.777705 -0.145048 1.763000 52 33 51
0.781675 -0.142687 1.772000 55 34 50
0.777705 -0.138876 1.763000 55 31 50
0.773735 -0.135097 1.754000 55 30 51
0.773735 -0.132026 1.754000 55 31 53
0.773735 -0.128956 1.754000 56 34 56
0.773735 -0.125885 1.754000 57 35 59
0.773735 -0.122815 1.754000 59 37 53
0.773735 -0.119745 1.754000 59 39 48
0.773735 -0.116674 1.754000 60 41 46
0.773735 -0.113604 1.754000 64 40 44
0.777705 -0.111101 1.763000 68 41 48
0.777705 -0.108015 1.763000 65 36 53
0.777705 -0.104928 1.763000 61 32 54
0.773735 -0.101322 1.754000 60 36 56
0.773735 -0.098252 1.754000 60 38 60
0.777705 -0.095670 1.763000 66 42 65
0.777705 -0.092584 1.763000 72 46 66
0.777705 -0.089498 1.763000 74 47 67
0.777705 -0.086412 1.763000 76 49 57
0.777705 -0.083326 1.763000 77 48 47
0.777705 -0.080239 1.763000 78 46 56
0.777705 -0.077153 1.763000 79 49 66
0.777705 -0.064809 1.763000 81 47 53
0.809907 -0.064278 1.836000 80 47 50
0.837698 -0.063160 1.899000 84 51 48
0.769765 -0.054983 1.745000 88 58 55
0.773735 -0.052196 1.754000 84 54 63
0.773735 -0.049126 1.754000 80 52 55
0.777705 -0.046292 1.763000 77 52 47
0.773735 -0.042985 1.754000 75 57 46
0.773735 -0.039915 1.754000 68 51 46
0.769765 -0.036655 1.745000 62 46 47
0.769765 -0.033601 1.745000 60 44 48
0.769765 -0.030546 1.745000 59 43 45
0.765795 -0.027350 1.736000 56 44 43
0.765795 -0.024311 1.736000 54 45 46
0.769765 -0.021382 1.745000 58 47 49
0.773735 -0.018422 1.754000 62 51 51
0.777705 -0.015431 1.763000 63 54 53
0.781675 -0.012407 1.772000 65 56 61
0.781675 -0.009306 1.772000 68 59 70
0.785645 -0.006235 1.781000 71 63 62
0.789616 -0.003133 1.790000 73 64 55
0.797997 -0.000000 1.809000 76 66 60
0.810790 0.003217 1.838000 75 65 65
0.810790 0.006435 1.838000 74 63 68
0.806378 0.009600 1.828000 74 62 71
0.802408 0.012737 1.819000 75 60 69
0.802408 0.015921 1.819000 77 63 68
0.802408 0.019105 1.819000 80 65 73
0.794027 0.022056 1.800000 79 69 78
0.802408 0.025473 1.819000 78 71 76
0.802408 0.028657 1.819000 61 61 74
0.802408 0.031842 1.819000 44 51 75
0.806378 0.035199 1.828000 57 45 76
0.806378 0.038399 1.828000 70 44 75
0.810790 0.041826 1.838000 68 36 75
0.810790 0.045044 1.838000 66 48 69
0.806378 0.047999 1.828000 79 47 63
0.802408 0.050947 1.819000 92 90 114
0.802408 0.054131 1.819000 88 49 165
0.797997 0.057000 1.809000 84 73 141
1.007973 0.111997 2.285000 71 12 41
0.982829 0.113103 2.228000 114 17 44
0.975771 0.116163 2.212000 158 1 22
0.975771 0.120035 2.212000 169 64 1
0.975771 0.123908 2.212000 181 1 61
0.975771 0.127780 2.212000 198 116 122
0.912690 0.123141 2.069000 215 100 154
0.912690 0.134006 2.069000 228 203 200
0.907396 0.136830 2.057000 235 219 210
0.912690 0.141250 2.069000 241 240 221
0.912690 0.144871 2.069000 246 254 237
0.912690 0.148493 2.069000 249 253 254
0.912690 0.152115 2.069000 252 254 254
0.912690 0.155737 2.069000 253 254 254
0.912690 0.159359 2.069000 254 254 254
0.912690 0.162980 2.069000 254 254 254
0.912690 0.166602 2.069000 254 254 254
0.912690 0.170224 2.069000 254 254 254
0.912690 0.173846 2.069000 254 254 254
0.912690 0.177468 2.069000 247 248 254
0.912690 0.181089 2.069000 240 233 191
0.912690 0.184711 2.069000 184 185 129
0.907396 0.187241 2.057000 128 84 65
0.907396 0.190841 2.057000 93 52 2
0.907396 0.194442 2.057000 58 45 29
0.907396 0.198043 2.057000 62 54 57
0.907396 0.201644 2.057000 67 57 55
0.902103 0.204047 2.045000 61 50 53
0.907396 0.208845 2.057000 56 47 50
0.907396 0.212446 2.057000 56 47 47
0.902103 0.214786 2.045000 55 49 46
0.902103 0.218366 2.045000 55 49 45
0.902103 0.221946 2.045000 55 51 49
0.902103 0.225526 2.045000 53 47 53
0.907396 0.230450 2.057000 52 47 51
0.907396 0.234051 2.057000 50 45 49
0.907396 0.237651 2.057000 48 45 50
0.907396 0.241252 2.057000 47 41 51
0.907396 0.244853 2.057000 46 40 42
0.907396 0.248454 2.057000 43 36 34
0.907396 0.252055 2.057000 40 33 34
0.907396 0.255655 2.057000 38 29 34
0.907396 0.259256 2.057000 37 26 34
0.896809 0.259790 2.033000 41 27 34
0.902103 0.264903 2.045000 45 25 33
0.902103 0.268483 2.045000 43 27 33
0.902103 0.272063 2.045000 41 26 31
0.886222 0.270790 2.009000 45 25 30
0.881370 0.272805 1.998000 50 29 34
0.881370 0.276303 1.998000 46 37 39
0.876076 0.278120 1.986000 43 44 49
0.881370 0.283298 1.998000 43 39 59
0.881370 0.286795 1.998000 43 38 47
0.886222 0.291891 2.009000 44 38 36
0.891516 0.297172 2.021000 45 41 35
0.891516 0.300710 2.021000 44 38 35
0.891516 0.304247 2.021000 43 39 34
0.891516 0.307785 2.021000 42 37 34
0.891516 0.311323 2.021000 41 38 33
0.891516 0.314861 2.021000 41 36 32
0.891516 0.318399 2.021000 42 38 38
0.891516 0.321936 2.021000 30 27 45
0.891516 0.325474 2.021000 19 22 42
0.891516 0.329012 2.021000 22 21 39
0.891516 0.332550 2.021000 25 23 44
0.891516 0.336087 2.021000 27 21 49
0.896809 0.341642 2.033000 28 20 41
0.896809 0.345200 2.033000 25 23 34
0.891516 0.346701 2.021000 21 26 34
0.891516 0.350238 2.021000 29 26 34
0.891516 0.353776 2.021000 37 27 33
0.886222 0.355192 2.009000 45 28 32
0.886222 0.358709 2.009000 53 30 22
0.881370 0.360243 1.998000 47 25 13
0.635222 0.264676 1.440000 37 16 15
0.637868 0.268310 1.446000 34 13 13
0.637868 0.270841 1.446000 28 12 12
0.637868 0.273372 1.446000 23 12 11
0.637868 0.275903 1.446000 26 10 10
0.640515 0.279590 1.452000 30 11 10
0.640515 0.282132 1.452000 29 12 11
0.640515 0.284673 1.452000 28 12 11
0.637868 0.286028 1.446000 27 13 11
0.640515 0.289757 1.452000 27 14 11
0.640515 0.292299 1.452000 29 13 11
0.637868 0.293622 1.446000 31 13 9
0.640515 0.297382 1.452000 30 12 7
0.637868 0.298684 1.446000 30 13 8
0.637868 0.301216 1.446000 29 12 10
0.637868 0.303747 1.446000 28 9 7
0.637868 0.306278 1.446000 29 10 5
0.637868 0.308809 1.446000 30 12 7
0.637868 0.311340 1.446000 28 10 9
0.640515 0.315174 1.452000 27 10 9
0.637868 0.316403 1.446000 28 8 9
0.637868 0.318934 1.446000 29 7 9
0.637868 0.321465 1.446000 30 9 9
0.637868 0.323997 1.446000 30 11 10
0.635222 0.325173 1.440000 28 12 11
0.635222 0.327694 1.440000 27 13 18
0.635222 0.330214 1.440000 28 12 26
0.632575 0.331349 1.434000 29 12 17
0.635222 0.335256 1.440000 28 11 9
0.635222 0.337777 1.440000 28 12 7
0.725652 0.388742 1.645000 29 10 5
0.729181 0.393526 1.653000 31 10 7
0.635222 0.345339 1.440000 32 12 10
0.635222 0.347859 1.440000 33 15 13
0.635222 0.350380 1.440000 34 17 16
0.637868 0.354371 1.446000 34 18 20
0.637868 0.356903 1.446000 36 19 25
0.635222 0.357942 1.440000 37 22 25
0.635222 0.360463 1.440000 35 21 25
0.632575 0.361471 1.434000 34 25 25
0.632575 0.363982 1.434000 34 22 26
0.629928 0.364958 1.428000 35 17 27
0.629928 0.367458 1.428000 36 21 28
0.627281 0.368403 1.422000 36 23 21
0.627281 0.370893 1.422000 37 22 15
0.627281 0.373382 1.422000 39 22 18
0.629928 0.377457 1.428000 39 20 21
0.629928 0.379957 1.428000 40 22 27
0.699185 0.424505 1.585000 40 22 34
0.654631 0.400052 1.484000 40 24 29
0.657278 0.404278 1.490000 41 26 25
0.658601 0.407706 1.493000 42 28 24
0.664336 0.429709 1.506000 42 24 33
0.629928 0.409953 1.428000 42 28 33
0.629928 0.412453 1.428000 42 27 33
0.632575 0.416696 1.434000 43 29 32
0.632575 0.419206 1.434000 44 32 31
0.632575 0.421716 1.434000 45 35 28
0.632575 0.424227 1.434000 47 33 26
0.693009 0.467506 1.571000 49 32 27
0.693009 0.470256 1.571000 52 29 29
0.693009 0.473006 1.571000 56 29 32
0.689480 0.473334 1.563000 55 35 35
0.689480 0.476070 1.563000 55 38 35
0.686392 0.476661 1.556000 54 38 36
0.686392 0.479385 1.556000 54 39 36
0.689480 0.484278 1.563000 55 38 36
0.686392 0.484833 1.556000 57 39 37
0.693009 0.492256 1.571000 57 40 39
0.693009 0.495007 1.571000 57 41 40
0.696097 0.499974 1.578000 59 41 41
0.696097 0.502737 1.578000 60 40 40
0.699185 0.507741 1.585000 63 43 39
0.696097 0.508261 1.578000 65 46 40
0.699185 0.513290 1.585000 64 47 41
0.699185 0.516065 1.585000 64 49 26
0.699185 0.518840 1.585000 63 48 11
0.696097 0.519310 1.578000 63 49 25
0.696097 0.522073 1.578000 67 51 40
0.693009 0.522507 1.571000 71 52 44
0.693009 0.525257 1.571000 71 47 48
0.693009 0.528007 1.571000 72 45 43
0.689480 0.528054 1.563000 72 47 39
0.686392 0.528413 1.556000 72 47 38
0.689480 0.533526 1.563000 72 47 37
0.683304 0.531459 1.549000 73 51 35
0.693009 0.541757 1.571000 68 50 34
0.693009 0.544507 1.571000 64 50 34
0.693009 0.547257 1.571000 59 40 34
0.686392 0.544756 1.556000 55 31 33
0.689480 0.549942 1.563000 51 31 32
0.696097 0.557983 1.578000 48 30 34
0.693009 0.558257 1.571000 57 41 37
0.693009 0.561007 1.571000 66 51 41
0.693009 0.563757 1.571000 68 52 45
0.693009 0.566507 1.571000 70 54 48
0.693009 0.569257 1.571000 69 51 52
0.693009 0.572008 1.571000 69 49 50
0.693009 0.574758 1.571000 70 49 49
0.693009 0.577508 1.571000 72 49 47
0.693009 0.580258 1.571000 72 48 45
0.693009 0.583008 1.571000 73 50 39
0.689480 0.582775 1.563000 75 51 33
0.689480 0.585511 1.563000 76 56 38
0.689480 0.588247 1.563000 76 56 43
0.689480 0.590983 1.563000 76 58 44
0.683304 0.588401 1.549000 71 52 45
0.680216 0.588441 1.542000 67 50 47
0.668306 0.580790 1.515000 62 44 49
0.662571 0.578435 1.502000 58 40 39
0.659925 0.578743 1.496000 60 40 30
0.656837 0.578642 1.489000 61 42 34
0.654190 0.578906 1.483000 61 40 38
0.850323 -0.752855 1.920000 56 28 41
0.797178 -0.686896 1.800000 36 25 32
0.797178 -0.683745 1.800000 35 26 32
0.797178 -0.680594 1.800000 34 25 33
0.797178 -0.677444 1.800000 32 26 35
0.801164 -0.677664 1.809000 30 26 41
0.801164 -0.674497 1.809000 29 29 47
0.797178 -0.667991 1.800000 29 25 43
0.814007 -0.678875 1.838000 30 21 39
0.814007 -0.675658 1.838000 32 25 43
0.814007 -0.672441 1.838000 33 28 47
0.814007 -0.669223 1.838000 34 26 41
0.809578 -0.662382 1.828000 34 25 36
0.814007 -0.662788 1.838000 34 28 38
0.809578 -0.655982 1.828000 34 32 40
0.792749 -0.639213 1.790000 34 29 42
0.788763 -0.632881 1.781000 28 30 44
0.788763 -0.629763 1.781000 22 28 40
0.788763 -0.626646 1.781000 27 28 37
0.792749 -0.626679 1.790000 33 27 35
0.797178 -0.494691 1.800000 32 16 34
0.797178 -0.491540 1.800000 31 16 26
0.797178 -0.488390 1.800000 27 20 18
0.797178 -0.485239 1.800000 24 19 18
0.797178 -0.482088 1.800000 28 18 18
0.797178 -0.478937 1.800000 32 17 18
0.797178 -0.475786 1.800000 33 19 18
0.797178 -0.472635 1.800000 34 18 17
0.797178 -0.469484 1.800000 33 19 16
0.797178 -0.466333 1.800000 32 19 11
0.797178 -0.463182 1.800000 35 21 6
0.797178 -0.460031 1.800000 39 21 15
0.797178 -0.456881 1.800000 34 20 25
0.797178 -0.453730 1.800000 30 18 26
0.797178 -0.450579 1.800000 31 15 27
0.797178 -0.447428 1.800000 33 16 27
0.797178 -0.444277 1.800000 34 20 26
0.797178 -0.441126 1.800000 35 18 21
0.797178 -0.437975 1.800000 36 17 17
0.797178 -0.434824 1.800000 38 18 13
0.797178 -0.431673 1.800000 40 21 10
0.797178 -0.428522 1.800000 43 22 14
0.797178 -0.425372 1.800000 43 24 18
0.797178 -0.422221 1.800000 44 23 17
0.797178 -0.419070 1.800000 42 24 15
0.792749 -0.413608 1.790000 41 20 18
0.788763 -0.408411 1.781000 41 21 20
0.788763 -0.405293 1.781000 42 21 21
0.788763 -0.402176 1.781000 38 22 22
0.788763 -0.399058 1.781000 34 19 20
0.784777 -0.393940 1.772000 32 21 19
0.788763 -0.392823 1.781000 30 22 18
0.792749 -0.391674 1.790000 28 24 17
0.792749 -0.388541 1.790000 27 22 14
0.792749 -0.385408 1.790000 26 22 12
0.792749 -0.382274 1.790000 26 18 18
0.797178 -0.381259 1.800000 31 16 24
0.797178 -0.378108 1.800000 37 18 18
0.797178 -0.374957 1.800000 37 18 13
0.797178 -0.371806 1.800000 38 17 14
0.797178 -0.368655 1.800000 38 16 15
0.797178 -0.365504 1.800000 38 15 14
0.797178 -0.362353 1.800000 39 19 13
0.797178 -0.359203 1.800000 41 19 12
0.797178 -0.356052 1.800000 40 17 11
0.797178 -0.352901 1.800000 40 19 16
0.797178 -0.349750 1.800000 43 22 21
0.797178 -0.346599 1.800000 47 22 22
0.797178 -0.343448 1.800000 49 26 24
0.792749 -0.338407 1.790000 51 30 25
0.792749 -0.335273 1.790000 50 34 26
0.792749 -0.332140 1.790000 50 32 25
0.792749 -0.329006 1.790000 48 30 24
0.788763 -0.324235 1.781000 47 26 28
0.788763 -0.321117 1.781000 45 22 32
0.784777 -0.316392 1.772000 44 21 28
0.784777 -0.313290 1.772000 41 20 25
0.780791 -0.308613 1.763000 39 24 20
0.780791 -0.305527 1.763000 38 25 15
0.780791 -0.302441 1.763000 38 21 19
0.784777 -0.300883 1.772000 39 17 22
0.784777 -0.297781 1.772000 41 18 20
0.784777 -0.294679 1.772000 38 21 18
0.780791 -0.290096 1.763000 36 22 21
0.784777 -0.288475 1.772000 37 24 25
0.784777 -0.285374 1.772000 39 24 22
0.784777 -0.282272 1.772000 37 24 20
0.784777 -0.279170 1.772000 36 21 21
0.784777 -0.276068 1.772000 35 19 22
0.784777 -0.272966 1.772000 35 18 18
0.788763 -0.271235 1.781000 36 16 15
0.788763 -0.268117 1.781000 37 15 11
0.784777 -0.263660 1.772000 33 14 8
0.784777 -0.260558 1.772000 30 13 11
0.784777 -0.257457 1.772000 28 15 14
0.784777 -0.254355 1.772000 27 14 22
0.780791 -0.249977 1.763000 33 17 29
0.780791 -0.246891 1.763000 40 21 34
0.780791 -0.243804 1.763000 45 28 40
0.780791 -0.240718 1.763000 50 30 41
0.780791 -0.237632 1.763000 50 30 43
0.780791 -0.234546 1.763000 51 32 45
0.784777 -0.232641 1.772000 48 32 48
0.784777 -0.229540 1.772000 46 29 37
0.784777 -0.226438 1.772000 49 33 27
0.784777 -0.223336 1.772000 53 39 44
0.784777 -0.220234 1.772000 54 44 61
0.784777 -0.217132 1.772000 55 43 57
0.784777 -0.214030 1.772000 57 43 53
0.780791 -0.209857 1.763000 60 49 64
0.784777 -0.207826 1.772000 60 56 76
0.780791 -0.203685 1.763000 60 54 80
0.784777 -0.201623 1.772000 58 51 85
0.784777 -0.198521 1.772000 56 51 85
0.784777 -0.195419 1.772000 57 55 85
0.784777 -0.192317 1.772000 59 54 89
0.784777 -0.189215 1.772000 62 54 93
0.784777 -0.186113 1.772000 66 55 89
0.784777 -0.183011 1.772000 59 55 86
0.784777 -0.179909 1.772000 53 48 76
0.784777 -0.176807 1.772000 49 44 66
0.780791 -0.172823 1.763000 45 38 58
0.780791 -0.169737 1.763000 42 38 50
0.784777 -0.167502 1.772000 40 34 47
0.780791 -0.163565 1.763000 42 30 43
0.780791 -0.160479 1.763000 44 26 37
0.780791 -0.157393 1.763000 45 28 32
0.780791 -0.154307 1.763000 47 32 43
0.780791 -0.151220 1.763000 48 38 54
0.784777 -0.148890 1.772000 50 35 59
0.784777 -0.145789 1.772000 54 34 64
0.780791 -0.141962 1.763000 58 36 59
0.780791 -0.138876 1.763000 58 33 54
0.780791 -0.135790 1.763000 58 33 57
0.780791 -0.132704 1.763000 59 32 60
0.772820 -0.128294 1.745000 60 34 59
0.776805 -0.125885 1.754000 61 37 57
0.776805 -0.122815 1.754000 62 39 54
0.776805 -0.119745 1.754000 62 41 50
0.776805 -0.116674 1.754000 63 41 47
0.776805 -0.113604 1.754000 68 42 44
0.780791 -0.111101 1.763000 74 39 47
0.780791 -0.108015 1.763000 68 35 51
0.780791 -0.104928 1.763000 63 35 52
0.776805 -0.101322 1.754000 62 38 53
0.776805 -0.098252 1.754000 62 39 57
0.780791 -0.095670 1.763000 68 42 60
0.780791 -0.092584 1.763000 74 45 61
0.780791 -0.089498 1.763000 75 48 62
0.780791 -0.086412 1.763000 76 48 58
0.780791 -0.083326 1.763000 77 50 54
0.780791 -0.080239 1.763000 79 47 59
0.784777 -0.077547 1.772000 80 49 64
0.784777 -0.074445 1.772000 81 51 62
0.784777 -0.071343 1.772000 80 53 61
0.784777 -0.068241 1.772000 80 49 56
0.780791 -0.064809 1.763000 80 46 52
0.780791 -0.061723 1.763000 80 47 47
0.776805 -0.058337 1.754000 86 49 43
0.774591 -0.055109 1.749000 93 51 51
0.776805 -0.052196 1.754000 86 51 59
0.776805 -0.049126 1.754000 80 50 53
0.776805 -0.046056 1.754000 77 48 48
0.776805 -0.042985 1.754000 74 49 46
0.776805 -0.039915 1.754000 67 48 45
0.774591 -0.036739 1.749000 60 43 45
0.774591 -0.033678 1.749000 59 42 46
0.772820 -0.030546 1.745000 58 43 44
0.768834 -0.027350 1.736000 57 46 42
0.772820 -0.024437 1.745000 56 45 45
0.772820 -0.021382 1.745000 60 47 47
0.776805 -0.018422 1.754000 64 51 50
0.780791 -0.015431 1.763000 64 55 53
0.780791 -0.012344 1.763000 65 56 58
0.784777 -0.009306 1.772000 69 60 64
0.788763 -0.006235 1.781000 73 61 59
0.788763 -0.003118 1.781000 75 64 55
0.801164 -0.000000 1.809000 77 66 60
0.814007 0.003217 1.838000 75 67 65
0.814007 0.006435 1.838000 74 64 66
0.805592 0.009553 1.819000 73 63 68
0.805592 0.012737 1.819000 73 62 67
0.801164 0.015833 1.809000 76 65 66
0.801164 0.019000 1.809000 79 66 69
0.805592 0.022289 1.819000 79 71 73
0.805592 0.025473 1.819000 80 68 73
0.801164 0.028500 1.809000 62 62 73
0.801164 0.031667 1.809000 45 46 71
0.809578 0.035199 1.828000 58 42 69
0.805592 0.038210 1.819000 71 59 86
0.814007 0.041826 1.838000 65 1 103
0.809578 0.044799 1.828000 59 71 123
0.809578 0.047999 1.828000 84 1 144
0.805592 0.050947 1.819000 110 86 176
0.801164 0.053833 1.809000 104 1 209
0.801164 0.057000 1.809000 98 82 197
1.055818 0.112676 2.384000 56 1 113
1.062904 0.117634 2.400000 63 49 111
1.062904 0.121835 2.400000 76 1 109
1.048289 0.124303 2.367000 89 1 76
1.048289 0.128446 2.367000 98 1 44
1.048289 0.132590 2.367000 108 29 73
1.048289 0.136733 2.367000 142 111 103
1.041203 0.139925 2.351000 177 104 123
0.916312 0.134006 2.069000 202 181 140
0.910997 0.136830 2.057000 217 158 144
0.910997 0.140430 2.057000 228 234 149
0.910997 0.144031 2.057000 239 185 152
0.910997 0.147632 2.057000 244 251 156
0.910997 0.151233 2.057000 250 190 155
0.910997 0.154834 2.057000 252 254 154
0.910997 0.158434 2.057000 254 190 154
0.916312 0.162980 2.069000 254 254 154
0.916312 0.166602 2.069000 254 190 152
0.916312 0.170224 2.069000 254 254 151
0.916312 0.173846 2.069000 254 190 148
0.916312 0.177468 2.069000 240 254 145
0.910997 0.180039 2.057000 227 165 116
0.910997 0.183640 2.057000 163 172 87
0.910997 0.187241 2.057000 100 86 64
0.910997 0.190841 2.057000 86 77 40
0.910997 0.194442 2.057000 72 60 50
0.910997 0.198043 2.057000 73 65 60
0.910997 0.201644 2.057000 74 56 58
0.905683 0.204047 2.045000 68 51 56
0.910997 0.208845 2.057000 62 48 54
0.910997 0.212446 2.057000 61 50 52
0.905683 0.214786 2.045000 60 49 52
0.900368 0.217085 2.033000 61 53 52
0.900368 0.220644 2.033000 62 52 52
0.905683 0.225526 2.045000 59 50 53
0.905683 0.229106 2.045000 57 49 52
0.910997 0.234051 2.057000 55 50 51
0.910997 0.237651 2.057000 53 45 50
0.910997 0.241252 2.057000 50 41 50
0.910997 0.244853 2.057000 48 41 43
0.910997 0.248454 2.057000 44 41 36
0.910997 0.252055 2.057000 41 36 33
0.910997 0.255655 2.057000 36 33 29
0.910997 0.259256 2.057000 32 28 26
0.895053 0.258257 2.021000 37 30 24
0.900368 0.263349 2.033000 42 27 27
0.895053 0.265332 2.021000 41 30 30
0.895053 0.268870 2.021000 41 25 24
0.889739 0.270790 2.009000 43 21 18
0.887082 0.273488 2.003000 46 29 25
0.887082 0.276994 2.003000 43 38 33
0.884424 0.279660 1.997000 40 38 38
0.887082 0.284006 2.003000 42 37 43
0.889739 0.288374 2.009000 44 35 39
0.889739 0.291891 2.009000 45 36 34
0.889739 0.295407 2.009000 47 35 32
0.895053 0.300710 2.021000 45 36 31
0.895053 0.304247 2.021000 43 35 30
0.895053 0.307785 2.021000 41 34 30
0.895053 0.311323 2.021000 40 34 30
0.895053 0.314861 2.021000 41 37 30
0.889739 0.316508 2.009000 42 34 38
0.889739 0.320025 2.009000 29 30 46
0.895053 0.325474 2.021000 16 25 42
0.895053 0.329012 2.021000 20 22 38
0.895053 0.332550 2.021000 25 21 39
0.895053 0.336087 2.021000 28 20 39
0.895053 0.339625 2.021000 31 21 34
0.900368 0.345200 2.033000 24 23 28
0.895053 0.346701 2.021000 17 24 29
0.895053 0.350238 2.021000 29 27 31
0.895053 0.353776 2.021000 41 26 29
0.889739 0.355192 2.009000 51 26 27
0.889739 0.358709 2.009000 62 26 20
0.887082 0.361144 2.003000 51 23 14
0.640399 0.265779 1.446000 38 15 12
0.640399 0.268310 1.446000 35 14 12
0.640399 0.270841 1.446000 27 14 12
0.640399 0.273372 1.446000 19 12 9
0.640399 0.275903 1.446000 23 10 7
0.640399 0.278435 1.446000 27 12 7
0.643057 0.282132 1.452000 27 13 8
0.643057 0.284673 1.452000 27 13 9
0.640399 0.286028 1.446000 27 13 10
0.640399 0.288559 1.446000 27 13 9
