ply
format ascii 1.0
element vertex 1195
property float x
property float y
property float z
property uchar red
property uchar green
property uchar blue
end_header
-0.471865 0.984761 2.930000 128 120 123
-0.467839 0.981444 2.905000 125 113 123
-0.460109 0.970229 2.857000 122 110 126
-0.460109 0.975230 2.857000 133 118 130
-0.452539 0.964105 2.810000 144 131 130
-0.434985 0.936164 2.701000 148 137 135
-0.428221 0.926261 2.659000 146 133 139
-0.425000 0.923914 2.639000 145 131 140
-0.425000 0.928534 2.639000 152 140 141
-0.421780 0.926081 2.619000 160 152 144
-0.421780 0.930666 2.619000 162 149 147
-0.418559 0.928108 2.599000 163 149 153
-0.418559 0.932658 2.599000 161 147 160
-0.415499 0.930356 2.580000 159 145 155
-0.412278 0.927625 2.560000 161 146 151
-0.403420 0.912081 2.505000 163 153 152
-0.397623 0.903295 2.469000 164 152 153
-0.391986 0.894751 2.434000 165 153 153
-0.381196 0.874265 2.367000 165 152 153
-0.381196 0.878408 2.367000 165 153 155
-0.378619 0.876586 2.351000 165 150 157
-0.378619 0.880701 2.351000 166 150 157
-0.376042 0.878795 2.335000 169 158 157
-0.376042 0.882882 2.335000 172 163 158
-0.373627 0.881272 2.320000 182 167 160
-0.371050 0.879227 2.304000 191 182 178
-0.363803 0.866009 2.259000 208 196 197
-0.359133 0.858795 2.230000 225 223 196
-0.356717 0.856896 2.215000 215 195 196
-0.352208 0.849892 2.187000 205 185 198
-0.519622 1.039244 3.262000 132 123 123
-0.519622 1.044954 3.262000 134 131 126
-0.514684 1.040680 3.231000 137 124 126
-0.509905 1.036620 3.201000 135 122 126
-0.496206 1.014223 3.115000 133 124 128
-0.491745 1.010510 3.087000 134 127 131
-0.487285 1.006699 3.059000 135 124 129
-0.478842 0.994519 3.006000 133 122 128
-0.474701 0.991133 2.980000 132 124 125
-0.470718 0.987991 2.955000 129 127 122
-0.466736 0.984761 2.930000 127 117 119
-0.462754 0.981444 2.905000 122 110 116
-0.455107 0.970229 2.857000 118 111 121
-0.451444 0.967379 2.834000 133 115 126
-0.447621 0.964105 2.810000 148 132 131
-0.440452 0.953506 2.765000 149 142 136
-0.430257 0.936164 2.701000 150 138 138
-0.423567 0.926261 2.659000 147 133 140
-0.423567 0.930916 2.659000 145 135 140
-0.420381 0.928534 2.639000 155 144 141
-0.417195 0.926081 2.619000 165 150 143
-0.414009 0.923559 2.599000 166 150 145
-0.414009 0.928108 2.599000 168 149 150
-0.414009 0.932658 2.599000 165 149 155
-0.410983 0.930356 2.580000 162 146 150
-0.407797 0.927625 2.560000 164 148 146
-0.399035 0.912081 2.505000 167 152 149
-0.393301 0.903295 2.469000 167 155 151
-0.390433 0.901000 2.451000 168 154 152
-0.382309 0.886453 2.400000 168 154 153
-0.377053 0.878408 2.367000 168 154 154
-0.374504 0.876586 2.351000 169 153 156
-0.374504 0.880701 2.351000 170 155 156
-0.371955 0.878795 2.335000 174 168 156
-0.371955 0.882882 2.335000 178 166 158
-0.369566 0.881272 2.320000 185 166 161
-0.364628 0.873503 2.289000 192 181 170
-0.359849 0.866009 2.259000 219 194 180
-0.355229 0.858795 2.230000 246 211 188
-0.352840 0.856896 2.215000 228 216 197
-0.350610 0.855333 2.201000 210 200 198
-0.513912 1.044954 3.262000 132 122 126
-0.509028 1.040680 3.231000 134 118 125
-0.486341 1.010510 3.087000 135 125 130
-0.481930 1.006699 3.059000 138 126 129
-0.473580 0.994519 3.006000 134 123 129
-0.469484 0.991133 2.980000 130 124 125
-0.465546 0.987991 2.955000 128 120 121
-0.457668 0.976359 2.905000 126 113 115
-0.453887 0.973336 2.881000 121 110 110
-0.450106 0.970229 2.857000 116 110 116
-0.446483 0.967379 2.834000 133 121 123
-0.442702 0.964105 2.810000 150 143 132
-0.435612 0.953506 2.765000 152 142 141
-0.428838 0.943443 2.722000 155 141 141
-0.422221 0.933577 2.680000 152 136 142
-0.418912 0.930916 2.659000 148 134 141
-0.415761 0.928534 2.639000 155 142 141
-0.412610 0.926081 2.619000 163 155 142
-0.409459 0.923559 2.599000 164 152 144
-0.409459 0.928108 2.599000 166 151 147
-0.406466 0.925840 2.580000 164 148 150
-0.403315 0.923144 2.560000 162 145 146
-0.400479 0.921103 2.542000 166 149 142
-0.394650 0.912081 2.505000 170 153 146
-0.388979 0.903295 2.469000 169 153 150
-0.386143 0.901000 2.451000 168 155 151
-0.380786 0.892732 2.417000 169 156 153
-0.375587 0.884717 2.384000 169 157 154
-0.372909 0.882551 2.367000 171 155 156
-0.370388 0.880701 2.351000 173 152 155
-0.367868 0.878795 2.335000 176 164 155
-0.365504 0.877211 2.320000 180 170 159
-0.362984 0.875194 2.304000 187 171 163
-0.360621 0.873503 2.289000 194 182 163
-0.355894 0.866009 2.259000 219 200 163
-0.353531 0.864187 2.244000 245 214 181
-0.348962 0.856896 2.215000 230 213 199
-0.346757 0.855333 2.201000 215 191 199
-0.472525 0.998142 3.033000 141 125 132
-0.468318 0.994519 3.006000 134 122 126
-0.464268 0.991133 2.980000 128 121 124
-0.456478 0.979632 2.930000 126 119 121
-0.452583 0.976359 2.905000 125 114 119
-0.445105 0.965228 2.857000 119 109 117
-0.445105 0.970229 2.857000 114 112 122
-0.441522 0.967379 2.834000 133 116 127
-0.437783 0.964105 2.810000 152 133 132
-0.430772 0.953506 2.765000 156 144 136
-0.427344 0.950721 2.743000 161 140 138
-0.420801 0.940892 2.701000 156 136 140
-0.414258 0.930916 2.659000 152 136 140
-0.411142 0.928534 2.639000 156 138 141
-0.408026 0.926081 2.619000 161 147 141
-0.404910 0.923559 2.599000 162 153 142
-0.404910 0.928108 2.599000 164 151 144
-0.401950 0.925840 2.580000 163 149 147
-0.398834 0.923144 2.560000 163 147 146
-0.396030 0.921103 2.542000 168 150 144
-0.390265 0.912081 2.505000 173 152 147
-0.387461 0.909880 2.487000 171 152 150
-0.381852 0.901000 2.451000 169 155 151
-0.376555 0.892732 2.417000 170 158 151
-0.373907 0.890655 2.400000 171 155 154
-0.368766 0.882551 2.367000 173 158 157
-0.366273 0.880701 2.351000 176 158 155
-0.363780 0.878795 2.335000 179 169 154
-0.361443 0.877211 2.320000 183 168 159
-0.358951 0.875194 2.304000 190 168 165
-0.354277 0.867779 2.274000 197 185 164
-0.354277 0.871760 2.274000 220 212 163
-0.349603 0.864187 2.244000 244 213 175
-0.347422 0.862699 2.230000 232 233 186
-0.342904 0.855333 2.201000 220 208 188
-0.467215 0.998142 3.033000 136 128 135
-0.463056 0.994519 3.006000 131 123 124
-0.455200 0.982818 2.955000 126 122 123
-0.451349 0.979632 2.930000 125 118 122
-0.447498 0.976359 2.905000 125 116 123
-0.440104 0.965228 2.857000 121 112 125
-0.440104 0.970229 2.857000 117 114 128
-0.436561 0.967379 2.834000 134 121 132
-0.432864 0.964105 2.810000 151 132 132
-0.425932 0.953506 2.765000 153 137 132
-0.422543 0.950721 2.743000 156 140 135
-0.416073 0.940892 2.701000 150 138 138
-0.412838 0.938268 2.680000 145 136 139
-0.406522 0.928534 2.639000 152 138 141
-0.400360 0.919009 2.599000 158 143 140
-0.397434 0.916807 2.580000 160 148 140
-0.397434 0.921323 2.580000 161 151 142
-0.394353 0.918663 2.560000 161 148 145
-0.391580 0.916653 2.542000 162 147 146
-0.388653 0.914218 2.523000 165 149 147
-0.383107 0.905527 2.487000 169 155 149
-0.380335 0.903295 2.469000 168 155 151
-0.377562 0.901000 2.451000 168 157 150
-0.372324 0.892732 2.417000 168 156 150
-0.369706 0.890655 2.400000 168 149 154
-0.364622 0.882551 2.367000 171 152 158
-0.362157 0.880701 2.351000 175 156 155
-0.359693 0.878795 2.335000 180 164 153
-0.357382 0.877211 2.320000 186 168 160
-0.354917 0.875194 2.304000 190 172 168
-0.352607 0.873503 2.289000 194 179 166
-0.350296 0.871760 2.274000 209 193 164
-0.347985 0.869964 2.259000 224 195 169
-0.345675 0.868115 2.244000 223 209 174
-0.341207 0.860774 2.215000 222 193 177
-0.465866 1.006699 3.059000 132 121 128
-0.457794 0.994519 3.006000 128 122 122
-0.453835 0.991133 2.980000 124 120 121
-0.446220 0.979632 2.930000 124 118 119
-0.442413 0.976359 2.905000 125 114 121
-0.435103 0.965228 2.857000 122 110 123
-0.431600 0.962418 2.834000 120 114 127
-0.431600 0.967379 2.834000 135 124 130
-0.427945 0.964105 2.810000 151 130 129
-0.421092 0.953506 2.765000 151 133 129
-0.417741 0.950721 2.743000 151 138 133
-0.414543 0.948207 2.722000 145 141 138
-0.408147 0.938268 2.680000 139 137 139
-0.401903 0.928534 2.639000 147 137 140
-0.395811 0.919009 2.599000 156 141 141
-0.392917 0.916807 2.580000 157 145 142
-0.392917 0.921323 2.580000 159 146 143
-0.389871 0.918663 2.560000 160 145 145
-0.387130 0.916653 2.542000 161 145 145
-0.381495 0.907696 2.505000 163 146 146
-0.378754 0.905527 2.487000 166 150 148
-0.376013 0.903295 2.469000 166 157 150
-0.373271 0.901000 2.451000 167 154 151
-0.368093 0.892732 2.417000 166 160 151
-0.365504 0.890655 2.400000 166 149 152
-0.360479 0.882551 2.367000 170 145 154
-0.358042 0.880701 2.351000 174 151 152
-0.355605 0.878795 2.335000 181 163 150
-0.355605 0.882882 2.335000 189 166 156
-0.350884 0.875194 2.304000 190 173 163
-0.348600 0.873503 2.289000 192 174 159
-0.346316 0.871760 2.274000 198 186 156
-0.344031 0.869964 2.259000 205 184 162
-0.341747 0.868115 2.244000 214 217 168
-0.337330 0.860774 2.215000 224 202 174
-0.460511 1.006699 3.059000 127 109 122
-0.456597 1.003452 3.033000 124 114 121
-0.452532 0.999781 3.006000 122 118 119
-0.444855 0.987991 2.955000 122 116 117
-0.437328 0.976359 2.905000 123 114 119
-0.430101 0.965228 2.857000 121 110 122
-0.426639 0.962418 2.834000 120 111 125
-0.423026 0.959187 2.810000 133 121 129
-0.419714 0.956557 2.788000 147 132 127
-0.416252 0.953506 2.765000 147 134 126
-0.416252 0.958346 2.765000 148 138 132
-0.409778 0.948207 2.722000 144 136 139
-0.406617 0.945620 2.701000 140 134 139
-0.397283 0.928534 2.639000 146 136 140
-0.391261 0.919009 2.599000 153 139 142
-0.388401 0.916807 2.580000 155 142 144
-0.385390 0.914181 2.560000 157 144 145
-0.385390 0.918663 2.560000 157 144 146
-0.382680 0.916653 2.542000 158 144 145
-0.374401 0.901173 2.487000 160 144 145
-0.371691 0.898973 2.469000 162 143 147
-0.368981 0.896710 2.451000 162 146 150
-0.366422 0.894751 2.434000 163 145 151
-0.361303 0.886453 2.400000 162 148 153
-0.361303 0.890655 2.400000 162 144 151
-0.356335 0.882551 2.367000 165 143 150
-0.353927 0.880701 2.351000 169 140 149
-0.351518 0.878795 2.335000 176 153 148
-0.349260 0.877211 2.320000 183 163 153
-0.346851 0.875194 2.304000 181 164 158
-0.344593 0.873503 2.289000 180 160 153
-0.342335 0.871760 2.274000 189 160 149
-0.340077 0.869964 2.259000 197 139 155
-0.337819 0.868115 2.244000 202 173 162
-0.333453 0.860774 2.215000 207 154 171
-0.451288 0.998142 3.033000 122 111 118
-0.447270 0.994519 3.006000 121 107 117
-0.447270 0.999781 3.006000 121 114 116
-0.443402 0.996350 2.980000 121 116 116
-0.435962 0.984761 2.930000 121 111 114
-0.425100 0.965228 2.857000 120 108 112
-0.421678 0.962418 2.834000 120 112 118
-0.418107 0.959187 2.810000 131 118 125
-0.414833 0.956557 2.788000 143 127 124
-0.411411 0.953506 2.765000 144 136 123
-0.411411 0.958346 2.765000 146 135 129
-0.405013 0.948207 2.722000 144 133 136
-0.401889 0.945620 2.701000 142 132 137
-0.398764 0.942960 2.680000 146 134 138
-0.389688 0.926081 2.619000 150 137 139
-0.383885 0.916807 2.580000 152 140 140
-0.380909 0.914181 2.560000 155 142 141
-0.380909 0.918663 2.560000 155 144 143
-0.378231 0.916653 2.542000 156 143 143
-0.370047 0.901173 2.487000 157 144 144
-0.364690 0.892419 2.451000 159 142 145
-0.362161 0.890490 2.434000 159 142 147
-0.359632 0.888501 2.417000 159 143 149
-0.357102 0.886453 2.400000 158 145 152
-0.354721 0.884717 2.384000 158 141 150
-0.352192 0.882551 2.367000 161 143 149
-0.349811 0.880701 2.351000 165 142 149
-0.347431 0.878795 2.335000 171 148 149
-0.347431 0.882882 2.335000 177 154 153
-0.345199 0.881272 2.320000 173 163 157
-0.340586 0.873503 2.289000 169 155 152
-0.338354 0.871760 2.274000 179 156 148
-0.336122 0.869964 2.259000 190 152 149
-0.333890 0.868115 2.244000 190 185 151
-0.331807 0.866603 2.230000 190 167 160
-0.445978 0.998142 3.033000 121 108 115
-0.442008 0.994519 3.006000 121 109 113
-0.442008 0.999781 3.006000 120 115 114
-0.438185 0.996350 2.980000 118 112 115
-0.430833 0.984761 2.930000 116 108 108
-0.420099 0.965228 2.857000 118 108 102
-0.416717 0.962418 2.834000 121 111 112
-0.416717 0.967379 2.834000 130 117 122
-0.409953 0.956557 2.788000 138 122 121
-0.406571 0.953506 2.765000 140 129 120
-0.403336 0.950721 2.743000 141 133 126
-0.403336 0.955523 2.743000 141 130 133
-0.400248 0.952972 2.722000 141 128 135
-0.394073 0.942960 2.680000 144 132 137
-0.388044 0.933153 2.639000 148 136 137
-0.379368 0.916807 2.580000 150 138 137
-0.376428 0.914181 2.560000 152 140 138
-0.373781 0.912203 2.542000 153 141 140
-0.373781 0.916653 2.542000 154 143 141
-0.365694 0.901173 2.487000 155 142 143
-0.360400 0.892419 2.451000 156 141 143
-0.357900 0.890490 2.434000 156 140 144
-0.355401 0.888501 2.417000 156 142 147
-0.352901 0.886453 2.400000 155 138 151
-0.352901 0.890655 2.400000 155 132 149
-0.350548 0.888890 2.384000 158 137 148
-0.345696 0.880701 2.351000 160 138 149
-0.343343 0.878795 2.335000 163 142 150
-0.343343 0.882882 2.335000 167 144 153
-0.338785 0.875194 2.304000 166 148 157
-0.336579 0.873503 2.289000 166 143 152
-0.334374 0.871760 2.274000 171 141 147
-0.332168 0.869964 2.259000 176 131 143
-0.329962 0.868115 2.244000 177 151 140
-0.325698 0.860774 2.215000 178 139 149
-0.436746 0.994519 3.006000 120 109 106
-0.432969 0.991133 2.980000 120 111 111
-0.429336 0.987991 2.955000 115 111 116
-0.425704 0.984761 2.930000 111 107 113
-0.415098 0.965228 2.857000 117 106 110
-0.411756 0.962418 2.834000 123 112 116
-0.408269 0.959187 2.810000 128 120 122
-0.405073 0.956557 2.788000 134 123 122
-0.401731 0.953506 2.765000 135 128 123
-0.398535 0.950721 2.743000 137 129 127
-0.395483 0.948207 2.722000 138 128 132
-0.392432 0.945620 2.701000 140 128 133
-0.389381 0.942960 2.680000 143 131 134
-0.383424 0.933153 2.639000 147 134 136
-0.377613 0.923559 2.599000 148 137 137
-0.371946 0.914181 2.560000 150 137 138
-0.371946 0.918663 2.560000 151 140 140
-0.369331 0.916653 2.542000 152 140 141
-0.361340 0.901173 2.487000 152 140 142
-0.356109 0.892419 2.451000 153 138 139
-0.351170 0.884270 2.417000 153 138 137
-0.348700 0.882252 2.400000 153 138 141
-0.346375 0.880544 2.384000 153 136 146
-0.346375 0.884717 2.384000 153 134 146
-0.346375 0.888890 2.384000 154 135 146
-0.341580 0.880701 2.351000 156 137 147
-0.339256 0.878795 2.335000 156 140 148
-0.339256 0.882882 2.335000 157 142 150
-0.337076 0.881272 2.320000 160 143 153
-0.332572 0.873503 2.289000 163 141 148
-0.330393 0.871760 2.274000 163 137 144
-0.328214 0.869964 2.259000 163 139 143
-0.326034 0.868115 2.244000 165 152 142
-0.321821 0.860774 2.215000 167 147 146
-0.431484 0.994519 3.006000 116 108 100
-0.431484 0.999781 3.006000 120 111 108
-0.424164 0.987991 2.955000 117 109 117
-0.420575 0.984761 2.930000 114 106 118
-0.410097 0.965228 2.857000 118 106 119
-0.406795 0.962418 2.834000 123 111 121
-0.403350 0.959187 2.810000 128 119 123
-0.400192 0.956557 2.788000 133 124 124
-0.396891 0.953506 2.765000 135 126 126
-0.393733 0.950721 2.743000 137 128 129
-0.390719 0.948207 2.722000 138 128 132
-0.387704 0.945620 2.701000 139 128 132
-0.384690 0.942960 2.680000 142 130 132
-0.381676 0.940225 2.659000 145 132 135
-0.370336 0.916807 2.580000 146 134 138
-0.367465 0.914181 2.560000 147 134 139
-0.364881 0.912203 2.542000 148 137 140
-0.364881 0.916653 2.542000 150 139 141
-0.356987 0.901173 2.487000 149 137 142
-0.349379 0.886229 2.434000 149 136 136
-0.346939 0.884270 2.417000 149 137 130
-0.344498 0.882252 2.400000 150 139 136
-0.344498 0.886453 2.400000 150 136 142
-0.342202 0.884717 2.384000 150 135 143
-0.342202 0.888890 2.384000 152 135 144
-0.337465 0.880701 2.351000 154 138 145
-0.335168 0.878795 2.335000 155 140 146
-0.335168 0.882882 2.335000 156 144 147
-0.330719 0.875194 2.304000 158 142 149
-0.328565 0.873503 2.289000 160 142 145
-0.326412 0.871760 2.274000 161 140 142
-0.324259 0.869964 2.259000 162 139 143
-0.322106 0.868115 2.244000 164 146 144
-0.317943 0.860774 2.215000 165 148 143
-0.430051 1.003452 3.033000 112 110 109
-0.426222 0.999781 3.006000 120 110 115
-0.422536 0.996350 2.980000 118 111 121
-0.418991 0.993164 2.955000 117 107 121
-0.405096 0.965228 2.857000 120 104 121
-0.401834 0.962418 2.834000 124 114 124
-0.398431 0.959187 2.810000 128 122 127
-0.395312 0.956557 2.788000 132 124 129
-0.388931 0.945920 2.743000 134 126 131
-0.388931 0.950721 2.743000 137 126 133
-0.385954 0.948207 2.722000 138 128 135
-0.382976 0.945620 2.701000 139 129 135
-0.377021 0.935571 2.659000 141 132 136
-0.374185 0.933153 2.639000 144 133 137
-0.371349 0.930666 2.619000 144 134 138
-0.365820 0.921323 2.580000 145 135 139
-0.362984 0.918663 2.560000 146 137 141
-0.360432 0.916653 2.542000 148 137 143
-0.352633 0.901173 2.487000 146 136 145
-0.347529 0.892419 2.451000 145 136 140
-0.342708 0.884270 2.417000 146 137 136
-0.342708 0.888501 2.417000 148 136 139
-0.340297 0.886453 2.400000 148 135 142
-0.338029 0.884717 2.384000 148 135 143
-0.338029 0.888890 2.384000 150 133 144
-0.335618 0.886695 2.367000 152 137 145
-0.333350 0.884817 2.351000 154 141 146
-0.331081 0.882882 2.335000 156 142 147
-0.328954 0.881272 2.320000 156 142 149
-0.324559 0.873503 2.289000 157 142 147
-0.322432 0.871760 2.274000 159 145 144
-0.318178 0.864187 2.244000 162 144 144
-0.316193 0.862699 2.230000 163 145 144
-0.314066 0.860774 2.215000 164 146 143
-0.420960 0.999781 3.006000 121 111 122
-0.413818 0.987991 2.955000 119 111 126
-0.410317 0.984761 2.930000 117 107 125
-0.400094 0.965228 2.857000 121 111 124
-0.396873 0.962418 2.834000 126 120 127
-0.393512 0.959187 2.810000 129 122 131
-0.390432 0.956557 2.788000 132 124 134
-0.387211 0.953506 2.765000 135 124 137
-0.384130 0.950721 2.743000 139 124 138
-0.378248 0.940892 2.701000 139 127 139
-0.375307 0.938268 2.680000 140 129 139
-0.372366 0.935571 2.659000 143 132 140
-0.369566 0.933153 2.639000 146 134 139
-0.366765 0.930666 2.619000 146 134 138
-0.361303 0.921323 2.580000 146 135 140
-0.358502 0.918663 2.560000 147 136 142
-0.355982 0.916653 2.542000 149 138 145
-0.348280 0.901173 2.487000 148 136 148
-0.340857 0.886229 2.434000 147 135 145
-0.338477 0.884270 2.417000 148 136 142
-0.338477 0.888501 2.417000 149 136 142
-0.336096 0.886453 2.400000 149 136 142
-0.333855 0.884717 2.384000 150 137 143
-0.333855 0.888890 2.384000 151 136 144
-0.331475 0.886695 2.367000 153 137 145
-0.329234 0.884817 2.351000 154 141 146
-0.324893 0.877211 2.320000 156 144 148
-0.322652 0.875194 2.304000 157 142 150
-0.320552 0.873503 2.289000 158 140 148
-0.316350 0.866009 2.259000 160 144 147
-0.314250 0.864187 2.244000 162 148 145
-0.312289 0.862699 2.230000 162 146 144
-0.310189 0.860774 2.215000 162 147 144
-0.415698 0.999781 3.006000 123 114 124
-0.408646 0.987991 2.955000 120 116 126
-0.405188 0.984761 2.930000 117 114 126
-0.395093 0.965228 2.857000 123 113 126
-0.391913 0.962418 2.834000 129 120 128
-0.391913 0.967379 2.834000 131 125 131
-0.385551 0.956557 2.788000 133 128 134
-0.382371 0.953506 2.765000 137 124 137
-0.379328 0.950721 2.743000 141 130 138
-0.373520 0.940892 2.701000 141 130 139
-0.367712 0.930916 2.659000 142 132 140
-0.364946 0.928534 2.639000 145 135 140
-0.364946 0.933153 2.639000 148 135 140
-0.362180 0.930666 2.619000 147 135 141
-0.359415 0.928108 2.599000 147 136 142
-0.354021 0.918663 2.560000 148 137 144
-0.354021 0.923144 2.560000 150 138 145
-0.346415 0.907696 2.505000 150 138 147
-0.336597 0.886229 2.434000 150 137 144
-0.334246 0.884270 2.417000 150 138 142
-0.331895 0.882252 2.400000 150 138 142
-0.331895 0.886453 2.400000 151 137 143
-0.329682 0.884717 2.384000 152 138 144
-0.327331 0.882551 2.367000 153 140 146
-0.327331 0.886695 2.367000 154 141 146
-0.325119 0.884817 2.351000 155 142 147
-0.320832 0.877211 2.320000 157 143 148
-0.318619 0.875194 2.304000 158 142 150
-0.316545 0.873503 2.289000 159 143 149
-0.312396 0.866009 2.259000 160 146 149
-0.310322 0.864187 2.244000 162 147 148
-0.308386 0.862699 2.230000 161 147 147
-0.306311 0.860774 2.215000 161 146 147
-0.393369 0.968293 2.881000 127 120 127
-0.393369 0.973336 2.881000 131 120 129
-0.386952 0.962418 2.834000 135 124 130
-0.383675 0.959187 2.810000 139 130 131
-0.380671 0.956557 2.788000 143 139 134
-0.377530 0.953506 2.765000 144 137 138
-0.374526 0.950721 2.743000 146 142 139
-0.368792 0.940892 2.701000 145 138 140
-0.365925 0.938268 2.680000 145 136 140
-0.363057 0.935571 2.659000 147 136 141
-0.360326 0.933153 2.639000 150 137 142
-0.357596 0.930666 2.619000 150 137 144
-0.354865 0.928108 2.599000 150 139 145
-0.349540 0.918663 2.560000 151 139 146
-0.347082 0.916653 2.542000 152 140 146
-0.342030 0.907696 2.505000 152 140 147
-0.339572 0.905527 2.487000 152 140 144
-0.332336 0.890490 2.434000 152 140 142
-0.330015 0.888501 2.417000 152 142 143
-0.327694 0.886453 2.400000 153 140 144
-0.325509 0.884717 2.384000 154 140 146
-0.323188 0.882551 2.367000 155 142 148
-0.321003 0.880701 2.351000 156 145 148
-0.318819 0.878795 2.335000 158 145 149
-0.316770 0.877211 2.320000 160 146 149
-0.314586 0.875194 2.304000 161 146 150
-0.310490 0.867779 2.274000 162 147 151
-0.308442 0.866009 2.259000 162 147 152
-0.306394 0.864187 2.244000 163 147 151
-0.304482 0.862699 2.230000 162 147 151
-0.302434 0.860774 2.215000 162 147 151
-0.389404 0.970982 2.889000 138 125 130
-0.388326 0.973336 2.881000 139 124 130
-0.385091 0.970229 2.857000 141 128 132
-0.381991 0.967379 2.834000 147 132 135
-0.375790 0.956557 2.788000 153 139 137
-0.372690 0.953506 2.765000 152 144 139
-0.366894 0.943443 2.722000 152 144 139
-0.364064 0.940892 2.701000 150 144 139
-0.361233 0.938268 2.680000 148 138 140
-0.358403 0.935571 2.659000 150 137 142
-0.355707 0.933153 2.639000 152 138 144
-0.353011 0.930666 2.619000 152 140 146
-0.350315 0.928108 2.599000 153 140 146
-0.347754 0.925840 2.580000 153 142 147
-0.342632 0.916653 2.542000 154 142 147
-0.337645 0.907696 2.505000 154 143 147
-0.335219 0.905527 2.487000 155 144 147
-0.330367 0.896710 2.451000 154 143 147
-0.328075 0.894751 2.434000 154 143 147
-0.323492 0.886453 2.400000 155 143 148
-0.319044 0.878408 2.367000 156 142 148
-0.319044 0.882551 2.367000 157 144 149
-0.316888 0.880701 2.351000 158 146 149
-0.314731 0.878795 2.335000 160 149 149
-0.312709 0.877211 2.320000 163 149 150
-0.308531 0.869496 2.289000 164 149 150
-0.306509 0.867779 2.274000 165 150 151
-0.304487 0.866009 2.259000 165 150 152
-0.302465 0.864187 2.244000 165 150 152
-0.300578 0.862699 2.230000 164 149 153
-0.298557 0.860774 2.215000 163 149 152
-0.385411 0.973670 2.897000 140 130 132
-0.383283 0.973336 2.881000 142 129 131
-0.377030 0.962418 2.834000 143 133 135
-0.373837 0.959187 2.810000 149 137 140
-0.370910 0.956557 2.788000 154 143 140
-0.367850 0.953506 2.765000 156 146 141
-0.362130 0.943443 2.722000 158 149 139
-0.356542 0.933577 2.680000 154 145 138
-0.353748 0.930916 2.659000 150 138 140
-0.351087 0.928534 2.639000 152 138 143
-0.351087 0.933153 2.639000 153 141 145
-0.348427 0.930666 2.619000 154 142 148
-0.345766 0.928108 2.599000 155 142 148
-0.343238 0.925840 2.580000 156 144 148
-0.335655 0.909802 2.523000 156 146 147
-0.333260 0.907696 2.505000 157 147 147
-0.328471 0.898973 2.469000 158 150 150
-0.326076 0.896710 2.451000 157 147 153
-0.323815 0.894751 2.434000 157 144 152
-0.319291 0.886453 2.400000 157 144 152
-0.314901 0.878408 2.367000 158 144 151
-0.312772 0.876586 2.351000 159 145 151
-0.312772 0.880701 2.351000 160 147 150
-0.308648 0.873150 2.320000 162 149 150
-0.306520 0.871161 2.304000 165 152 150
-0.304524 0.869496 2.289000 166 152 151
-0.302529 0.867779 2.274000 168 154 151
-0.302529 0.871760 2.274000 167 153 152
-0.300533 0.869964 2.259000 167 154 153
-0.298537 0.868115 2.244000 166 152 155
-0.296675 0.866603 2.230000 165 153 153
-0.381390 0.976359 2.905000 143 134 136
-0.378239 0.973336 2.881000 144 132 135
-0.375088 0.970229 2.857000 146 135 138
-0.372069 0.967379 2.834000 151 140 142
-0.368918 0.964105 2.810000 156 144 142
-0.363010 0.953506 2.765000 160 149 143
-0.357365 0.943443 2.722000 165 149 141
-0.351851 0.933577 2.680000 159 150 140
-0.349093 0.930916 2.659000 153 140 142
-0.346468 0.928534 2.639000 154 136 144
-0.346468 0.933153 2.639000 155 141 145
-0.343842 0.930666 2.619000 156 146 147
-0.343842 0.935250 2.619000 158 146 148
-0.338722 0.925840 2.580000 158 147 150
-0.331238 0.909802 2.523000 159 148 151
-0.328875 0.907696 2.505000 160 149 153
-0.326512 0.905527 2.487000 161 150 154
-0.321786 0.896710 2.451000 160 152 155
-0.319554 0.894751 2.434000 160 149 154
-0.315090 0.886453 2.400000 160 148 153
-0.310758 0.878408 2.367000 161 146 153
-0.308657 0.876586 2.351000 162 147 153
-0.306556 0.874708 2.335000 163 148 152
-0.304587 0.873150 2.320000 165 151 152
-0.302486 0.871161 2.304000 167 152 152
-0.300517 0.869496 2.289000 169 154 152
-0.298548 0.867779 2.274000 171 155 153
-0.296578 0.866009 2.259000 170 157 155
-0.294609 0.864187 2.244000 170 156 156
-0.292771 0.862699 2.230000 168 154 157
-0.376305 0.981444 2.905000 146 133 139
-0.373196 0.978379 2.881000 148 135 141
-0.370087 0.975230 2.857000 152 140 144
-0.367108 0.972340 2.834000 157 146 145
-0.363999 0.969024 2.810000 159 149 146
-0.352600 0.943443 2.722000 162 150 144
-0.344439 0.926261 2.659000 158 146 142
-0.344439 0.930916 2.659000 154 138 144
-0.341848 0.928534 2.639000 155 139 146
-0.341848 0.933153 2.639000 157 142 146
-0.339258 0.930666 2.619000 158 146 146
-0.336667 0.928108 2.599000 159 150 149
-0.334206 0.925840 2.580000 160 150 152
-0.326822 0.909802 2.523000 161 151 155
-0.324490 0.907696 2.505000 161 151 159
-0.322159 0.905527 2.487000 162 151 158
-0.319827 0.903295 2.469000 162 152 158
-0.315293 0.894751 2.434000 162 153 156
-0.310889 0.886453 2.400000 163 150 154
-0.306614 0.878408 2.367000 163 147 154
-0.304542 0.876586 2.351000 164 149 155
-0.304542 0.880701 2.351000 165 149 155
-0.300526 0.873150 2.320000 167 150 155
-0.298453 0.871161 2.304000 170 151 154
-0.296510 0.869496 2.289000 171 155 154
-0.292624 0.862055 2.259000 173 158 156
-0.290681 0.860259 2.244000 172 158 158
-0.290681 0.864187 2.244000 172 160 159
-0.288868 0.862699 2.230000 171 158 160
-0.371220 0.981444 2.905000 148 133 141
-0.362147 0.967379 2.834000 154 142 147
-0.359080 0.964105 2.810000 159 146 148
-0.356269 0.961438 2.788000 159 151 149
-0.350518 0.950721 2.743000 159 150 146
-0.345151 0.940892 2.701000 157 149 144
-0.339784 0.930916 2.659000 155 144 145
-0.339784 0.935571 2.659000 157 143 147
-0.337229 0.933153 2.639000 159 145 148
-0.334673 0.930666 2.619000 160 148 150
-0.334673 0.935250 2.619000 161 149 152
-0.332117 0.932658 2.599000 162 153 155
-0.322405 0.909802 2.523000 163 153 157
-0.320105 0.907696 2.505000 163 153 160
-0.317805 0.905527 2.487000 164 153 159
-0.315505 0.903295 2.469000 164 153 158
-0.313205 0.901000 2.451000 165 153 157
-0.308860 0.892732 2.417000 165 153 155
-0.302471 0.878408 2.367000 166 152 155
-0.300426 0.876586 2.351000 166 153 155
-0.298381 0.874708 2.335000 167 152 155
-0.296465 0.873150 2.320000 170 151 155
-0.294420 0.871161 2.304000 173 156 155
-0.292503 0.869496 2.289000 174 160 156
-0.290587 0.867779 2.274000 175 160 157
-0.288670 0.866009 2.259000 175 160 158
-0.286753 0.864187 2.244000 175 162 159
-0.284964 0.862699 2.230000 173 163 161
-0.351388 0.956557 2.788000 159 148 151
-0.348490 0.953506 2.765000 161 150 153
-0.343070 0.943443 2.722000 163 151 149
-0.340423 0.940892 2.701000 159 148 146
-0.337777 0.938268 2.680000 156 147 147
-0.335130 0.935571 2.659000 158 146 148
-0.332609 0.933153 2.639000 160 148 151
-0.332609 0.937773 2.639000 161 149 154
-0.330088 0.935250 2.619000 163 148 156
-0.327568 0.932658 2.599000 164 154 158
-0.317989 0.909802 2.523000 166 156 160
-0.315720 0.907696 2.505000 166 155 162
-0.311183 0.898973 2.469000 166 156 160
-0.308914 0.896710 2.451000 166 155 159
-0.306772 0.894751 2.434000 167 156 158
-0.304629 0.892732 2.417000 168 156 157
-0.300470 0.884717 2.384000 169 157 156
-0.296311 0.876586 2.351000 169 157 156
-0.294294 0.874708 2.335000 170 158 155
-0.294294 0.878795 2.335000 172 158 155
-0.290387 0.871161 2.304000 175 162 157
-0.288496 0.869496 2.289000 176 162 159
-0.286606 0.867779 2.274000 176 163 158
-0.286606 0.871760 2.274000 177 164 158
-0.282825 0.864187 2.244000 178 166 160
-0.281060 0.862699 2.230000 176 164 163
-0.343650 0.953506 2.765000 163 153 159
-0.335695 0.936164 2.701000 167 149 154
-0.333085 0.933577 2.680000 162 145 150
-0.330475 0.930916 2.659000 157 146 150
-0.330475 0.935571 2.659000 159 149 151
-0.327990 0.933153 2.639000 161 150 153
-0.325504 0.930666 2.619000 163 152 155
-0.325504 0.935250 2.619000 165 153 156
-0.323018 0.932658 2.599000 167 159 157
-0.313572 0.909802 2.523000 170 158 160
-0.311335 0.907696 2.505000 169 157 163
-0.309098 0.905527 2.487000 168 157 161
-0.304624 0.896710 2.451000 169 158 159
-0.302511 0.894751 2.434000 170 157 158
-0.300398 0.892732 2.417000 171 158 158
-0.296297 0.884717 2.384000 172 159 158
-0.292195 0.876586 2.351000 172 161 158
-0.292195 0.880701 2.351000 173 161 157
-0.290207 0.878795 2.335000 175 161 157
-0.288343 0.877211 2.320000 178 162 159
-0.284490 0.869496 2.289000 178 163 160
-0.282625 0.867779 2.274000 178 164 160
-0.282625 0.871760 2.274000 179 167 159
-0.280761 0.869964 2.259000 181 168 161
-0.277157 0.862699 2.230000 179 168 164
-0.333540 0.943443 2.722000 164 149 159
-0.328394 0.933577 2.680000 159 147 154
-0.328394 0.938268 2.680000 154 145 154
-0.325821 0.935571 2.659000 158 148 155
-0.323370 0.933153 2.639000 162 152 156
-0.320919 0.930666 2.619000 164 154 157
-0.320919 0.935250 2.619000 167 155 156
-0.318469 0.932658 2.599000 169 159 156
-0.311484 0.916653 2.542000 171 163 160
-0.306950 0.907696 2.505000 171 160 164
-0.304745 0.905527 2.487000 171 160 162
-0.300333 0.896710 2.451000 171 159 160
-0.298250 0.894751 2.434000 172 159 159
-0.296167 0.892732 2.417000 173 159 159
-0.292123 0.884717 2.384000 174 161 159
-0.290040 0.882551 2.367000 175 162 160
-0.288080 0.880701 2.351000 175 164 160
-0.286119 0.878795 2.335000 177 163 160
-0.284281 0.877211 2.320000 179 163 161
-0.280483 0.869496 2.289000 178 163 162
-0.280483 0.873503 2.289000 178 164 161
-0.278645 0.871760 2.274000 180 167 161
-0.276807 0.869964 2.259000 183 172 163
-0.273253 0.862699 2.230000 181 169 165
-0.328775 0.943443 2.722000 162 152 156
-0.326239 0.940892 2.701000 157 149 153
-0.323703 0.938268 2.680000 152 148 154
-0.321166 0.935571 2.659000 158 149 154
-0.318750 0.933153 2.639000 164 154 156
-0.318750 0.937773 2.639000 166 157 157
-0.316335 0.935250 2.619000 169 156 157
-0.313919 0.932658 2.599000 171 159 158
-0.307034 0.916653 2.542000 173 162 160
-0.304739 0.914218 2.523000 173 161 162
-0.300391 0.905527 2.487000 174 161 162
-0.298217 0.903295 2.469000 174 161 162
-0.296043 0.901000 2.451000 175 160 162
-0.293990 0.899011 2.434000 176 160 161
-0.287950 0.884717 2.384000 177 161 162
-0.285897 0.882551 2.367000 177 163 164
-0.283964 0.880701 2.351000 178 164 162
-0.282032 0.878795 2.335000 179 165 161
-0.280220 0.877211 2.320000 180 164 163
-0.276476 0.869496 2.289000 179 163 164
-0.276476 0.873503 2.289000 179 164 164
-0.274664 0.871760 2.274000 182 167 163
-0.272852 0.869964 2.259000 185 173 164
-0.269349 0.862699 2.230000 183 173 165
-0.321511 0.940892 2.701000 161 151 153
-0.319011 0.938268 2.680000 158 152 153
-0.316511 0.935571 2.659000 162 154 154
-0.314131 0.933153 2.639000 167 159 156
-0.311750 0.930666 2.619000 169 158 158
-0.311750 0.935250 2.619000 171 156 159
-0.309369 0.932658 2.599000 173 161 160
-0.300323 0.909802 2.523000 175 166 160
-0.298180 0.907696 2.505000 175 164 161
-0.296038 0.905527 2.487000 175 163 163
-0.293895 0.903295 2.469000 176 162 165
-0.291752 0.901000 2.451000 177 163 164
-0.289729 0.899011 2.434000 178 162 164
-0.285682 0.890655 2.400000 179 163 166
-0.281753 0.882551 2.367000 178 165 168
-0.279849 0.880701 2.351000 178 165 165
-0.277944 0.878795 2.335000 179 165 163
-0.274254 0.871161 2.304000 180 166 165
-0.272469 0.869496 2.289000 180 165 167
-0.272469 0.873503 2.289000 181 165 166
-0.270683 0.871760 2.274000 184 171 166
-0.268898 0.869964 2.259000 187 180 165
-0.265446 0.862699 2.230000 185 174 165
-0.316783 0.940892 2.701000 165 152 156
-0.314320 0.938268 2.680000 165 154 156
-0.311857 0.935571 2.659000 167 157 157
-0.309511 0.933153 2.639000 170 158 158
-0.309511 0.937773 2.639000 171 160 159
-0.307166 0.935250 2.619000 173 161 159
-0.304820 0.932658 2.599000 175 166 159
-0.295906 0.909802 2.523000 177 166 160
-0.293795 0.907696 2.505000 177 168 162
-0.291684 0.905527 2.487000 177 165 163
-0.289573 0.903295 2.469000 178 164 165
-0.287462 0.901000 2.451000 179 164 166
-0.287462 0.905290 2.451000 180 164 167
-0.281480 0.890655 2.400000 181 166 167
-0.277610 0.882551 2.367000 180 170 168
-0.273857 0.874708 2.335000 179 166 167
-0.272098 0.873150 2.320000 180 164 166
-0.270221 0.871161 2.304000 181 166 168
-0.268462 0.869496 2.289000 182 169 171
-0.268462 0.873503 2.289000 183 169 170
-0.266703 0.871760 2.274000 186 174 169
-0.264943 0.869964 2.259000 190 178 170
-0.261542 0.862699 2.230000 188 179 170
-0.312055 0.940892 2.701000 167 155 160
-0.309629 0.938268 2.680000 166 155 160
-0.307202 0.935571 2.659000 169 157 160
-0.307202 0.940225 2.659000 171 159 160
-0.304892 0.937773 2.639000 173 161 160
-0.302581 0.935250 2.619000 174 163 159
-0.300270 0.932658 2.599000 176 165 159
-0.291490 0.909802 2.523000 178 167 161
-0.289410 0.907696 2.505000 178 167 163
-0.287331 0.905527 2.487000 178 167 164
-0.285251 0.903295 2.469000 179 166 165
-0.285251 0.907617 2.469000 180 167 167
-0.283172 0.905290 2.451000 181 167 170
-0.277279 0.890655 2.400000 182 169 169
-0.273467 0.882551 2.367000 181 168 168
-0.269770 0.874708 2.335000 180 165 168
-0.268037 0.873150 2.320000 181 166 169
-0.266188 0.871161 2.304000 183 167 172
-0.264455 0.869496 2.289000 184 168 175
-0.264455 0.873503 2.289000 186 171 174
-0.262722 0.871760 2.274000 189 177 173
-0.262722 0.875740 2.274000 192 180 174
-0.257639 0.862699 2.230000 188 175 176
-0.297996 0.935250 2.619000 176 163 161
-0.295721 0.932658 2.599000 177 166 161
-0.287073 0.909802 2.523000 179 167 162
-0.282977 0.901173 2.487000 179 167 164
-0.280929 0.898973 2.469000 180 168 165
-0.280929 0.903295 2.469000 180 169 167
-0.280929 0.907617 2.469000 181 169 169
-0.278881 0.905290 2.451000 182 169 172
-0.273078 0.890655 2.400000 183 170 170
-0.269323 0.882551 2.367000 182 170 168
-0.265682 0.874708 2.335000 181 168 169
-0.263975 0.873150 2.320000 183 168 169
-0.262155 0.871161 2.304000 185 169 171
-0.260448 0.869496 2.289000 187 168 172
-0.260448 0.873503 2.289000 189 175 176
-0.258741 0.871760 2.274000 191 183 181
-0.258741 0.875740 2.274000 194 181 178
-0.253735 0.862699 2.230000 189 173 176
-0.287922 0.922251 2.570000 179 167 163
-0.282657 0.909802 2.523000 180 170 164
-0.280640 0.907696 2.505000 181 169 165
-0.278624 0.905527 2.487000 182 170 167
-0.276607 0.903295 2.469000 182 171 169
-0.276607 0.907617 2.469000 183 173 172
-0.274591 0.905290 2.451000 183 172 175
-0.268877 0.890655 2.400000 184 174 172
-0.265180 0.882551 2.367000 183 172 169
-0.261595 0.874708 2.335000 182 169 169
-0.259914 0.873150 2.320000 184 170 170
-0.258122 0.871161 2.304000 186 176 170
-0.256441 0.869496 2.289000 188 176 170
-0.256441 0.873503 2.289000 190 180 179
-0.254761 0.871760 2.274000 193 183 189
-0.254761 0.875740 2.274000 197 188 182
-0.248151 0.856896 2.215000 190 179 176
-0.280336 0.912203 2.542000 180 171 165
-0.276255 0.903311 2.505000 182 171 167
-0.274270 0.901173 2.487000 183 170 168
-0.272285 0.898973 2.469000 184 171 171
-0.272285 0.903295 2.469000 184 173 173
-0.270300 0.901000 2.451000 185 173 177
-0.268425 0.899011 2.434000 185 175 180
-0.266550 0.896963 2.417000 185 175 175
-0.262911 0.888890 2.384000 184 176 171
-0.259272 0.880701 2.351000 183 171 170
-0.255853 0.873150 2.320000 185 170 169
-0.254089 0.871161 2.304000 187 173 169
-0.252434 0.869496 2.289000 189 180 170
-0.252434 0.873503 2.289000 192 180 178
-0.250780 0.871760 2.274000 196 182 186
-0.247472 0.864187 2.244000 200 184 182
-0.245928 0.862699 2.230000 191 186 178
-0.273824 0.905385 2.523000 181 170 168
-0.271870 0.903311 2.505000 182 173 170
-0.269917 0.901173 2.487000 183 172 172
-0.267963 0.898973 2.469000 184 172 175
-0.267963 0.903295 2.469000 185 172 178
-0.266010 0.901000 2.451000 186 173 182
-0.264164 0.899011 2.434000 186 177 186
-0.260474 0.890655 2.400000 186 177 179
-0.258738 0.888890 2.384000 183 175 173
-0.255156 0.880701 2.351000 181 171 170
-0.250055 0.867128 2.304000 184 169 168
-0.248428 0.865489 2.289000 186 167 169
-0.248428 0.869496 2.289000 189 176 170
-0.246800 0.867779 2.274000 193 181 177
-0.246800 0.871760 2.274000 195 184 184
-0.243544 0.864187 2.244000 198 182 182
-0.242024 0.862699 2.230000 192 180 180
-0.267485 0.898926 2.505000 182 170 170
-0.267485 0.903311 2.505000 183 172 171
-0.265563 0.901173 2.487000 184 173 172
-0.265563 0.905527 2.487000 185 174 175
-0.263641 0.903295 2.469000 186 173 179
-0.261719 0.901000 2.451000 188 175 180
-0.258089 0.892732 2.417000 187 184 182
-0.256273 0.890655 2.400000 187 179 178
-0.252750 0.882551 2.367000 183 176 175
-0.251041 0.880701 2.351000 180 172 172
-0.247731 0.873150 2.320000 183 169 170
-0.246022 0.871161 2.304000 186 171 168
-0.244421 0.869496 2.289000 190 178 167
-0.244421 0.873503 2.289000 194 183 178
-0.242819 0.871760 2.274000 195 192 189
-0.241217 0.869964 2.259000 196 185 184
-0.238121 0.862699 2.230000 193 179 180
-0.264991 0.905385 2.523000 182 170 173
-0.263100 0.903311 2.505000 183 172 172
-0.261210 0.901173 2.487000 185 175 172
-0.261210 0.905527 2.487000 187 179 176
-0.259319 0.903295 2.469000 187 174 181
-0.257429 0.901000 2.451000 188 171 179
-0.252072 0.886453 2.400000 188 179 178
-0.250392 0.884717 2.384000 188 182 177
-0.248606 0.882551 2.367000 185 177 177
-0.246926 0.880701 2.351000 182 174 174
-0.245245 0.878795 2.335000 184 172 172
-0.241989 0.871161 2.304000 187 172 168
-0.240414 0.869496 2.289000 190 176 164
-0.240414 0.873503 2.289000 193 181 179
-0.238838 0.871760 2.274000 196 186 195
-0.235687 0.864187 2.244000 200 188 187
-0.232641 0.856896 2.215000 196 181 180
-0.260574 0.905385 2.523000 183 171 172
-0.258715 0.903311 2.505000 184 173 172
-0.256856 0.901173 2.487000 186 177 173
-0.254997 0.898973 2.469000 189 177 176
-0.254997 0.903295 2.469000 188 176 180
-0.253138 0.901000 2.451000 188 177 180
-0.247871 0.886453 2.400000 188 182 180
-0.246218 0.884717 2.384000 189 181 180
-0.244463 0.882551 2.367000 187 178 180
-0.242810 0.880701 2.351000 185 176 177
-0.241158 0.878795 2.335000 186 176 174
-0.239609 0.877211 2.320000 188 176 171
-0.237956 0.875194 2.304000 190 176 169
-0.236407 0.873503 2.289000 193 178 178
-0.234858 0.871760 2.274000 198 185 187
-0.231759 0.864187 2.244000 204 183 183
-0.228764 0.856896 2.215000 199 179 179
-0.259914 0.914181 2.560000 184 172 171
-0.256158 0.905385 2.523000 184 172 171
-0.256158 0.909802 2.523000 184 172 173
-0.252503 0.901173 2.487000 187 175 175
-0.250675 0.898973 2.469000 189 178 177
-0.248848 0.896710 2.451000 189 178 179
-0.247122 0.894751 2.434000 189 179 180
-0.245396 0.892732 2.417000 190 182 182
-0.243670 0.890655 2.400000 191 183 182
-0.240319 0.882551 2.367000 189 179 183
-0.238695 0.880701 2.351000 188 179 179
-0.237070 0.878795 2.335000 188 178 176
-0.235547 0.877211 2.320000 189 180 175
-0.233923 0.875194 2.304000 190 176 174
-0.232400 0.873503 2.289000 191 172 176
-0.230877 0.871760 2.274000 196 179 179
-0.230877 0.875740 2.274000 200 181 179
-0.224887 0.856896 2.215000 197 179 179
-0.257329 0.920966 2.579000 185 172 171
-0.251741 0.905385 2.523000 185 174 172
-0.249945 0.903311 2.505000 185 174 174
-0.248149 0.901173 2.487000 187 176 176
-0.246353 0.898973 2.469000 190 178 177
-0.244557 0.896710 2.451000 190 180 179
-0.242861 0.894751 2.434000 191 182 181
-0.241165 0.892732 2.417000 192 186 184
-0.239468 0.890655 2.400000 193 183 184
-0.236176 0.882551 2.367000 192 179 184
-0.234579 0.880701 2.351000 191 180 180
-0.232983 0.878795 2.335000 191 180 177
-0.231486 0.877211 2.320000 191 180 176
-0.228393 0.869496 2.289000 190 177 176
-0.226896 0.867779 2.274000 190 175 177
-0.226896 0.871760 2.274000 193 179 179
-0.225400 0.869964 2.259000 197 181 183
-0.221009 0.856896 2.215000 195 179 187
-0.254775 0.928108 2.599000 184 173 172
-0.249187 0.912203 2.542000 184 174 174
-0.247325 0.909802 2.523000 185 174 175
-0.243796 0.901173 2.487000 187 176 177
-0.242031 0.898973 2.469000 190 178 178
-0.240267 0.896710 2.451000 191 182 179
-0.238600 0.894751 2.434000 193 185 182
-0.236934 0.892732 2.417000 194 185 186
-0.235267 0.890655 2.400000 195 185 185
-0.232032 0.882551 2.367000 193 183 185
-0.230464 0.880701 2.351000 191 182 182
-0.228895 0.878795 2.335000 192 181 179
-0.227425 0.877211 2.320000 193 183 178
-0.224386 0.869496 2.289000 189 178 178
-0.222916 0.867779 2.274000 186 174 179
-0.222916 0.871760 2.274000 193 180 180
-0.219975 0.864187 2.244000 201 185 187
-0.217132 0.856896 2.215000 198 183 195
-0.252151 0.930666 2.619000 182 170 172
-0.252151 0.935250 2.619000 184 173 173
-0.246470 0.918663 2.560000 184 176 175
-0.242908 0.909802 2.523000 185 176 176
-0.239442 0.901173 2.487000 188 177 178
-0.237709 0.898973 2.469000 191 180 179
-0.235976 0.896710 2.451000 193 185 180
-0.234339 0.894751 2.434000 195 185 184
-0.232703 0.892732 2.417000 196 186 188
-0.231066 0.890655 2.400000 197 186 187
-0.227889 0.882551 2.367000 194 189 185
-0.226348 0.880701 2.351000 192 182 183
-0.224808 0.878795 2.335000 193 182 181
-0.223364 0.877211 2.320000 195 182 180
-0.221823 0.875194 2.304000 189 180 179
-0.220379 0.873503 2.289000 183 179 179
-0.218935 0.871760 2.274000 194 183 180
-0.214699 0.858795 2.230000 205 184 184
-0.213255 0.856896 2.215000 201 186 188
-0.247566 0.930666 2.619000 182 171 174
-0.247566 0.935250 2.619000 184 174 175
-0.241989 0.918663 2.560000 185 175 176
-0.238492 0.909802 2.523000 186 177 178
-0.236790 0.907696 2.505000 188 178 180
-0.233387 0.898973 2.469000 191 182 180
-0.231686 0.896710 2.451000 193 184 181
-0.230079 0.894751 2.434000 196 186 186
-0.228472 0.892732 2.417000 197 185 191
-0.226865 0.890655 2.400000 199 185 188
-0.225352 0.888890 2.384000 194 183 186
-0.223745 0.886695 2.367000 189 178 184
-0.222233 0.884817 2.351000 193 181 183
-0.220721 0.882882 2.335000 198 185 182
-0.217790 0.875194 2.304000 193 181 181
-0.216372 0.873503 2.289000 188 180 180
-0.214954 0.871760 2.274000 194 182 180
-0.212119 0.864187 2.244000 200 183 181
-0.210795 0.862699 2.230000 198 183 182
-0.244837 0.933153 2.639000 182 171 172
-0.244837 0.937773 2.639000 183 173 174
-0.244837 0.942392 2.639000 184 174 175
-0.237508 0.918663 2.560000 185 176 177
-0.235838 0.916653 2.542000 187 177 178
-0.232405 0.907696 2.505000 189 179 178
-0.229065 0.898973 2.469000 191 180 180
-0.227395 0.896710 2.451000 194 185 181
-0.225818 0.894751 2.434000 197 185 185
-0.224241 0.892732 2.417000 199 186 188
-0.222664 0.890655 2.400000 201 183 187
-0.221179 0.888890 2.384000 193 180 185
-0.219602 0.886695 2.367000 186 179 184
-0.218118 0.884817 2.351000 194 182 182
-0.216633 0.882882 2.335000 202 183 181
-0.215241 0.881272 2.320000 197 181 179
-0.212365 0.873503 2.289000 193 182 180
-0.209582 0.866009 2.259000 194 185 181
-0.206892 0.858795 2.230000 196 181 178
-0.205500 0.856896 2.215000 196 180 175
-0.271258 0.996350 2.980000 156 140 153
-0.242038 0.935571 2.659000 179 172 166
-0.240218 0.933153 2.639000 182 173 170
-0.240218 0.937773 2.639000 183 173 174
-0.238397 0.935250 2.619000 184 174 176
-0.233027 0.918663 2.560000 185 177 179
-0.231388 0.916653 2.542000 187 178 178
-0.228020 0.907696 2.505000 189 178 177
-0.224743 0.898973 2.469000 191 177 179
-0.221557 0.890490 2.434000 193 182 182
-0.221557 0.894751 2.434000 195 186 184
-0.220010 0.892732 2.417000 197 184 186
-0.218462 0.890655 2.400000 198 183 185
-0.218462 0.894856 2.400000 194 181 185
-0.215459 0.886695 2.367000 189 179 183
-0.214002 0.884817 2.351000 194 182 182
-0.212546 0.882882 2.335000 199 185 180
-0.211180 0.881272 2.320000 196 182 178
-0.208359 0.873503 2.289000 193 182 180
-0.206993 0.871760 2.274000 195 182 183
-0.202988 0.858795 2.230000 196 177 175
-0.201623 0.856896 2.215000 197 180 168
-0.268362 0.999781 3.006000 162 150 155
-0.266041 0.996350 2.980000 153 141 156
-0.266041 1.001566 2.980000 144 142 152
-0.239258 0.938268 2.680000 173 170 168
-0.237384 0.935571 2.659000 178 175 167
-0.237384 0.940225 2.659000 183 174 170
-0.235598 0.937773 2.639000 183 175 173
-0.233813 0.935250 2.619000 184 176 175
-0.228545 0.918663 2.560000 185 180 177
-0.226938 0.916653 2.542000 187 178 177
-0.223635 0.907696 2.505000 189 178 178
-0.222028 0.905527 2.487000 192 179 180
-0.220421 0.903295 2.469000 193 183 183
-0.218814 0.901000 2.451000 194 184 184
-0.217297 0.899011 2.434000 195 184 185
-0.215779 0.896963 2.417000 196 183 184
-0.214261 0.894856 2.400000 194 182 184
-0.212833 0.893063 2.384000 193 182 183
-0.209887 0.884817 2.351000 194 183 182
-0.208458 0.882882 2.335000 196 184 181
-0.205691 0.875194 2.304000 195 183 180
-0.203013 0.867779 2.274000 194 184 183
-0.201673 0.866009 2.259000 195 186 185
-0.199084 0.858795 2.230000 197 182 181
-0.196495 0.851480 2.201000 199 180 177
-0.260825 0.996350 2.980000 155 147 159
-0.258636 0.993164 2.955000 147 142 152
-0.238243 0.948207 2.722000 179 169 172
-0.236405 0.945620 2.701000 176 162 170
-0.232729 0.935571 2.659000 180 172 168
-0.230979 0.933153 2.639000 185 175 170
-0.230979 0.937773 2.639000 184 175 173
-0.229228 0.935250 2.619000 184 177 174
-0.224064 0.918663 2.560000 184 178 176
-0.222489 0.916653 2.542000 184 179 177
-0.219250 0.907696 2.505000 188 178 179
-0.217675 0.905527 2.487000 191 178 181
-0.216099 0.903295 2.469000 192 183 184
-0.214524 0.901000 2.451000 194 186 184
-0.211548 0.892732 2.417000 194 185 185
-0.211548 0.896963 2.417000 195 183 184
-0.210060 0.894856 2.400000 194 183 183
-0.208660 0.893063 2.384000 194 184 183
-0.205771 0.884817 2.351000 195 184 183
-0.203058 0.877211 2.320000 196 186 183
-0.200345 0.869496 2.289000 196 185 183
-0.199032 0.867779 2.274000 196 186 185
-0.196406 0.860259 2.244000 198 186 188
-0.195181 0.858795 2.230000 199 187 187
-0.192643 0.851480 2.201000 201 185 186
-0.253464 0.987991 2.955000 157 154 157
-0.251319 0.984761 2.930000 150 146 154
-0.249175 0.981444 2.905000 160 149 151
-0.233478 0.948207 2.722000 179 169 173
-0.231677 0.945620 2.701000 179 170 171
-0.228074 0.935571 2.659000 183 176 170
-0.228074 0.940225 2.659000 188 175 171
-0.226359 0.937773 2.639000 186 173 173
-0.224644 0.935250 2.619000 184 176 174
-0.219583 0.918663 2.560000 183 179 175
-0.218039 0.916653 2.542000 182 179 173
-0.214865 0.907696 2.505000 186 179 172
-0.213321 0.905527 2.487000 191 182 180
-0.211777 0.903295 2.469000 192 187 189
-0.210233 0.901000 2.451000 194 186 187
-0.208775 0.899011 2.434000 194 187 185
-0.207317 0.896963 2.417000 195 184 184
-0.205859 0.894856 2.400000 195 183 183
-0.204486 0.893063 2.384000 195 183 183
-0.201656 0.884817 2.351000 196 186 184
-0.198997 0.877211 2.320000 197 184 184
-0.196338 0.869496 2.289000 198 186 184
-0.195051 0.867779 2.274000 199 186 186
-0.193765 0.866009 2.259000 200 187 188
-0.191277 0.858795 2.230000 202 189 185
-0.189991 0.856896 2.215000 203 188 182
-0.250391 0.996350 2.980000 158 150 155
-0.248291 0.993164 2.955000 153 139 155
-0.244090 0.981444 2.905000 161 149 156
-0.240057 0.970229 2.857000 169 155 157
-0.236107 0.959187 2.810000 172 160 159
-0.236107 0.964105 2.810000 175 170 163
-0.232326 0.953506 2.765000 177 170 167
-0.230478 0.950721 2.743000 179 171 170
-0.228713 0.948207 2.722000 179 172 174
-0.226949 0.945620 2.701000 180 174 173
-0.225184 0.942960 2.680000 183 176 173
-0.223420 0.940225 2.659000 186 177 173
-0.221739 0.937773 2.639000 185 175 173
-0.220059 0.935250 2.619000 184 177 173
-0.216782 0.925840 2.580000 185 178 174
-0.213589 0.916653 2.542000 185 179 170
-0.210480 0.907696 2.505000 188 181 166
-0.208968 0.905527 2.487000 192 185 180
-0.207455 0.903295 2.469000 192 186 194
-0.205943 0.901000 2.451000 193 187 189
-0.203086 0.892732 2.417000 194 186 185
-0.203086 0.896963 2.417000 194 186 184
-0.201658 0.894856 2.400000 194 183 183
-0.200313 0.893063 2.384000 195 181 184
-0.197540 0.884817 2.351000 195 184 186
-0.194936 0.877211 2.320000 196 180 185
-0.192331 0.869496 2.289000 198 183 185
-0.191071 0.867779 2.274000 201 187 186
-0.188550 0.860259 2.244000 202 193 188
-0.187373 0.858795 2.230000 203 196 183
