ply
format ascii 1.0
element vertex 1271
property float x
property float y
property float z
property uchar red
property uchar green
property uchar blue
end_header
-0.118467 0.913887 2.417000 133 127 123
-0.117634 0.911661 2.400000 133 126 127
-0.115232 0.897163 2.351000 134 127 128
-0.115232 0.901278 2.351000 134 127 130
-0.114448 0.899232 2.335000 135 128 130
-0.113712 0.897517 2.320000 136 126 130
-0.136166 0.998552 2.881000 125 120 122
-0.136166 1.003595 2.881000 126 120 123
-0.132810 0.983781 2.810000 128 120 123
-0.132810 0.988700 2.810000 128 120 124
-0.130684 0.977707 2.765000 129 122 124
-0.129644 0.974729 2.743000 131 125 125
-0.128651 0.972032 2.722000 133 125 127
-0.121467 0.931249 2.570000 132 126 129
-0.120995 0.932106 2.560000 132 126 129
-0.120144 0.930002 2.542000 132 126 129
-0.120144 0.934452 2.542000 133 126 130
-0.119246 0.931884 2.523000 133 127 131
-0.119246 0.936301 2.523000 133 127 129
-0.118395 0.934006 2.505000 135 127 127
-0.117544 0.931648 2.487000 137 126 124
-0.115843 0.922452 2.451000 135 126 122
-0.115039 0.920315 2.434000 133 126 125
-0.112676 0.905583 2.384000 135 126 128
-0.111117 0.897163 2.351000 138 125 129
-0.110360 0.895145 2.335000 136 125 131
-0.109651 0.893455 2.320000 134 125 130
-0.109651 0.897517 2.320000 135 124 129
-0.131123 0.998552 2.881000 124 121 123
-0.131123 1.003595 2.881000 126 120 124
-0.127892 0.983781 2.810000 127 120 123
-0.127892 0.988700 2.810000 128 120 123
-0.125844 0.977707 2.765000 128 122 124
-0.123887 0.967267 2.722000 131 124 125
-0.123386 0.968104 2.711000 133 126 126
-0.116513 0.927625 2.560000 131 125 130
-0.116513 0.936588 2.560000 132 125 129
-0.115694 0.934452 2.542000 132 126 129
-0.114829 0.931884 2.523000 132 125 130
-0.114829 0.936301 2.523000 132 126 129
-0.114010 0.934006 2.505000 133 125 128
-0.113191 0.931648 2.487000 134 126 126
-0.111552 0.922452 2.451000 133 125 125
-0.110779 0.920315 2.434000 131 126 127
-0.109231 0.911661 2.400000 133 124 130
-0.107001 0.897163 2.351000 134 124 131
-0.106273 0.895145 2.335000 134 124 132
-0.105590 0.893455 2.320000 133 125 130
-0.105590 0.897517 2.320000 134 125 128
-0.126080 0.998552 2.881000 124 118 124
-0.126080 1.003595 2.881000 125 120 124
-0.122973 0.983781 2.810000 127 119 121
-0.122973 0.988700 2.810000 127 121 119
-0.120041 0.969928 2.743000 128 121 121
-0.119122 0.967267 2.722000 131 123 123
-0.118203 0.964533 2.701000 134 123 124
-0.112470 0.931249 2.570000 131 125 129
-0.112032 0.936588 2.560000 131 124 128
-0.112032 0.941069 2.560000 132 124 128
-0.111244 0.938902 2.542000 131 124 128
-0.110413 0.936301 2.523000 131 124 127
-0.109625 0.934006 2.505000 131 124 127
-0.108837 0.931648 2.487000 132 124 126
-0.107262 0.922452 2.451000 131 124 125
-0.106518 0.920315 2.434000 130 124 126
-0.103586 0.899125 2.367000 130 122 127
-0.102185 0.891057 2.335000 131 123 128
-0.102185 0.895145 2.335000 132 125 130
-0.101529 0.893455 2.320000 133 124 126
-0.100829 0.891327 2.304000 134 125 123
-0.121037 0.998552 2.881000 124 116 124
-0.117130 0.980959 2.788000 126 119 115
-0.115239 0.969928 2.743000 127 121 118
-0.114357 0.967267 2.722000 129 122 121
-0.113475 0.964533 2.701000 131 123 123
-0.108391 0.925840 2.580000 131 122 125
-0.108391 0.934872 2.580000 130 124 128
-0.107551 0.936588 2.560000 130 124 128
-0.106795 0.934452 2.542000 130 124 127
-0.106795 0.938902 2.542000 130 123 127
-0.105240 0.929621 2.505000 130 124 126
-0.104484 0.927294 2.487000 130 124 126
-0.104484 0.931648 2.487000 131 125 126
-0.102971 0.922452 2.451000 130 124 126
-0.101543 0.913887 2.417000 129 124 125
-0.099442 0.899125 2.367000 129 123 124
-0.098770 0.897163 2.351000 130 124 126
-0.098098 0.895145 2.335000 131 124 128
-0.097468 0.893455 2.320000 132 124 123
-0.096796 0.891327 2.304000 132 123 118
-0.115993 0.998552 2.881000 125 114 123
-0.111323 0.972867 2.765000 126 118 117
-0.110437 0.969928 2.743000 126 120 120
-0.109592 0.967267 2.722000 127 121 122
-0.108746 0.964533 2.701000 129 121 123
-0.103875 0.925840 2.580000 130 122 124
-0.103875 0.930356 2.580000 131 122 125
-0.103875 0.934872 2.580000 129 123 127
-0.103875 0.939389 2.580000 128 123 128
-0.103069 0.936588 2.560000 128 123 129
-0.103069 0.941069 2.560000 129 123 127
-0.102345 0.938902 2.542000 129 123 125
-0.101580 0.936301 2.523000 129 123 125
-0.100130 0.927294 2.487000 129 123 124
-0.097996 0.911794 2.434000 130 123 125
-0.097996 0.916054 2.434000 129 123 126
-0.097312 0.913887 2.417000 128 123 125
-0.095299 0.899125 2.367000 128 125 124
-0.094655 0.897163 2.351000 129 123 125
-0.094011 0.895145 2.335000 130 124 127
-0.093407 0.893455 2.320000 132 123 124
-0.092762 0.891327 2.304000 131 122 121
-0.105212 0.966038 2.732000 125 120 122
-0.104827 0.967267 2.722000 126 120 124
-0.104018 0.964533 2.701000 128 121 123
-0.101631 0.947012 2.639000 128 121 123
-0.099358 0.930356 2.580000 129 122 124
-0.099358 0.934872 2.580000 128 122 126
-0.098588 0.932106 2.560000 127 123 128
-0.098588 0.936588 2.560000 127 122 131
-0.097895 0.934452 2.542000 127 124 127
-0.097895 0.938902 2.542000 127 123 124
-0.097163 0.936301 2.523000 128 123 123
-0.096470 0.934006 2.505000 128 122 123
-0.095777 0.931648 2.487000 129 124 124
-0.093736 0.916054 2.434000 127 121 126
-0.093081 0.913887 2.417000 126 120 125
-0.091156 0.899125 2.367000 127 121 124
-0.090539 0.897163 2.351000 128 122 125
-0.089923 0.895145 2.335000 129 122 126
-0.089346 0.893455 2.320000 130 124 125
-0.088729 0.891327 2.304000 130 122 125
-0.100062 0.962502 2.722000 125 119 122
-0.100062 0.967267 2.722000 126 119 122
-0.097011 0.942392 2.639000 127 119 122
-0.097011 0.947012 2.639000 127 120 122
-0.095541 0.937207 2.599000 128 121 123
-0.094842 0.934872 2.580000 127 121 125
-0.094107 0.932106 2.560000 126 121 126
-0.094107 0.936588 2.560000 126 120 128
-0.094107 0.941069 2.560000 126 121 123
-0.093445 0.938902 2.542000 126 123 119
-0.092747 0.936301 2.523000 127 122 120
-0.092747 0.940717 2.523000 127 120 122
-0.091423 0.931648 2.487000 128 121 122
-0.088850 0.909656 2.417000 126 119 123
-0.088850 0.913887 2.417000 125 117 120
-0.087012 0.899125 2.367000 126 119 118
-0.085836 0.891057 2.335000 127 119 121
-0.085284 0.889394 2.320000 128 120 124
-0.084696 0.887294 2.304000 129 121 124
-0.084696 0.891327 2.304000 130 122 123
-0.096067 0.970281 2.744000 125 119 122
-0.094562 0.959805 2.701000 126 119 121
-0.093827 0.957034 2.680000 127 119 121
-0.092391 0.947012 2.639000 127 120 122
-0.090991 0.937207 2.599000 127 121 123
-0.090326 0.934872 2.580000 126 120 124
-0.089626 0.932106 2.560000 126 121 125
-0.089626 0.936588 2.560000 126 120 126
-0.089626 0.941069 2.560000 126 119 120
-0.088995 0.938902 2.542000 126 120 114
-0.088995 0.943352 2.542000 126 122 118
-0.088330 0.940717 2.523000 126 121 122
-0.087070 0.931648 2.487000 126 121 121
-0.085214 0.916054 2.434000 124 117 120
-0.085214 0.920315 2.434000 122 113 116
-0.082869 0.899125 2.367000 124 115 113
-0.082309 0.897163 2.351000 126 118 118
-0.081223 0.889394 2.320000 126 118 123
-0.080663 0.887294 2.304000 127 120 122
-0.080138 0.885524 2.289000 128 120 122
-0.091996 0.978061 2.766000 125 117 121
-0.089834 0.959805 2.701000 126 119 121
-0.089136 0.957034 2.680000 127 119 121
-0.087107 0.939835 2.619000 126 121 122
-0.086442 0.937207 2.599000 126 121 122
-0.085810 0.934872 2.580000 126 120 123
-0.085810 0.939389 2.580000 126 120 123
-0.085144 0.936588 2.560000 126 120 124
-0.085144 0.941069 2.560000 126 119 121
-0.084546 0.938902 2.542000 126 119 117
-0.084546 0.943352 2.542000 126 120 119
-0.083315 0.934006 2.505000 125 121 120
-0.082716 0.931648 2.487000 124 120 120
-0.082118 0.929227 2.469000 121 118 120
-0.081519 0.926743 2.451000 119 114 117
-0.078725 0.899125 2.367000 122 113 115
-0.078193 0.897163 2.351000 125 116 117
-0.077661 0.895145 2.335000 125 117 120
-0.076630 0.887294 2.304000 125 118 121
-0.076131 0.885524 2.289000 126 119 123
-0.087847 0.980959 2.788000 123 115 121
-0.087847 0.985840 2.788000 124 117 121
-0.085767 0.967267 2.722000 125 118 121
-0.084444 0.957034 2.680000 126 120 121
-0.083152 0.947012 2.639000 125 120 122
-0.081892 0.937207 2.599000 125 122 122
-0.081293 0.934872 2.580000 125 120 122
-0.081293 0.939389 2.580000 125 119 122
-0.080663 0.936588 2.560000 124 119 123
-0.080663 0.941069 2.560000 124 120 122
-0.080663 0.945550 2.560000 124 119 121
-0.080096 0.943352 2.542000 125 119 120
-0.079497 0.940717 2.523000 124 119 119
-0.078930 0.938391 2.505000 123 120 119
-0.077229 0.922452 2.451000 121 116 120
-0.076693 0.920315 2.434000 120 114 118
-0.075622 0.911661 2.400000 122 114 117
-0.074078 0.897163 2.351000 124 116 117
-0.073101 0.889394 2.320000 124 117 118
-0.072597 0.887294 2.304000 124 119 121
-0.072124 0.885524 2.289000 125 119 124
-0.082967 0.980959 2.788000 122 114 116
-0.082282 0.977707 2.765000 123 116 118
-0.081003 0.967267 2.722000 124 118 120
-0.080378 0.964533 2.701000 125 118 121
-0.079128 0.954189 2.659000 125 118 122
-0.077938 0.944420 2.619000 125 119 122
-0.076777 0.934872 2.580000 124 122 121
-0.076777 0.939389 2.580000 124 118 121
-0.076182 0.936588 2.560000 123 118 122
-0.075646 0.934452 2.542000 123 118 121
-0.075646 0.938902 2.542000 123 118 120
-0.075081 0.936301 2.523000 124 118 120
-0.074545 0.934006 2.505000 123 119 120
-0.074545 0.938391 2.505000 122 117 119
-0.073474 0.929227 2.469000 121 115 118
-0.072938 0.926743 2.451000 121 114 117
-0.071420 0.911661 2.400000 122 114 117
-0.070438 0.903269 2.367000 123 115 117
-0.069486 0.895145 2.335000 123 116 118
-0.068564 0.887294 2.304000 124 117 120
-0.068117 0.885524 2.289000 125 120 122
-0.078086 0.980959 2.788000 120 114 111
-0.078086 0.985840 2.788000 122 115 115
-0.076238 0.967267 2.722000 124 115 120
-0.075062 0.957034 2.680000 126 117 121
-0.074473 0.954189 2.659000 125 116 123
-0.073353 0.944420 2.619000 123 117 122
-0.072261 0.934872 2.580000 123 117 121
-0.072261 0.939389 2.580000 123 116 121
-0.071701 0.936588 2.560000 122 117 121
-0.071196 0.934452 2.542000 122 119 120
-0.071196 0.938902 2.542000 122 118 120
-0.070664 0.936301 2.523000 123 118 120
-0.070160 0.934006 2.505000 122 117 121
-0.069656 0.931648 2.487000 121 117 118
-0.069152 0.929227 2.469000 121 114 116
-0.068648 0.926743 2.451000 120 114 116
-0.066771 0.905583 2.384000 121 113 117
-0.065847 0.897163 2.351000 121 114 118
-0.065399 0.895145 2.335000 122 114 119
-0.064979 0.893455 2.320000 123 115 119
-0.064531 0.891327 2.304000 124 117 120
-0.073206 0.980959 2.788000 119 114 113
-0.072602 0.977707 2.765000 121 113 116
-0.071473 0.967267 2.722000 124 113 119
-0.070922 0.964533 2.701000 128 113 120
-0.070370 0.961725 2.680000 125 113 121
-0.069294 0.951632 2.639000 122 114 121
-0.067744 0.934872 2.580000 122 113 120
-0.067219 0.932106 2.560000 122 114 120
-0.067219 0.936588 2.560000 121 116 121
-0.066747 0.934452 2.542000 121 116 120
-0.066747 0.938902 2.542000 121 117 120
-0.066248 0.936301 2.523000 122 116 119
-0.065302 0.927294 2.487000 121 114 118
-0.065302 0.931648 2.487000 121 114 117
-0.064830 0.929227 2.469000 120 113 115
-0.064357 0.926743 2.451000 120 112 115
-0.063911 0.924576 2.434000 120 113 116
-0.062152 0.903269 2.367000 120 112 116
-0.061311 0.895145 2.335000 121 113 117
-0.060917 0.893455 2.320000 122 113 118
-0.060103 0.885524 2.289000 123 114 118
-0.068326 0.980959 2.788000 118 112 115
-0.067762 0.977707 2.765000 120 113 116
-0.066708 0.967267 2.722000 122 112 118
-0.066193 0.964533 2.701000 124 112 119
-0.065679 0.961725 2.680000 123 112 120
-0.064674 0.951632 2.639000 122 113 120
-0.063228 0.934872 2.580000 121 112 120
-0.062738 0.932106 2.560000 121 113 120
-0.062297 0.930002 2.542000 120 114 121
-0.062297 0.934452 2.542000 120 115 120
-0.061831 0.931884 2.523000 121 115 120
-0.061390 0.929621 2.505000 121 115 118
-0.060949 0.927294 2.487000 120 113 116
-0.060949 0.931648 2.487000 119 113 115
-0.060508 0.929227 2.469000 117 111 115
-0.059650 0.920315 2.434000 115 111 115
-0.059233 0.918118 2.417000 117 110 115
-0.058008 0.903269 2.367000 118 110 115
-0.057616 0.901278 2.351000 119 110 116
-0.057224 0.899232 2.335000 121 111 116
-0.056097 0.885524 2.289000 122 112 117
-0.063445 0.980959 2.788000 117 112 115
-0.062922 0.977707 2.765000 120 111 116
-0.061943 0.967267 2.722000 120 110 117
-0.061465 0.964533 2.701000 120 110 118
-0.060987 0.961725 2.680000 121 111 119
-0.060054 0.951632 2.639000 122 111 119
-0.058257 0.927625 2.560000 121 112 119
-0.058257 0.932106 2.560000 120 112 119
-0.057847 0.930002 2.542000 120 113 119
-0.057415 0.927468 2.523000 120 113 118
-0.057415 0.931884 2.523000 120 113 117
-0.057005 0.929621 2.505000 121 113 114
-0.056595 0.927294 2.487000 119 113 111
-0.056186 0.924905 2.469000 117 112 112
-0.055389 0.916054 2.434000 114 110 112
-0.054616 0.907459 2.400000 111 109 110
-0.054616 0.911661 2.400000 114 109 109
-0.053865 0.903269 2.367000 117 109 112
-0.053501 0.901278 2.351000 118 109 115
-0.053136 0.899232 2.335000 120 110 116
-0.052431 0.891327 2.304000 121 112 116
-0.058565 0.980959 2.788000 117 111 116
-0.058082 0.977707 2.765000 119 112 116
-0.057178 0.967267 2.722000 119 110 116
-0.057178 0.972032 2.722000 120 110 117
-0.056737 0.969261 2.701000 121 110 119
-0.053775 0.923144 2.560000 122 111 119
-0.053775 0.927625 2.560000 120 110 119
-0.053397 0.930002 2.542000 118 111 118
-0.052998 0.927468 2.523000 119 113 116
-0.052620 0.925236 2.505000 119 113 115
-0.052242 0.922941 2.487000 119 114 111
-0.052242 0.927294 2.487000 118 112 107
-0.051864 0.924905 2.469000 117 112 108
-0.051129 0.916054 2.434000 114 109 110
-0.050772 0.913887 2.417000 112 109 106
-0.050414 0.911661 2.400000 114 108 103
-0.049721 0.903269 2.367000 116 109 109
-0.049385 0.901278 2.351000 117 109 115
-0.049049 0.899232 2.335000 118 110 115
-0.048734 0.897517 2.320000 119 112 116
-0.053684 0.980959 2.788000 117 111 116
-0.053242 0.977707 2.765000 119 110 116
-0.052414 0.967267 2.722000 119 109 116
-0.052009 0.964533 2.701000 120 109 117
-0.051605 0.961725 2.680000 121 109 118
-0.048582 0.927468 2.523000 118 111 114
-0.048235 0.925236 2.505000 118 112 113
-0.047889 0.922941 2.487000 118 112 111
-0.047889 0.927294 2.487000 118 112 109
-0.047195 0.918162 2.451000 118 110 109
-0.046868 0.916054 2.434000 115 108 110
-0.046541 0.913887 2.417000 113 107 108
-0.046213 0.911661 2.400000 114 108 106
-0.045578 0.903269 2.367000 115 108 109
-0.045270 0.901278 2.351000 116 109 113
-0.044962 0.899232 2.335000 117 109 113
-0.044673 0.897517 2.320000 118 111 114
-0.048804 0.980959 2.788000 116 108 116
-0.048401 0.977707 2.765000 118 110 116
-0.047649 0.967267 2.722000 117 108 116
-0.047281 0.964533 2.701000 117 108 116
-0.046913 0.961725 2.680000 118 108 117
-0.044165 0.927468 2.523000 116 109 112
-0.043850 0.925236 2.505000 116 110 111
-0.043850 0.929621 2.505000 116 112 111
-0.043535 0.927294 2.487000 115 110 111
-0.042905 0.918162 2.451000 115 110 110
-0.042607 0.916054 2.434000 113 106 110
-0.042310 0.913887 2.417000 112 105 110
-0.042012 0.911661 2.400000 113 106 110
-0.041434 0.903269 2.367000 114 108 110
-0.041154 0.901278 2.351000 114 108 111
-0.040874 0.899232 2.335000 115 109 111
-0.040612 0.897517 2.320000 116 109 112
-0.044270 0.978862 2.810000 113 106 115
-0.044270 0.983781 2.810000 114 106 114
-0.043924 0.980959 2.788000 115 107 113
-0.043561 0.977707 2.765000 117 108 113
-0.042884 0.967267 2.722000 116 107 113
-0.042553 0.964533 2.701000 115 107 112
-0.040048 0.934452 2.542000 114 108 108
-0.039749 0.931884 2.523000 114 107 108
-0.039465 0.929621 2.505000 114 109 108
-0.039182 0.927294 2.487000 113 108 108
-0.038614 0.918162 2.451000 112 108 107
-0.038347 0.916054 2.434000 111 104 106
-0.038079 0.913887 2.417000 111 104 106
-0.038079 0.918118 2.417000 112 103 106
-0.037559 0.909756 2.384000 113 106 106
-0.037039 0.901278 2.351000 113 107 106
-0.036787 0.899232 2.335000 113 107 105
-0.036298 0.891327 2.304000 114 106 105
-0.039687 0.992184 2.834000 113 106 111
-0.039351 0.988700 2.810000 113 106 111
-0.038721 0.977707 2.765000 114 108 111
-0.038413 0.974729 2.743000 112 107 111
-0.035332 0.936301 2.523000 111 109 105
-0.035080 0.934006 2.505000 110 109 105
-0.034324 0.918162 2.451000 110 111 103
-0.034324 0.922452 2.451000 109 108 102
-0.034086 0.920315 2.434000 108 107 102
-0.033848 0.918118 2.417000 110 106 102
-0.033610 0.915862 2.400000 112 107 101
-0.033147 0.907412 2.367000 113 108 101
-0.032699 0.899232 2.335000 113 108 99
-0.032489 0.897517 2.320000 114 107 98
-0.034432 0.983781 2.810000 112 106 104
-0.034432 0.988700 2.810000 112 104 102
-0.033611 0.974729 2.743000 109 106 103
-0.029825 0.920315 2.434000 106 105 97
-0.029617 0.918118 2.417000 109 109 96
-0.029212 0.909756 2.384000 112 102 97
-0.028808 0.901278 2.351000 113 110 98
-0.028612 0.899232 2.335000 114 100 95
-0.028612 0.903319 2.335000 114 108 93
-0.025564 0.920315 2.434000 97 93 93
-0.025386 0.918118 2.417000 96 94 91
-0.025039 0.909756 2.384000 94 85 93
-0.024693 0.901278 2.351000 93 87 95
-0.024525 0.899232 2.335000 92 76 92
-0.024367 0.897517 2.320000 92 80 89
-0.022581 0.948421 2.580000 79 74 90
-0.020577 0.897163 2.351000 77 77 88
-0.020437 0.895145 2.335000 74 80 88
-0.020306 0.893455 2.320000 71 67 84
-0.020306 0.897517 2.320000 71 61 80
-0.018065 0.948421 2.580000 73 54 80
-0.016462 0.897163 2.351000 71 52 83
-0.016350 0.895145 2.335000 68 59 82
-0.016245 0.893455 2.320000 65 54 76
-0.016245 0.897517 2.320000 65 55 71
-0.013549 0.943905 2.580000 67 48 73
-0.013549 0.948421 2.580000 67 51 70
-0.013444 0.945550 2.560000 69 54 67
-0.013444 0.950032 2.560000 71 59 66
-0.013444 0.954513 2.560000 71 64 65
-0.012346 0.897163 2.351000 65 49 75
-0.012262 0.895145 2.335000 62 50 74
-0.012183 0.893455 2.320000 60 51 68
-0.012183 0.897517 2.320000 60 51 63
-0.009530 0.967267 2.722000 49 44 63
-0.009033 0.943905 2.580000 58 48 65
-0.009033 0.948421 2.580000 59 50 60
-0.008963 0.945550 2.560000 59 49 55
-0.008963 0.950032 2.560000 60 48 59
-0.008231 0.897163 2.351000 58 50 67
-0.008175 0.895145 2.335000 57 49 66
-0.008122 0.893455 2.320000 56 50 61
-0.008122 0.897517 2.320000 56 50 56
-0.004840 0.977707 2.765000 49 41 61
-0.004765 0.967267 2.722000 49 44 58
-0.004765 0.972032 2.722000 50 47 56
-0.004516 0.943905 2.580000 50 47 60
-0.004516 0.948421 2.580000 51 47 56
-0.004481 0.945550 2.560000 50 47 53
-0.004481 0.950032 2.560000 50 47 58
-0.004116 0.897163 2.351000 51 47 62
-0.004088 0.895145 2.335000 51 47 62
-0.004061 0.893455 2.320000 52 48 59
-0.004033 0.891327 2.304000 52 49 57
-0.000000 0.969928 2.743000 48 42 55
-0.000000 0.967267 2.722000 48 43 54
-0.000000 0.972032 2.722000 48 45 52
-0.000000 0.976797 2.722000 49 44 50
-0.000000 0.950856 2.599000 46 44 55
-0.000000 0.948421 2.580000 45 45 53
-0.000000 0.952937 2.580000 46 45 52
-0.000000 0.905583 2.384000 49 47 58
-0.000000 0.897163 2.351000 50 47 58
-0.000000 0.895145 2.335000 50 47 58
-0.000000 0.893455 2.320000 50 47 58
-0.000000 0.891327 2.304000 51 46 58
0.004840 0.977707 2.765000 47 42 53
0.004765 0.967267 2.722000 47 42 51
0.004765 0.972032 2.722000 47 42 49
0.004728 0.969261 2.701000 47 41 48
0.004691 0.966416 2.680000 47 41 50
0.004655 0.963498 2.659000 47 41 52
0.004550 0.946306 2.599000 47 42 53
0.004550 0.950856 2.599000 43 44 54
0.004516 0.948421 2.580000 39 44 53
0.004516 0.952937 2.580000 42 44 52
0.004143 0.899125 2.367000 47 47 56
0.004115 0.897163 2.351000 49 46 56
0.004061 0.889394 2.320000 49 47 57
0.004061 0.893455 2.320000 49 46 55
0.004033 0.891327 2.304000 49 45 54
0.009680 0.977707 2.765000 45 43 50
0.009530 0.967267 2.722000 46 41 48
0.009530 0.972032 2.722000 47 40 47
0.009456 0.969261 2.701000 47 40 47
0.009383 0.966416 2.680000 47 41 49
0.009309 0.963498 2.659000 46 41 52
0.009239 0.960871 2.639000 45 43 52
0.009099 0.950856 2.599000 43 43 53
0.009033 0.948421 2.580000 41 45 53
0.009033 0.952937 2.580000 43 43 53
0.008304 0.901025 2.372000 46 44 54
0.008231 0.897163 2.351000 47 46 55
0.008122 0.889394 2.320000 47 46 56
0.008066 0.887294 2.304000 48 46 53
0.008066 0.891327 2.304000 49 45 51
0.014295 0.967267 2.722000 45 42 47
0.014184 0.964533 2.701000 47 41 47
0.014074 0.961725 2.680000 47 40 47
0.013964 0.958844 2.659000 47 40 48
0.013964 0.963498 2.659000 45 41 50
0.013859 0.960871 2.639000 44 41 51
0.013754 0.958173 2.619000 44 42 52
0.013549 0.948421 2.580000 44 42 52
0.013444 0.945550 2.560000 44 42 52
0.012488 0.903304 2.378000 44 41 51
0.012346 0.897163 2.351000 45 43 51
0.012183 0.889394 2.320000 46 45 52
0.012099 0.887294 2.304000 47 45 51
0.012099 0.891327 2.304000 49 46 50
0.019059 0.967267 2.722000 44 41 46
0.018912 0.964533 2.701000 45 43 46
0.018765 0.961725 2.680000 45 41 47
0.018618 0.958844 2.659000 45 41 48
0.018478 0.956251 2.639000 44 39 49
0.018338 0.953589 2.619000 44 39 50
0.018338 0.958173 2.619000 43 40 51
0.018065 0.948421 2.580000 43 42 51
0.017925 0.945550 2.560000 43 41 52
0.016693 0.905583 2.384000 45 41 48
0.016462 0.897163 2.351000 46 41 48
0.016245 0.889394 2.320000 46 43 49
0.016133 0.887294 2.304000 46 44 49
0.016133 0.891327 2.304000 48 44 50
0.023641 0.959805 2.701000 44 39 45
0.023641 0.964533 2.701000 43 41 46
0.023273 0.954189 2.659000 43 42 46
0.023273 0.958844 2.659000 43 39 47
0.023098 0.956251 2.639000 43 36 47
0.022923 0.953589 2.619000 44 37 47
0.022581 0.943905 2.580000 43 39 48
0.022581 0.948421 2.580000 43 40 48
0.022406 0.945550 2.560000 42 41 48
0.020717 0.899125 2.367000 46 41 47
0.020437 0.891057 2.335000 47 40 48
0.020306 0.889394 2.320000 46 42 49
0.020166 0.887294 2.304000 45 42 50
0.020166 0.891327 2.304000 47 43 51
0.030007 0.995235 2.857000 43 37 44
0.029766 0.992184 2.834000 43 36 44
0.029513 0.988700 2.810000 44 37 45
0.029282 0.985840 2.788000 44 37 45
0.028589 0.967267 2.722000 43 38 45
0.028148 0.957034 2.680000 42 40 45
0.027927 0.954189 2.659000 42 40 46
0.027927 0.958844 2.659000 42 40 46
0.027717 0.956251 2.639000 42 38 46
0.027507 0.953589 2.619000 42 37 45
0.027507 0.958173 2.619000 42 38 45
0.027098 0.948421 2.580000 42 40 45
0.026888 0.945550 2.560000 41 40 45
0.026499 0.936301 2.523000 41 41 43
0.026310 0.934006 2.505000 41 41 41
0.026121 0.931648 2.487000 42 41 36
0.025743 0.922452 2.451000 42 40 31
0.025564 0.920315 2.434000 43 40 38
0.025039 0.905583 2.384000 43 39 46
0.024693 0.897163 2.351000 44 39 48
0.024525 0.895145 2.335000 44 40 50
0.024367 0.893455 2.320000 43 41 51
0.024199 0.891327 2.304000 45 41 53
0.036834 1.026091 3.006000 41 38 48
0.036515 1.027649 2.980000 43 39 44
0.035302 0.998552 2.881000 44 37 43
0.035008 0.995235 2.857000 43 35 43
0.034726 0.992184 2.834000 43 35 44
0.034726 0.997145 2.834000 43 38 44
0.034432 0.993619 2.810000 44 37 44
0.032839 0.952342 2.680000 42 37 45
0.032582 0.949534 2.659000 41 39 45
0.032582 0.954189 2.659000 41 40 45
0.032337 0.951632 2.639000 41 38 46
0.032337 0.956251 2.639000 41 39 47
0.032092 0.953589 2.619000 41 37 45
0.031847 0.950856 2.599000 41 39 44
0.031614 0.948421 2.580000 41 38 44
0.031148 0.938902 2.542000 41 38 44
0.030916 0.936301 2.523000 41 39 41
0.030695 0.934006 2.505000 41 41 39
0.030474 0.931648 2.487000 41 39 38
0.030033 0.922452 2.451000 41 40 37
0.029825 0.920315 2.434000 41 39 42
0.029408 0.911661 2.400000 41 38 47
0.028808 0.897163 2.351000 42 38 48
0.028612 0.895145 2.335000 42 39 50
0.028428 0.893455 2.320000 42 40 50
0.028232 0.891327 2.304000 43 42 51
0.042474 1.029998 3.033000 39 38 46
0.042096 1.026091 3.006000 41 36 53
0.042096 1.031353 3.006000 42 34 50
0.042096 1.036615 3.006000 42 35 47
0.040009 0.995235 2.857000 42 34 43
0.039687 0.992184 2.834000 42 34 43
0.039351 0.988700 2.810000 42 37 44
0.039043 0.985840 2.788000 43 39 44
0.037531 0.952342 2.680000 42 38 45
0.037237 0.949534 2.659000 41 39 45
0.037237 0.954189 2.659000 41 38 45
0.036957 0.951632 2.639000 42 35 46
0.036957 0.956251 2.639000 41 35 48
0.036676 0.953589 2.619000 41 35 46
0.036130 0.943905 2.580000 40 36 44
0.035850 0.941069 2.560000 40 37 43
0.035598 0.938902 2.542000 40 36 43
0.035080 0.929621 2.505000 40 39 40
0.034828 0.927294 2.487000 40 38 38
0.034828 0.931648 2.487000 40 37 41
0.034324 0.922452 2.451000 40 38 44
0.034086 0.920315 2.434000 40 39 46
0.033386 0.905583 2.384000 40 38 49
0.032923 0.897163 2.351000 41 38 49
0.032699 0.895145 2.335000 40 38 50
0.032489 0.893455 2.320000 40 39 50
0.032265 0.891327 2.304000 41 39 50
0.047783 1.029998 3.033000 39 37 41
0.047358 1.026091 3.006000 40 36 48
0.044270 0.983781 2.810000 42 34 43
0.043924 0.980959 2.788000 42 38 44
0.043924 0.985840 2.788000 42 37 44
0.042222 0.952342 2.680000 41 39 44
0.041891 0.949534 2.659000 41 38 43
0.041891 0.954189 2.659000 42 39 43
0.041576 0.951632 2.639000 43 34 42
0.041261 0.949004 2.619000 42 34 41
0.041261 0.953589 2.619000 42 34 40
0.040647 0.943905 2.580000 40 34 38
0.040332 0.941069 2.560000 39 34 40
0.040048 0.938902 2.542000 39 33 42
0.039749 0.936301 2.523000 39 35 41
0.039465 0.934006 2.505000 39 37 40
0.039181 0.931648 2.487000 39 36 42
0.038614 0.922452 2.451000 39 36 44
0.038346 0.920315 2.434000 40 36 46
0.037811 0.911661 2.400000 40 38 48
0.037291 0.903269 2.367000 40 36 47
0.037039 0.901278 2.351000 39 37 46
0.036550 0.893455 2.320000 39 36 45
0.036298 0.891327 2.304000 40 37 45
0.049189 0.988700 2.810000 41 35 44
0.048804 0.985840 2.788000 40 34 44
0.046913 0.952342 2.680000 41 36 44
0.046546 0.949534 2.659000 41 36 42
0.046546 0.954189 2.659000 41 34 41
0.046196 0.951632 2.639000 42 31 38
0.045846 0.949004 2.619000 41 33 35
0.045495 0.946306 2.599000 41 33 34
0.045163 0.943905 2.580000 40 32 33
0.044813 0.941069 2.560000 39 32 37
0.044498 0.938902 2.542000 39 32 41
0.044165 0.936301 2.523000 39 33 41
0.043850 0.934006 2.505000 39 33 42
0.043535 0.931648 2.487000 40 34 43
0.042905 0.922452 2.451000 39 34 44
0.042607 0.920315 2.434000 39 34 45
0.042012 0.911661 2.400000 39 34 47
0.041434 0.903269 2.367000 40 34 44
0.041154 0.901278 2.351000 40 33 42
0.040612 0.893455 2.320000 40 33 41
0.040332 0.891327 2.304000 40 35 41
0.054108 0.988700 2.810000 40 37 42
0.053684 0.985840 2.788000 39 36 43
0.051605 0.952342 2.680000 40 37 43
0.051200 0.949534 2.659000 42 35 42
0.051200 0.954189 2.659000 41 31 41
0.050815 0.951632 2.639000 41 31 38
0.050815 0.956251 2.639000 41 34 36
0.050430 0.953589 2.619000 41 31 38
0.049679 0.943905 2.580000 40 29 40
0.049294 0.941069 2.560000 40 31 40
0.048948 0.938902 2.542000 40 31 41
0.048582 0.936301 2.523000 40 31 41
0.048235 0.934006 2.505000 40 31 41
0.047888 0.931648 2.487000 41 34 42
0.047195 0.922452 2.451000 40 34 43
0.046868 0.920315 2.434000 39 33 43
0.046213 0.911661 2.400000 39 33 44
0.045270 0.897163 2.351000 40 31 42
0.044962 0.895145 2.335000 40 31 41
0.044673 0.893455 2.320000 41 32 41
0.044365 0.891327 2.304000 41 34 42
0.059027 0.988700 2.810000 39 33 41
0.058565 0.985840 2.788000 38 36 42
0.056737 0.959805 2.701000 39 36 43
0.055855 0.949534 2.659000 40 36 42
0.055855 0.954189 2.659000 40 33 41
0.055435 0.951632 2.639000 40 31 39
0.055435 0.956251 2.639000 40 31 37
0.055015 0.953589 2.619000 40 31 42
0.054595 0.950856 2.599000 39 32 47
0.053775 0.941069 2.560000 38 34 44
0.053397 0.938902 2.542000 37 32 41
0.052998 0.936301 2.523000 37 31 41
0.052620 0.934006 2.505000 37 33 41
0.051864 0.924905 2.469000 38 37 41
0.051486 0.922452 2.451000 37 34 42
0.051129 0.920315 2.434000 36 32 41
0.050414 0.911661 2.400000 36 31 41
0.049721 0.903269 2.367000 37 29 41
0.049385 0.901278 2.351000 37 31 41
0.048734 0.893455 2.320000 38 31 42
0.048398 0.891327 2.304000 39 33 43
0.063946 0.988700 2.810000 38 30 41
0.063445 0.985840 2.788000 37 33 43
0.061465 0.959805 2.701000 38 37 45
0.060510 0.949534 2.659000 39 35 42
0.060510 0.954189 2.659000 39 34 40
0.060054 0.951632 2.639000 39 32 39
0.060054 0.956251 2.639000 39 31 39
0.059599 0.953589 2.619000 40 31 41
0.058712 0.943905 2.580000 38 34 44
0.058257 0.941069 2.560000 37 33 43
0.057847 0.938902 2.542000 35 33 43
0.057415 0.936301 2.523000 34 33 42
0.057005 0.934006 2.505000 34 35 41
0.056595 0.931648 2.487000 35 35 41
0.056186 0.929227 2.469000 34 34 41
0.055389 0.920315 2.434000 34 32 39
0.054251 0.905583 2.384000 34 32 37
0.053865 0.903269 2.367000 34 32 36
0.053501 0.901278 2.351000 34 33 35
0.053136 0.899232 2.335000 35 32 37
0.052431 0.891327 2.304000 36 35 39
0.068865 0.983781 2.810000 39 29 37
0.068865 0.988700 2.810000 39 30 41
0.068326 0.985840 2.788000 38 31 44
0.066193 0.959805 2.701000 38 33 47
0.065679 0.957034 2.680000 38 35 43
0.065164 0.954189 2.659000 38 32 40
0.064674 0.951632 2.639000 39 32 40
0.064184 0.949004 2.619000 39 31 41
0.063694 0.946306 2.599000 38 31 41
0.063228 0.943905 2.580000 36 31 41
0.062297 0.934452 2.542000 34 31 43
0.062297 0.938902 2.542000 34 32 45
0.061831 0.936301 2.523000 34 34 43
0.061390 0.934006 2.505000 34 34 41
0.061390 0.938391 2.505000 35 34 41
0.059233 0.918118 2.417000 35 32 34
0.058008 0.903269 2.367000 36 34 31
0.057224 0.895145 2.335000 36 33 29
0.056856 0.893455 2.320000 36 32 32
0.056464 0.891327 2.304000 36 32 35
0.074099 0.987982 2.822000 39 30 39
0.073784 0.988700 2.810000 39 31 41
0.073206 0.985840 2.788000 40 32 42
0.070370 0.952342 2.680000 38 32 43
0.069819 0.949534 2.659000 37 31 41
0.069819 0.954189 2.659000 38 30 39
0.069294 0.951632 2.639000 40 31 38
0.068768 0.949004 2.619000 38 33 38
0.068243 0.946306 2.599000 37 32 39
0.067744 0.943905 2.580000 34 30 41
0.067219 0.941069 2.560000 32 30 42
0.066747 0.938902 2.542000 33 30 44
0.066248 0.936301 2.523000 34 32 42
0.065775 0.934006 2.505000 34 33 40
0.060917 0.889394 2.320000 38 34 34
0.060497 0.887294 2.304000 38 31 35
0.060497 0.891327 2.304000 36 30 37
0.079375 0.992184 2.834000 39 31 41
0.079375 0.997145 2.834000 38 31 41
0.078703 0.993619 2.810000 37 34 40
0.075061 0.952342 2.680000 37 31 39
0.075061 0.957034 2.680000 37 30 39
0.074473 0.954189 2.659000 37 30 39
0.073913 0.951632 2.639000 37 32 37
0.073913 0.956251 2.639000 36 33 35
0.072793 0.946306 2.599000 36 35 38
0.072261 0.943905 2.580000 34 32 41
0.071701 0.941069 2.560000 32 31 42
0.071196 0.938902 2.542000 31 31 44
0.070664 0.936301 2.523000 30 33 41
0.070160 0.934006 2.505000 31 34 39
0.064979 0.893455 2.320000 35 30 39
0.064110 0.885524 2.289000 34 30 39
0.085020 0.995235 2.857000 36 30 43
0.084336 0.992184 2.834000 39 31 42
0.084336 0.997145 2.834000 36 30 41
0.083621 0.993619 2.810000 34 32 40
0.082967 0.990720 2.788000 36 29 40
0.081003 0.972032 2.722000 38 30 39
0.079753 0.961725 2.680000 36 30 38
0.079128 0.958844 2.659000 34 32 34
0.078533 0.956251 2.639000 34 33 30
0.077937 0.953589 2.619000 35 34 35
0.076777 0.943905 2.580000 33 34 41
0.074902 0.934074 2.517000 26 33 40
0.074545 0.934006 2.505000 28 36 40
0.069040 0.893455 2.320000 32 31 38
0.068564 0.891327 2.304000 31 31 36
0.090021 0.990233 2.857000 36 34 43
0.089296 0.987223 2.834000 37 33 45
0.089296 0.992184 2.834000 39 34 43
0.089296 0.997145 2.834000 36 33 42
0.088540 0.993619 2.810000 33 35 41
0.087122 0.982547 2.765000 34 32 41
0.086429 0.979531 2.743000 36 32 39
0.084444 0.961725 2.680000 35 32 38
0.083782 0.958844 2.659000 34 34 32
0.083152 0.956251 2.639000 35 34 26
0.082522 0.953589 2.619000 37 35 33
0.081293 0.943905 2.580000 34 34 41
0.079119 0.931847 2.511000 34 33 40
0.078930 0.934006 2.505000 33 34 41
0.073101 0.893455 2.320000 32 33 37
0.072597 0.891327 2.304000 32 32 33
0.095022 0.995235 2.857000 39 36 45
0.094257 0.992184 2.834000 39 36 44
0.094257 0.997145 2.834000 35 36 43
0.093459 0.993619 2.810000 32 36 41
0.092727 0.990720 2.788000 33 34 40
0.089834 0.964533 2.701000 35 34 40
0.089135 0.961725 2.680000 35 34 40
0.088437 0.958844 2.659000 35 34 36
0.087772 0.956251 2.639000 37 35 32
0.087107 0.953589 2.619000 39 35 37
0.086441 0.950856 2.599000 36 35 43
0.083315 0.929621 2.505000 42 35 44
0.083315 0.934006 2.505000 39 35 42
0.077661 0.895145 2.335000 33 33 39
0.077162 0.893455 2.320000 33 34 38
0.076630 0.891327 2.304000 34 35 37
0.100024 0.995235 2.857000 39 37 45
0.099218 0.992184 2.834000 39 38 44
0.099218 0.997145 2.834000 38 37 44
0.099218 1.002105 2.834000 37 39 41
0.093092 0.949534 2.659000 37 37 41
0.093092 0.954189 2.659000 37 36 43
0.093092 0.958844 2.659000 37 36 41
0.092391 0.956251 2.639000 39 36 39
0.091691 0.953589 2.619000 41 35 42
0.090991 0.950856 2.599000 38 35 45
0.088015 0.932961 2.514000 40 37 49
0.087700 0.934006 2.505000 39 35 44
0.081923 0.897061 2.340000 35 34 37
0.081398 0.895381 2.325000 35 36 39
0.080663 0.891327 2.304000 36 35 42
0.097746 0.954189 2.659000 39 38 40
0.097011 0.951632 2.639000 39 37 40
0.097011 0.956251 2.639000 41 38 41
0.096276 0.953589 2.619000 44 36 42
0.095541 0.950856 2.599000 41 37 44
0.094107 0.941069 2.560000 38 36 44
0.093445 0.938902 2.542000 38 37 44
0.092747 0.936301 2.523000 39 36 43
0.092085 0.934006 2.505000 38 35 43
0.086203 0.898978 2.345000 36 36 39
0.085652 0.897306 2.330000 38 35 42
0.085284 0.897517 2.320000 38 36 44
0.101630 0.951632 2.639000 37 36 40
0.100860 0.949004 2.619000 39 36 44
0.100860 0.953589 2.619000 41 35 43
0.100090 0.950856 2.599000 37 36 43
0.098588 0.941069 2.560000 34 35 38
0.097895 0.938902 2.542000 36 36 34
0.097163 0.936301 2.523000 39 38 38
0.096470 0.934006 2.505000 39 37 42
0.096470 0.938391 2.505000 38 36 44
0.090539 0.901278 2.351000 38 35 42
0.089923 0.899232 2.335000 38 35 44
0.089345 0.897517 2.320000 39 35 47
0.106250 0.951632 2.639000 35 37 42
0.100855 0.934006 2.505000 39 39 41
0.094655 0.901278 2.351000 40 35 44
0.094011 0.899232 2.335000 39 36 44
0.093407 0.897517 2.320000 40 34 44
0.105240 0.934006 2.505000 42 38 41
0.098770 0.901278 2.351000 41 37 46
0.098098 0.899232 2.335000 40 40 43
0.097468 0.897517 2.320000 40 37 41
0.109625 0.934006 2.505000 45 40 43
0.102886 0.901278 2.351000 43 38 45
0.102185 0.899232 2.335000 41 38 44
0.101529 0.897517 2.320000 41 37 43
0.107001 0.901278 2.351000 43 39 45
0.106273 0.899232 2.335000 42 39 45
0.106273 0.903319 2.335000 42 38 45
0.111873 0.903269 2.367000 43 41 49
0.111116 0.901278 2.351000 43 41 52
0.110360 0.899232 2.335000 43 40 48
0.110360 0.903319 2.335000 44 39 45
0.116016 0.899125 2.367000 42 41 50
0.116016 0.903269 2.367000 44 43 54
0.115232 0.901278 2.351000 43 42 59
0.114448 0.899232 2.335000 43 42 52
0.114448 0.903319 2.335000 45 39 46
0.121023 0.905583 2.384000 43 39 46
0.120160 0.903269 2.367000 45 40 49
0.119347 0.901278 2.351000 44 42 51
0.118535 0.899232 2.335000 43 40 49
0.117774 0.897517 2.320000 46 37 46
0.124303 0.903269 2.367000 42 37 43
0.123463 0.901278 2.351000 41 38 44
0.123463 0.905394 2.351000 41 39 45
0.122623 0.903319 2.335000 42 35 47
0.128446 0.907412 2.367000 39 37 42
0.127578 0.905394 2.351000 39 35 44
0.126710 0.903319 2.335000 39 33 45
0.132590 0.907412 2.367000 36 34 41
0.328445 0.425046 3.679000 106 99 99
0.324963 0.477887 3.640000 105 95 95
0.328445 0.489447 3.679000 104 95 93
0.328445 0.495887 3.679000 105 95 91
0.328445 0.502327 3.679000 106 94 89
0.328445 0.508767 3.679000 104 94 88
0.328445 0.515207 3.679000 103 94 89
0.328445 0.850092 3.679000 34 36 33
0.328445 0.856532 3.679000 40 53 49
0.328445 0.862972 3.679000 47 46 46
0.328445 0.869412 3.679000 46 41 43
0.334885 0.418606 3.679000 107 99 99
0.334885 0.425046 3.679000 107 99 98
0.334885 0.431486 3.679000 107 98 98
0.334885 0.437926 3.679000 108 97 98
0.334885 0.444366 3.679000 107 97 98
0.334885 0.450806 3.679000 107 98 96
0.331335 0.452399 3.640000 107 97 95
0.331335 0.458771 3.640000 107 98 97
0.331335 0.465143 3.640000 106 96 100
0.331335 0.471515 3.640000 105 96 98
0.331335 0.477887 3.640000 104 94 97
0.331335 0.484258 3.640000 103 94 94
0.331335 0.490630 3.640000 104 94 91
0.334885 0.502327 3.679000 105 94 89
0.334885 0.508767 3.679000 104 94 88
0.331335 0.509746 3.640000 102 95 90
0.331335 0.516118 3.640000 101 93 93
0.331335 0.834709 3.640000 23 13 20
0.331335 0.841080 3.640000 37 44 28
0.331335 0.847452 3.640000 45 50 37
0.334885 0.862972 3.679000 53 49 40
0.334885 0.869412 3.679000 49 44 44
0.368787 -1.489063 3.975000 43 37 40
0.348747 0.309266 3.759000 122 111 115
0.341325 0.322005 3.679000 120 106 111
0.344943 0.331926 3.718000 117 106 110
0.344943 0.338435 3.718000 115 106 108
0.341325 0.347765 3.679000 115 105 105
0.344943 0.364468 3.718000 113 103 103
0.348747 0.375068 3.759000 112 103 102
0.344943 0.390502 3.718000 111 101 101
0.341325 0.392846 3.679000 110 99 103
0.341325 0.418606 3.679000 108 99 98
0.341325 0.425046 3.679000 108 98 97
0.341325 0.431486 3.679000 108 98 96
0.341325 0.437926 3.679000 109 98 95
0.341325 0.444366 3.679000 108 99 95
0.341325 0.450806 3.679000 107 98 94
0.341325 0.457246 3.679000 106 97 94
0.337706 0.458771 3.640000 106 97 95
0.341325 0.470127 3.679000 105 97 96
0.337706 0.471515 3.640000 105 95 96
0.337706 0.477887 3.640000 104 94 95
0.337706 0.484258 3.640000 103 94 92
0.337706 0.490630 3.640000 104 95 89
0.341325 0.502327 3.679000 105 94 88
0.337706 0.503374 3.640000 103 94 87
0.337706 0.509746 3.640000 102 93 88
0.337706 0.516118 3.640000 101 92 90
0.337706 0.522489 3.640000 100 91 88
0.341325 0.579608 3.679000 115 116 108
0.337706 0.579836 3.640000 125 128 142
0.337706 0.586208 3.640000 135 136 133
0.337706 0.834709 3.640000 24 4 17
0.337706 0.841080 3.640000 41 37 27
0.337706 0.847452 3.640000 50 56 37
0.341325 0.862972 3.679000 59 51 41
0.341325 0.869412 3.679000 53 46 44
0.327315 0.951068 3.528000 47 37 44
0.327315 0.957244 3.528000 42 33 40
0.375745 -1.489063 3.975000 44 43 44
0.351451 0.305893 3.718000 120 111 113
0.351451 0.312401 3.718000 119 110 112
0.347765 0.322005 3.679000 118 107 110
0.351451 0.331926 3.718000 116 105 110
0.351451 0.338435 3.718000 114 107 109
0.347765 0.341325 3.679000 114 105 108
0.347765 0.347765 3.679000 114 106 106
0.347765 0.354205 3.679000 113 103 104
0.351451 0.364468 3.718000 112 103 103
0.351451 0.370977 3.718000 111 102 102
0.355327 0.381648 3.759000 111 103 101
0.351451 0.383993 3.718000 111 102 100
0.347765 0.386406 3.679000 111 102 102
0.347765 0.392846 3.679000 109 100 104
0.347765 0.412166 3.679000 107 101 97
0.347765 0.418606 3.679000 107 98 98
0.347765 0.425046 3.679000 107 98 96
0.347765 0.431486 3.679000 107 97 95
0.347765 0.437926 3.679000 107 99 93
0.347765 0.444366 3.679000 106 98 92
0.344078 0.446028 3.640000 106 99 93
0.344078 0.452399 3.640000 105 97 94
0.344078 0.458771 3.640000 104 97 93
0.344078 0.465143 3.640000 104 95 93
0.344078 0.471515 3.640000 104 95 93
0.344078 0.477887 3.640000 103 94 94
0.344078 0.484258 3.640000 102 95 91
0.344078 0.490630 3.640000 102 94 88
0.344078 0.497002 3.640000 103 95 87
0.344078 0.503374 3.640000 102 93 86
0.344078 0.509746 3.640000 101 93 87
0.344078 0.516118 3.640000 100 91 88
0.344078 0.522489 3.640000 99 91 86
0.340486 0.523340 3.602000 99 90 84
0.344078 0.573464 3.640000 119 127 111
0.344078 0.579836 3.640000 131 146 159
0.344078 0.586208 3.640000 143 150 143
0.344078 0.592579 3.640000 116 118 127
0.344078 0.834709 3.640000 25 14 14
0.344078 0.841080 3.640000 41 46 26
0.340486 0.838605 3.602000 48 52 38
0.344078 0.853824 3.640000 56 53 41
0.347765 0.869412 3.679000 51 48 45
0.347765 0.875852 3.679000 47 45 45
0.347765 0.882293 3.679000 51 45 46
0.347765 0.888733 3.679000 55 44 46
0.344078 0.885683 3.640000 67 59 47
0.344078 0.892055 3.640000 79 72 53
0.336989 0.898637 3.565000 69 55 58
0.333491 0.944892 3.528000 53 46 51
0.333491 0.951068 3.528000 47 38 46
0.333491 0.957244 3.528000 42 33 42
0.336989 0.973523 3.565000 37 30 38
0.336989 0.979764 3.565000 39 31 34
0.336989 0.986004 3.565000 41 33 31
0.336989 0.992245 3.565000 42 33 28
0.336989 0.998485 3.565000 43 34 28
0.361907 0.302686 3.759000 120 115 121
0.357960 0.305893 3.718000 119 108 117
0.357960 0.312401 3.718000 118 109 115
0.357960 0.318910 3.718000 117 105 113
0.354205 0.322005 3.679000 117 107 113
0.354205 0.328445 3.679000 115 103 114
0.354205 0.334885 3.679000 114 106 112
0.354205 0.341325 3.679000 113 103 111
0.354205 0.347765 3.679000 113 105 109
0.354205 0.354205 3.679000 112 101 107
0.357960 0.364468 3.718000 111 102 107
0.357960 0.370977 3.718000 110 99 106
0.357960 0.377485 3.718000 110 102 104
0.357960 0.383993 3.718000 110 100 103
0.357960 0.390502 3.718000 111 101 103
0.357960 0.397010 3.718000 109 99 104
0.361907 0.407968 3.759000 108 101 101
0.357960 0.410027 3.718000 107 100 98
0.357960 0.416535 3.718000 107 100 98
0.357960 0.423043 3.718000 107 95 99
0.357960 0.429552 3.718000 107 97 99
0.354205 0.431486 3.679000 106 95 99
0.354205 0.437926 3.679000 105 98 97
0.354205 0.444366 3.679000 105 95 95
0.354205 0.450806 3.679000 106 97 93
0.354205 0.457246 3.679000 104 95 92
0.350450 0.458771 3.640000 103 96 94
0.354205 0.470127 3.679000 103 94 97
0.350450 0.471515 3.640000 103 95 93
0.350450 0.477887 3.640000 102 93 89
0.350450 0.484258 3.640000 101 94 87
0.350450 0.490630 3.640000 101 92 84
0.350450 0.497002 3.640000 101 94 89
0.350450 0.503374 3.640000 100 92 93
0.350450 0.509746 3.640000 100 93 88
0.350450 0.516118 3.640000 99 91 84
0.350450 0.522489 3.640000 99 92 82
0.350450 0.528861 3.640000 98 91 80
0.346792 0.529645 3.602000 97 90 79
0.346792 0.542256 3.602000 96 89 76
0.350450 0.554348 3.640000 93 87 74
0.350450 0.560720 3.640000 91 80 69
0.350450 0.567092 3.640000 107 69 65
0.350450 0.573464 3.640000 124 95 85
0.350450 0.579836 3.640000 138 182 105
0.350450 0.586208 3.640000 152 145 103
0.350450 0.592579 3.640000 113 169 101
0.346792 0.592699 3.602000 75 80 67
0.346792 0.599004 3.602000 81 34 34
0.346792 0.605309 3.602000 88 59 48
0.343229 0.611572 3.565000 91 76 55
0.343229 0.773826 3.565000 9 21 36
0.343229 0.780067 3.565000 9 3 4
0.343229 0.786307 3.565000 9 7 6
0.346792 0.800773 3.602000 8 9 9
0.346792 0.807079 3.602000 8 8 6
0.346792 0.813384 3.602000 9 9 3
0.346792 0.819689 3.602000 10 4 10
0.350450 0.834709 3.640000 25 4 17
0.346792 0.832300 3.602000 41 37 27
0.346792 0.838605 3.602000 47 54 37
0.350450 0.853824 3.640000 53 52 44
0.350450 0.860196 3.640000 50 50 50
0.350450 0.866568 3.640000 48 46 48
0.350450 0.872940 3.640000 51 44 46
0.350450 0.879311 3.640000 55 47 45
0.346792 0.876437 3.602000 68 57 45
0.346792 0.882742 3.602000 82 65 52
0.343229 0.892396 3.565000 69 57 55
0.339667 0.889310 3.528000 67 54 53
0.339667 0.938716 3.528000 68 64 56
0.339667 0.944892 3.528000 57 52 52
0.339667 0.951068 3.528000 47 41 50
0.339667 0.957244 3.528000 42 33 47
0.339667 0.963419 3.528000 37 30 40
0.339667 0.969595 3.528000 38 31 33
0.339667 0.975771 3.528000 40 32 28
0.339667 0.981947 3.528000 42 31 24
0.343229 0.998485 3.565000 45 35 26
0.343229 1.004726 3.565000 45 41 27
0.364468 0.299385 3.718000 124 122 124
0.364468 0.305893 3.718000 123 123 122
0.364468 0.312401 3.718000 122 116 118
0.360645 0.315565 3.679000 121 119 115
0.360645 0.322005 3.679000 121 115 116
0.360645 0.328445 3.679000 120 118 118
0.360645 0.334885 3.679000 119 114 116
0.360645 0.341325 3.679000 118 117 115
0.360645 0.347765 3.679000 117 112 113
0.360645 0.354205 3.679000 116 115 111
0.360645 0.360645 3.679000 116 108 111
0.364468 0.370977 3.718000 115 112 111
0.364468 0.377485 3.718000 115 106 108
0.360645 0.379965 3.679000 115 110 106
0.360645 0.386406 3.679000 115 106 105
0.360645 0.392846 3.679000 114 111 104
0.364468 0.403518 3.718000 113 106 102
0.360645 0.405726 3.679000 113 109 100
0.360645 0.412166 3.679000 113 105 100
0.360645 0.418606 3.679000 112 107 101
0.360645 0.425046 3.679000 111 103 102
0.360645 0.431486 3.679000 110 108 103
0.360645 0.437926 3.679000 110 103 101
0.360645 0.444366 3.679000 109 106 99
0.356822 0.446028 3.640000 109 102 94
0.356822 0.452399 3.640000 109 105 90
0.356822 0.458771 3.640000 108 99 95
0.356822 0.465143 3.640000 108 104 101
0.356822 0.471515 3.640000 107 100 93
0.356822 0.477887 3.640000 106 103 85
0.356822 0.484258 3.640000 106 99 83
0.356822 0.490630 3.640000 106 102 81
0.356822 0.497002 3.640000 106 97 91
0.356822 0.503374 3.640000 104 100 101
0.356822 0.509746 3.640000 103 96 90
0.356822 0.516118 3.640000 102 95 80
0.356822 0.522489 3.640000 102 96 78
0.356822 0.528861 3.640000 100 94 77
0.353097 0.529645 3.602000 99 92 75
0.349470 0.530445 3.565000 99 91 73
0.353097 0.542256 3.602000 99 92 71
0.356822 0.554348 3.640000 97 90 69
0.353097 0.554867 3.602000 95 87 68
0.356822 0.567092 3.640000 99 58 67
0.356822 0.573464 3.640000 103 5 59
0.356822 0.579836 3.640000 112 81 51
0.356822 0.586208 3.640000 121 82 63
0.356822 0.592579 3.640000 103 104 76
0.349470 0.586610 3.565000 85 83 67
0.349470 0.592851 3.565000 89 68 59
0.349470 0.599091 3.565000 92 77 68
0.349470 0.605332 3.565000 93 78 77
0.345843 0.605225 3.528000 94 86 64
0.353097 0.624225 3.602000 84 80 51
0.356822 0.637182 3.640000 74 69 51
0.356822 0.643554 3.640000 81 72 51
0.360645 0.656889 3.679000 88 81 59
0.349470 0.730142 3.565000 84 74 66
0.349470 0.736383 3.565000 85 77 68
0.349470 0.742624 3.565000 87 78 70
0.353097 0.775552 3.602000 53 60 71
0.349470 0.773826 3.565000 11 4 37
0.349470 0.780067 3.565000 10 4 4
0.349470 0.786307 3.565000 9 9 6
0.349470 0.792548 3.565000 8 8 9
0.349470 0.798788 3.565000 8 6 6
0.349470 0.805029 3.565000 9 6 4
0.349470 0.811269 3.565000 10 3 12
0.353097 0.825995 3.602000 25 13 20
0.349470 0.823750 3.565000 40 44 28
0.353097 0.838605 3.602000 48 49 37
0.353097 0.844911 3.602000 56 51 46
0.356822 0.860196 3.640000 53 48 56
0.356822 0.866568 3.640000 49 45 51
0.353097 0.863826 3.602000 51 44 46
0.353097 0.870132 3.602000 54 44 45
0.353097 0.876437 3.602000 65 55 44
0.356822 0.892055 3.640000 77 65 51
0.353097 0.889048 3.602000 74 65 59
0.349470 0.886156 3.565000 70 64 55
0.349470 0.892396 3.565000 67 58 52
0.349470 0.898637 3.565000 64 52 48
0.345843 0.895486 3.528000 67 53 45
0.345843 0.920189 3.528000 80 68 62
0.345843 0.926365 3.528000 83 73 62
0.345843 0.932540 3.528000 78 72 62
0.345843 0.938716 3.528000 72 71 58
0.345843 0.944892 3.528000 62 59 54
0.345843 0.951068 3.528000 53 43 53
0.345843 0.957244 3.528000 42 35 53
0.345843 0.963419 3.528000 32 28 42
0.345843 0.969595 3.528000 35 30 32
0.345843 0.975771 3.528000 39 34 26
0.349470 0.992245 3.565000 42 33 21
0.349470 0.998485 3.565000 44 34 24
0.349470 1.004726 3.565000 43 36 27
0.370976 0.299385 3.718000 129 110 93
0.370976 0.305893 3.718000 127 147 92
0.367085 0.309124 3.679000 126 106 90
0.367085 0.315565 3.679000 125 142 88
0.363194 0.318591 3.640000 125 105 87
0.367085 0.328445 3.679000 124 142 86
0.367085 0.334885 3.679000 124 105 86
0.363194 0.337707 3.640000 123 142 86
0.367085 0.347765 3.679000 122 103 86
0.363194 0.350450 3.640000 121 142 87
0.367085 0.360645 3.679000 121 100 84
0.367085 0.367085 3.679000 121 136 82
0.367085 0.373525 3.679000 121 99 82
0.363194 0.375937 3.640000 120 131 82
0.363194 0.382309 3.640000 119 101 82
0.363194 0.388681 3.640000 118 133 83
0.367085 0.399286 3.679000 118 98 81
0.367085 0.405726 3.679000 118 128 79
0.367085 0.412166 3.679000 119 99 79
0.367085 0.418606 3.679000 117 126 79
0.367085 0.425046 3.679000 116 97 80
0.367085 0.431486 3.679000 115 132 81
0.367085 0.437926 3.679000 115 99 79
0.363194 0.439656 3.640000 114 126 77
0.363194 0.446028 3.640000 113 100 81
0.363194 0.452399 3.640000 113 126 85
0.363194 0.458771 3.640000 114 98 84
0.363194 0.465143 3.640000 113 126 84
0.363194 0.471515 3.640000 112 98 82
0.359402 0.472898 3.602000 111 122 80
0.363194 0.484258 3.640000 111 98 80
0.363194 0.490630 3.640000 111 122 79
0.363194 0.497002 3.640000 111 96 84
0.363194 0.503374 3.640000 108 118 89
0.363194 0.509746 3.640000 106 91 83
0.363194 0.516118 3.640000 105 98 77
0.363194 0.522489 3.640000 105 88 75
0.363194 0.528861 3.640000 103 98 74
0.363194 0.535233 3.640000 101 87 72
0.363194 0.541605 3.640000 101 94 71
0.363194 0.547977 3.640000 102 87 69
0.367085 0.560288 3.679000 100 95 67
0.367085 0.566728 3.679000 99 82 63
0.367085 0.573168 3.679000 91 74 60
0.367085 0.579608 3.679000 83 53 54
0.363194 0.579836 3.640000 86 58 47
0.363194 0.586208 3.640000 90 74 55
0.363194 0.592579 3.640000 93 83 62
0.355710 0.586610 3.565000 96 80 55
0.355710 0.592851 3.565000 96 80 49
0.352019 0.592874 3.528000 97 78 52
0.352019 0.599049 3.528000 97 83 55
0.352019 0.605225 3.528000 98 82 48
0.355710 0.617813 3.565000 89 90 42
0.355710 0.624053 3.565000 80 71 47
0.363194 0.643554 3.640000 84 77 53
0.363194 0.649926 3.640000 89 83 67
0.352019 0.722565 3.528000 80 71 52
0.352019 0.728740 3.528000 82 74 53
0.352019 0.734916 3.528000 84 79 55
0.355710 0.748864 3.565000 86 82 68
0.355710 0.755105 3.565000 89 82 80
0.359402 0.769247 3.602000 93 84 69
