ply
format ascii 1.0
element vertex 1311
property float x
property float y
property float z
property uchar red
property uchar green
property uchar blue
end_header
0.403557 -0.354641 3.493000 57 62 54
0.403557 -0.348526 3.493000 59 55 56
0.403557 -0.342412 3.493000 62 68 61
0.403557 -0.336297 3.493000 64 63 67
0.403557 -0.330183 3.493000 66 77 71
0.403557 -0.324068 3.493000 70 67 75
0.403557 -0.317954 3.493000 74 73 65
0.403557 -0.311839 3.493000 77 72 56
0.403557 -0.305725 3.493000 81 76 54
0.403557 -0.299610 3.493000 82 79 53
0.403557 -0.293496 3.493000 84 89 67
0.399513 -0.284502 3.458000 92 74 81
0.399513 -0.278448 3.458000 100 62 68
0.399513 -0.272395 3.458000 112 82 56
0.399513 -0.266342 3.458000 125 60 78
0.399513 -0.260289 3.458000 140 92 100
0.399513 -0.254236 3.458000 156 41 133
0.399513 -0.248182 3.458000 166 116 167
0.399513 -0.242129 3.458000 177 82 193
0.403557 -0.238465 3.493000 183 156 219
0.403557 -0.232351 3.493000 189 165 230
0.403557 -0.226236 3.493000 194 193 242
0.403557 -0.220122 3.493000 200 199 234
0.403557 -0.214007 3.493000 198 201 227
0.403557 -0.207893 3.493000 196 185 228
0.399513 -0.199756 3.458000 192 186 230
0.399513 -0.193703 3.458000 188 145 219
0.399513 -0.187650 3.458000 179 173 208
0.399513 -0.181597 3.458000 170 145 185
0.399513 -0.175544 3.458000 158 161 163
0.399513 -0.169490 3.458000 145 148 161
0.399513 -0.163437 3.458000 141 154 159
0.399513 -0.157384 3.458000 136 157 150
0.403557 -0.152862 3.493000 132 146 141
0.399513 -0.145277 3.458000 128 156 141
0.399513 -0.139224 3.458000 127 146 142
0.399513 -0.133171 3.458000 127 157 139
0.399513 -0.127118 3.458000 126 137 137
0.395470 -0.119839 3.423000 126 145 144
0.395470 -0.113847 3.423000 128 136 152
0.395470 -0.107855 3.423000 130 154 145
0.391657 -0.100881 3.390000 134 143 138
0.395470 -0.095871 3.423000 138 147 122
0.391657 -0.089013 3.390000 152 147 106
0.395470 -0.083887 3.423000 166 136 116
0.395470 -0.077895 3.423000 184 168 126
0.395470 -0.071903 3.423000 203 137 158
0.395470 -0.065912 3.423000 209 195 191
0.399513 -0.060532 3.458000 215 198 202
0.399513 -0.054479 3.458000 215 214 214
0.399513 -0.048426 3.458000 216 190 214
0.399513 -0.042373 3.458000 211 210 215
0.399513 -0.036319 3.458000 205 178 174
0.403557 -0.030572 3.493000 179 182 133
0.403557 -0.024458 3.493000 153 146 121
0.407600 -0.018527 3.528000 148 150 109
0.407600 -0.012351 3.528000 143 137 105
0.403557 -0.006114 3.493000 143 143 102
0.395470 -0.000000 3.423000 144 126 94
0.395470 0.005992 3.423000 145 143 87
0.395470 0.011984 3.423000 146 126 82
0.391657 0.017803 3.390000 145 141 78
0.391657 0.023737 3.390000 144 123 76
0.391657 0.029671 3.390000 142 143 74
0.391657 0.035605 3.390000 141 120 79
0.391657 0.041539 3.390000 139 136 84
0.395470 0.047936 3.423000 137 110 81
0.395470 0.053928 3.423000 136 130 79
0.395470 0.059920 3.423000 135 98 78
0.391657 0.065276 3.390000 134 129 78
0.391657 0.071210 3.390000 133 106 79
0.391657 0.077145 3.390000 132 130 81
0.391657 0.083079 3.390000 131 105 82
0.391657 0.089013 3.390000 129 128 84
0.387844 0.094023 3.357000 127 103 84
0.387844 0.099899 3.357000 124 119 85
0.387844 0.105776 3.357000 121 94 82
0.391657 0.112750 3.390000 119 112 79
0.391657 0.118684 3.390000 117 85 78
0.391657 0.124618 3.390000 114 107 78
0.391657 0.130552 3.390000 111 87 74
0.395470 0.137815 3.423000 109 101 71
0.391657 0.142421 3.390000 107 66 73
0.391657 0.148355 3.390000 105 96 75
0.391657 0.154289 3.390000 104 71 71
0.391657 0.160223 3.390000 102 93 67
0.391657 0.166157 3.390000 100 64 53
0.395470 0.173767 3.423000 99 87 39
0.395470 0.179759 3.423000 98 54 35
0.391657 0.183960 3.390000 98 82 31
0.395470 0.191743 3.423000 97 49 35
0.391657 0.195829 3.390000 95 77 39
0.391657 0.201763 3.390000 92 38 44
0.391657 0.207697 3.390000 91 66 50
0.391657 0.213631 3.390000 90 33 51
0.391657 0.219565 3.390000 88 60 52
0.391657 0.225500 3.390000 86 20 48
0.391657 0.231434 3.390000 88 58 45
0.387844 0.235057 3.357000 90 20 42
0.391657 0.243302 3.390000 88 55 39
0.391657 0.249236 3.390000 86 9 39
0.387844 0.252686 3.357000 85 51 40
0.387844 0.258563 3.357000 84 12 39
0.387844 0.264439 3.357000 83 50 38
0.387844 0.270316 3.357000 82 12 39
0.387844 0.276192 3.357000 82 48 41
0.387844 0.282069 3.357000 83 4 43
0.387844 0.287945 3.357000 81 45 45
0.387844 0.293821 3.357000 80 4 46
0.387844 0.299698 3.357000 79 42 48
0.387844 0.305574 3.357000 78 2 45
0.387844 0.311451 3.357000 79 44 42
0.387844 0.317327 3.357000 79 6 43
0.387844 0.323204 3.357000 79 42 44
0.387844 0.329080 3.357000 79 7 44
0.387844 0.334957 3.357000 77 43 45
0.384032 0.337482 3.324000 75 1 43
0.384032 0.343301 3.324000 76 42 41
0.380450 0.345864 3.293000 77 5 41
0.376869 0.348318 3.262000 75 41 41
0.376869 0.354028 3.262000 74 3 41
0.380450 0.386215 3.293000 74 42 41
0.380450 0.391979 3.293000 72 2 40
0.380450 0.397743 3.293000 72 40 40
0.380450 0.403508 3.293000 73 4 43
0.384032 0.413125 3.324000 70 41 46
0.384032 0.418944 3.324000 68 3 45
0.384032 0.424763 3.324000 69 40 44
0.391657 0.634959 3.390000 43 42 28
0.391657 0.640893 3.390000 43 51 34
0.391657 0.723972 3.390000 71 73 49
0.391657 0.729906 3.390000 43 51 23
0.384032 0.733152 3.324000 14 12 17
0.380450 0.732078 3.293000 14 9 14
0.380450 0.737843 3.293000 14 10 10
0.380450 0.743607 3.293000 11 7 7
0.380450 0.749372 3.293000 9 6 11
0.380450 0.755136 3.293000 21 16 16
0.380450 0.760900 3.293000 33 40 21
0.380450 0.766665 3.293000 44 47 26
0.380450 0.772429 3.293000 55 56 47
0.376869 0.793708 3.262000 56 51 43
0.376869 0.799419 3.262000 65 65 41
0.376869 0.805129 3.262000 72 69 40
0.376869 0.810839 3.262000 79 72 39
0.373287 0.808789 3.231000 74 70 39
0.373287 0.814445 3.231000 70 69 40
0.373287 0.820101 3.231000 65 67 42
0.376869 0.833679 3.262000 61 65 41
0.373287 0.831412 3.231000 60 61 41
0.373287 0.837068 3.231000 60 61 40
0.376869 0.850810 3.262000 61 60 39
0.380450 0.870424 3.293000 65 64 39
0.413776 -0.685510 3.528000 40 33 42
0.409671 -0.672595 3.493000 45 30 38
0.409671 -0.666480 3.493000 42 32 34
0.409671 -0.660366 3.493000 39 32 31
0.409671 -0.654251 3.493000 42 34 28
0.409671 -0.648137 3.493000 46 32 36
0.409671 -0.642022 3.493000 44 34 45
0.413776 -0.642279 3.528000 42 33 41
0.413776 -0.636104 3.528000 42 35 37
0.413776 -0.629928 3.528000 42 33 30
0.413776 -0.623752 3.528000 45 38 23
0.413776 -0.617576 3.528000 48 35 29
0.418116 -0.617813 3.565000 45 39 34
0.418116 -0.611572 3.565000 43 36 28
0.413776 -0.599049 3.528000 42 39 22
0.413776 -0.592873 3.528000 41 37 34
0.413776 -0.568170 3.528000 44 37 33
0.418116 -0.549167 3.565000 44 40 32
0.413776 -0.537291 3.528000 44 45 27
0.418116 -0.536686 3.565000 44 43 31
0.418116 -0.530445 3.565000 44 46 36
0.418116 -0.524205 3.565000 45 42 33
0.413776 -0.512588 3.528000 44 44 31
0.413776 -0.506413 3.528000 44 41 36
0.413776 -0.500237 3.528000 45 44 42
0.413776 -0.494061 3.528000 46 41 42
0.413776 -0.487885 3.528000 46 44 42
0.409671 -0.476931 3.493000 47 43 39
0.409671 -0.470816 3.493000 47 46 36
0.409671 -0.464702 3.493000 47 44 41
0.409671 -0.458587 3.493000 52 49 47
0.405566 -0.447939 3.458000 57 44 45
0.409671 -0.446358 3.493000 52 44 44
0.409671 -0.440244 3.493000 48 45 45
0.409671 -0.434129 3.493000 47 50 46
0.409671 -0.428015 3.493000 46 47 39
0.413776 -0.426128 3.528000 49 51 33
0.413776 -0.419952 3.528000 52 50 41
0.409671 -0.409671 3.493000 53 54 48
0.409671 -0.403557 3.493000 54 52 44
0.409671 -0.397442 3.493000 54 55 40
0.405566 -0.387407 3.458000 54 53 48
0.405566 -0.381353 3.458000 54 52 55
0.401461 -0.371502 3.423000 55 52 49
0.405566 -0.369247 3.458000 56 54 44
0.405566 -0.363194 3.458000 57 53 47
0.405566 -0.357140 3.458000 59 56 50
0.405566 -0.351087 3.458000 62 57 53
0.405566 -0.345034 3.458000 65 61 55
0.401461 -0.335550 3.423000 69 59 53
0.401461 -0.329558 3.423000 71 61 50
0.405566 -0.326874 3.458000 73 62 60
0.401461 -0.317574 3.423000 75 66 70
0.401461 -0.311582 3.423000 77 61 62
0.401461 -0.305590 3.423000 74 65 53
0.405566 -0.302661 3.458000 72 64 60
0.405566 -0.296608 3.458000 74 72 67
0.405566 -0.290555 3.458000 77 72 65
0.397591 -0.278907 3.390000 77 67 64
0.401461 -0.275630 3.423000 77 64 63
0.401461 -0.269638 3.423000 83 82 62
0.405566 -0.266342 3.458000 89 67 74
0.409671 -0.262923 3.493000 92 79 86
0.405566 -0.254236 3.458000 96 53 98
0.405566 -0.248182 3.458000 98 90 111
0.405566 -0.242129 3.458000 100 74 123
0.405566 -0.236076 3.458000 112 123 135
0.405566 -0.230023 3.458000 125 111 140
0.405566 -0.223969 3.458000 135 155 145
0.405566 -0.217916 3.458000 146 130 143
0.409671 -0.214007 3.493000 142 167 142
0.405566 -0.205810 3.458000 138 128 144
0.405566 -0.199756 3.458000 130 160 147
0.401461 -0.191743 3.423000 123 113 146
0.405566 -0.187650 3.458000 121 148 146
0.405566 -0.181597 3.458000 120 110 136
0.401461 -0.173767 3.423000 122 145 126
0.401461 -0.167775 3.423000 124 114 122
0.401461 -0.161783 3.423000 125 150 119
0.401461 -0.155791 3.423000 126 119 116
0.405566 -0.151331 3.458000 125 147 113
0.401461 -0.143807 3.423000 125 119 113
0.401461 -0.137815 3.423000 128 149 114
0.401461 -0.131823 3.423000 131 118 111
0.397591 -0.124618 3.390000 129 144 107
0.397591 -0.118684 3.390000 127 115 113
0.397591 -0.112750 3.390000 131 149 118
0.397591 -0.106815 3.390000 135 118 113
0.393721 -0.099899 3.357000 137 160 109
0.393721 -0.094023 3.357000 139 118 100
0.393721 -0.088146 3.357000 138 159 92
0.397591 -0.083079 3.390000 138 114 91
0.397591 -0.077144 3.390000 145 163 91
0.397591 -0.071210 3.390000 153 123 108
0.401461 -0.065912 3.423000 164 192 125
0.405566 -0.060532 3.458000 176 151 130
0.409671 -0.055030 3.493000 177 214 135
0.409671 -0.048916 3.493000 179 155 138
0.405566 -0.042373 3.458000 173 218 141
0.405566 -0.036319 3.458000 168 148 121
0.405566 -0.030266 3.458000 159 198 102
0.409671 -0.024458 3.493000 150 131 94
0.409671 -0.018343 3.493000 149 181 86
0.409671 -0.012229 3.493000 148 124 84
0.405566 -0.006053 3.458000 146 177 82
0.401461 -0.000000 3.423000 145 118 75
0.401461 0.005992 3.423000 146 169 69
0.401461 0.011984 3.423000 147 118 67
0.397591 0.017803 3.390000 147 179 64
0.397591 0.023737 3.390000 147 121 62
0.397591 0.029671 3.390000 145 182 60
0.397591 0.035605 3.390000 144 118 62
0.397591 0.041539 3.390000 141 170 64
0.397591 0.047474 3.390000 139 112 62
0.397591 0.053408 3.390000 137 167 61
0.397591 0.059342 3.390000 135 108 61
0.397591 0.065276 3.390000 134 166 61
0.393721 0.070517 3.357000 134 109 62
0.393721 0.076394 3.357000 135 166 63
0.393721 0.082270 3.357000 137 108 63
0.393721 0.088146 3.357000 134 160 62
0.393721 0.094023 3.357000 131 103 62
0.393721 0.099899 3.357000 128 150 62
0.393721 0.105776 3.357000 125 96 59
0.393721 0.111652 3.357000 119 139 57
0.397591 0.118684 3.390000 114 89 58
0.397591 0.124618 3.390000 109 132 60
0.397591 0.130552 3.390000 105 87 59
0.397591 0.136487 3.390000 103 128 57
0.397591 0.142421 3.390000 101 79 57
0.397591 0.148355 3.390000 99 120 58
0.397591 0.154289 3.390000 98 78 56
0.401461 0.161783 3.423000 95 114 55
0.401461 0.167775 3.423000 93 74 52
0.401461 0.173767 3.423000 95 112 50
0.401461 0.179759 3.423000 98 70 49
0.397591 0.183960 3.390000 92 99 48
0.397591 0.189894 3.390000 86 63 49
0.397591 0.195829 3.390000 81 98 51
0.397591 0.201763 3.390000 77 57 52
0.397591 0.207697 3.390000 74 67 54
0.397591 0.213631 3.390000 71 50 55
0.397591 0.219565 3.390000 68 62 57
0.397591 0.225500 3.390000 65 44 54
0.397591 0.231434 3.390000 66 62 51
0.397591 0.237368 3.390000 67 46 48
0.397591 0.243302 3.390000 63 65 46
0.401461 0.251662 3.423000 60 42 46
0.397591 0.255170 3.390000 58 55 46
0.397591 0.261105 3.390000 56 39 45
0.397591 0.267039 3.390000 56 51 44
0.393721 0.270316 3.357000 56 38 45
0.393721 0.276192 3.357000 55 50 45
0.393721 0.282069 3.357000 54 36 47
0.393721 0.287945 3.357000 52 47 48
0.393721 0.293821 3.357000 51 32 47
0.393721 0.299698 3.357000 48 37 46
0.393721 0.305574 3.357000 46 31 46
0.393721 0.311451 3.357000 46 39 45
0.393721 0.317327 3.357000 46 30 44
0.393721 0.323204 3.357000 46 30 44
0.393721 0.329080 3.357000 46 29 43
0.393721 0.334957 3.357000 43 35 43
0.389850 0.337482 3.324000 41 29 41
0.389850 0.343301 3.324000 42 32 40
0.386215 0.345864 3.293000 44 29 42
0.382579 0.348318 3.262000 42 33 44
0.378943 0.350664 3.231000 41 29 42
0.386215 0.386215 3.293000 40 37 43
0.386215 0.391979 3.293000 38 28 42
0.386215 0.397743 3.293000 38 26 42
0.386215 0.403508 3.293000 39 27 42
0.386215 0.409272 3.293000 34 30 43
0.386215 0.415037 3.293000 29 26 43
0.386215 0.420801 3.293000 31 27 42
0.386215 0.426565 3.293000 34 22 43
0.397591 0.634959 3.390000 64 62 33
0.397591 0.640893 3.390000 72 48 35
0.389850 0.645872 3.324000 55 52 35
0.389850 0.651690 3.324000 55 37 33
0.389850 0.657509 3.324000 54 34 32
0.389850 0.663328 3.324000 53 47 38
0.389850 0.680784 3.324000 60 50 42
0.393721 0.699295 3.357000 65 60 36
0.393721 0.705172 3.357000 69 57 41
0.393721 0.711048 3.357000 63 77 47
0.393721 0.716924 3.357000 58 55 37
0.393721 0.722801 3.357000 41 58 27
0.393721 0.728677 3.357000 24 21 21
0.393721 0.734554 3.357000 20 10 15
0.389850 0.733152 3.324000 16 10 13
0.382579 0.725187 3.262000 16 9 12
0.386215 0.737843 3.293000 17 10 10
0.382579 0.736607 3.262000 16 10 9
0.386215 0.749372 3.293000 15 10 9
0.386215 0.755136 3.293000 25 16 10
0.386215 0.760900 3.293000 35 28 16
0.386215 0.766665 3.293000 42 46 23
0.382579 0.765158 3.262000 50 46 37
0.386215 0.778194 3.293000 48 62 51
0.382579 0.776578 3.262000 46 47 44
0.382579 0.782288 3.262000 46 52 37
0.382579 0.787998 3.262000 47 40 36
0.378943 0.786166 3.231000 53 41 36
0.382579 0.799419 3.262000 59 50 39
0.382579 0.805129 3.262000 68 75 43
0.382579 0.810839 3.262000 77 59 43
0.378943 0.808789 3.231000 72 75 44
0.382579 0.822259 3.262000 68 58 44
0.378943 0.820101 3.231000 64 74 44
0.382579 0.833679 3.262000 60 56 43
0.378943 0.831412 3.231000 58 65 43
0.382579 0.845100 3.262000 56 52 43
0.382579 0.850810 3.262000 57 65 42
0.382579 0.856520 3.262000 59 54 41
0.386215 0.870424 3.293000 61 67 40
0.386215 0.876189 3.293000 64 57 43
0.415786 -0.678709 3.493000 33 27 41
0.419952 -0.679334 3.528000 39 23 38
0.419952 -0.673158 3.528000 37 28 35
0.415786 -0.660366 3.493000 36 29 27
0.419952 -0.660807 3.528000 34 30 20
0.419952 -0.654631 3.528000 33 26 27
0.419952 -0.629928 3.528000 31 26 24
0.419952 -0.623752 3.528000 36 30 13
0.419952 -0.617576 3.528000 41 24 20
0.419952 -0.611401 3.528000 40 31 28
0.419952 -0.605225 3.528000 39 29 18
0.419952 -0.599049 3.528000 35 33 9
0.437926 -0.618249 3.679000 32 30 23
0.428760 -0.554866 3.602000 34 34 25
0.424356 -0.542926 3.565000 38 39 16
0.428760 -0.542256 3.602000 42 36 25
0.433284 -0.541605 3.640000 42 38 35
0.428760 -0.529645 3.602000 42 34 27
0.424356 -0.517964 3.565000 42 36 20
0.424356 -0.511724 3.565000 42 34 31
0.424356 -0.505483 3.565000 39 37 43
0.419952 -0.494061 3.528000 37 35 40
0.419952 -0.487885 3.528000 41 39 38
0.419952 -0.481710 3.528000 44 39 33
0.419952 -0.475534 3.528000 41 41 29
0.419952 -0.469358 3.528000 38 40 37
0.415786 -0.458587 3.493000 43 42 45
0.411620 -0.387407 3.458000 47 47 40
0.411620 -0.381353 3.458000 50 48 52
0.407453 -0.371502 3.423000 53 46 43
0.403525 -0.361986 3.390000 51 48 34
0.411620 -0.363194 3.458000 49 47 41
0.411620 -0.320821 3.458000 61 50 66
0.411620 -0.314768 3.458000 63 40 58
0.415786 -0.262923 3.493000 69 47 73
0.411620 -0.254236 3.458000 70 4 64
0.411620 -0.248182 3.458000 68 29 55
0.415786 -0.244580 3.493000 66 1 53
0.415786 -0.238465 3.493000 69 32 51
0.411620 -0.230023 3.458000 73 1 49
0.411620 -0.223969 3.458000 74 39 48
0.411620 -0.217916 3.458000 76 1 52
0.411620 -0.211863 3.458000 75 42 57
0.411620 -0.205810 3.458000 75 1 60
0.407453 -0.197735 3.423000 78 44 64
0.407453 -0.191743 3.423000 81 1 74
0.407453 -0.185751 3.423000 84 49 84
0.407453 -0.179759 3.423000 88 4 86
0.407453 -0.173767 3.423000 89 52 89
0.407453 -0.167775 3.423000 90 13 84
0.407453 -0.161783 3.423000 89 60 79
0.407453 -0.155791 3.423000 88 22 82
0.407453 -0.149799 3.423000 88 62 85
0.407453 -0.143807 3.423000 88 27 86
0.407453 -0.137815 3.423000 89 61 87
0.407453 -0.131823 3.423000 91 25 82
0.403525 -0.112750 3.390000 94 57 85
0.403525 -0.106815 3.390000 92 10 82
0.399597 -0.099899 3.357000 97 60 80
0.399597 -0.094023 3.357000 102 8 79
0.399597 -0.088146 3.357000 99 54 79
0.403525 -0.083079 3.390000 96 1 67
0.403525 -0.077144 3.390000 96 52 56
0.403525 -0.071210 3.390000 97 1 57
0.407453 -0.065912 3.423000 100 51 59
0.411620 -0.060532 3.458000 102 1 58
0.411620 -0.054479 3.458000 102 58 57
0.411620 -0.048426 3.458000 101 1 62
0.407453 -0.041944 3.423000 102 56 68
0.407453 -0.035952 3.423000 103 1 69
0.407453 -0.029960 3.423000 99 57 71
0.411620 -0.024213 3.458000 96 1 67
0.411620 -0.018160 3.458000 96 54 63
0.411620 -0.012106 3.458000 96 1 62
0.407453 -0.005992 3.423000 93 53 62
0.403525 -0.000000 3.390000 90 1 57
0.403525 0.005934 3.390000 90 50 52
0.403525 0.011869 3.390000 89 1 51
0.403525 0.017803 3.390000 88 50 51
0.403525 0.023737 3.390000 86 1 49
0.403525 0.029671 3.390000 84 50 47
0.403525 0.035605 3.390000 83 1 46
0.403525 0.041539 3.390000 81 49 45
0.403525 0.047474 3.390000 80 1 44
0.403525 0.053408 3.390000 80 47 43
0.399597 0.058764 3.357000 81 1 44
0.399597 0.064641 3.357000 79 47 45
0.399597 0.070517 3.357000 78 1 45
0.399597 0.076394 3.357000 79 47 46
0.395669 0.081461 3.324000 79 1 43
0.399597 0.088146 3.357000 79 45 41
0.399597 0.094023 3.357000 78 1 40
0.399597 0.099899 3.357000 77 45 39
0.399597 0.105776 3.357000 77 1 37
0.399597 0.111652 3.357000 76 42 35
0.399597 0.117529 3.357000 75 1 39
0.399597 0.123405 3.357000 72 41 43
0.399597 0.129281 3.357000 69 1 43
0.403525 0.136487 3.390000 68 41 44
0.403525 0.142421 3.390000 67 3 42
0.403525 0.148355 3.390000 67 41 41
0.403525 0.154289 3.390000 67 8 42
0.403525 0.160223 3.390000 64 39 43
0.407453 0.167775 3.423000 62 9 52
0.407453 0.173767 3.423000 63 42 61
0.407453 0.179759 3.423000 65 18 63
0.403525 0.183960 3.390000 62 37 65
0.403525 0.189894 3.390000 59 9 64
0.403525 0.195829 3.390000 61 40 63
0.403525 0.201763 3.390000 64 25 61
0.399597 0.205675 3.357000 63 40 59
0.399597 0.211552 3.357000 62 38 60
0.399597 0.217428 3.357000 60 42 62
0.399597 0.223304 3.357000 57 33 59
0.399597 0.229181 3.357000 58 41 57
0.399597 0.235057 3.357000 59 37 55
0.403525 0.243302 3.390000 56 43 53
0.403525 0.249236 3.390000 53 39 52
0.399597 0.252686 3.357000 52 41 52
0.399597 0.258563 3.357000 51 39 51
0.399597 0.264439 3.357000 51 40 51
0.399597 0.270316 3.357000 51 39 50
0.399597 0.276192 3.357000 51 40 50
0.399597 0.282069 3.357000 50 44 51
0.399597 0.287945 3.357000 49 42 52
0.399597 0.293821 3.357000 47 43 48
0.395669 0.296752 3.324000 46 42 45
0.395669 0.302570 3.324000 46 49 47
0.399597 0.311451 3.357000 45 43 49
0.399597 0.317327 3.357000 45 45 46
0.399597 0.323204 3.357000 44 37 44
0.399597 0.329080 3.357000 44 45 42
0.399597 0.334957 3.357000 43 41 41
0.395669 0.337482 3.324000 42 48 40
0.395669 0.343301 3.324000 43 42 39
0.391979 0.345864 3.293000 45 47 43
0.388289 0.348318 3.262000 44 41 47
0.388289 0.354028 3.262000 43 48 44
0.388289 0.359738 3.262000 42 43 42
0.388289 0.365449 3.262000 41 50 41
0.391979 0.374686 3.293000 42 44 40
0.391979 0.380450 3.293000 43 51 42
0.395669 0.389850 3.324000 42 44 45
0.395669 0.395669 3.324000 41 47 44
0.391979 0.397743 3.293000 41 40 44
0.391979 0.403508 3.293000 42 49 42
0.391979 0.409272 3.293000 39 41 41
0.391979 0.415037 3.293000 36 47 41
0.391979 0.420801 3.293000 38 39 41
0.395669 0.430581 3.324000 39 46 42
0.395669 0.436400 3.324000 39 34 44
0.399597 0.446609 3.357000 39 41 41
0.395669 0.622597 3.324000 51 34 38
0.395669 0.628416 3.324000 54 24 36
0.391979 0.628319 3.293000 50 29 34
0.395669 0.640053 3.324000 46 18 32
0.395669 0.645872 3.324000 46 26 31
0.395669 0.651690 3.324000 46 22 28
0.395669 0.657509 3.324000 45 20 26
0.395669 0.663328 3.324000 45 11 19
0.395669 0.680784 3.324000 49 22 34
0.395669 0.686602 3.324000 51 12 35
0.395669 0.692421 3.324000 54 24 36
0.395669 0.698240 3.324000 57 12 27
0.395669 0.704058 3.324000 52 28 19
0.399597 0.716924 3.357000 47 12 25
0.395669 0.715696 3.324000 34 22 32
0.395669 0.721514 3.324000 21 8 21
0.391979 0.720550 3.293000 18 11 10
0.391979 0.726314 3.293000 16 12 10
0.388289 0.725187 3.262000 15 11 10
0.388289 0.730897 3.262000 14 12 10
0.388289 0.736607 3.262000 15 10 11
0.391979 0.749372 3.293000 16 10 7
0.391979 0.755136 3.293000 22 12 4
0.391979 0.760900 3.293000 28 11 12
0.395669 0.773882 3.324000 33 24 20
0.391979 0.772429 3.293000 38 20 27
0.395669 0.785520 3.324000 34 29 35
0.391979 0.783958 3.293000 30 16 37
0.388289 0.782288 3.262000 34 27 40
0.388289 0.787998 3.262000 38 22 35
0.388289 0.793708 3.262000 44 26 30
0.388289 0.799419 3.262000 49 21 38
0.388289 0.805129 3.262000 48 32 46
0.388289 0.810839 3.262000 47 17 47
0.388289 0.816549 3.262000 49 30 49
0.388289 0.822259 3.262000 51 14 47
0.388289 0.827969 3.262000 49 31 46
0.388289 0.833679 3.262000 47 22 46
0.384599 0.831412 3.231000 45 31 46
0.384599 0.837068 3.231000 44 18 46
0.384599 0.842724 3.231000 46 31 46
0.384599 0.848380 3.231000 48 22 43
0.388289 0.862230 3.262000 49 31 41
0.388289 0.867940 3.262000 51 21 45
0.384599 0.865348 3.231000 52 34 49
0.388289 0.879360 3.262000 52 24 47
0.426128 -0.685510 3.528000 27 30 42
0.426128 -0.679334 3.528000 33 30 41
0.426128 -0.673158 3.528000 33 30 41
0.426128 -0.660807 3.528000 27 34 32
0.426128 -0.654631 3.528000 21 34 35
0.430597 -0.542926 3.565000 32 42 33
0.439656 -0.541605 3.640000 40 37 42
0.426128 -0.469358 3.528000 30 41 44
0.426128 -0.463182 3.528000 35 40 48
0.413445 -0.377494 3.423000 45 49 49
0.409459 -0.367920 3.390000 51 45 47
0.417673 -0.254236 3.458000 44 23 72
0.417673 -0.248182 3.458000 38 24 85
0.417673 -0.242129 3.458000 33 7 85
0.421900 -0.238465 3.493000 27 3 85
0.417673 -0.230023 3.458000 21 1 88
0.417673 -0.223969 3.458000 13 1 91
0.413445 -0.179759 3.423000 57 24 73
0.409459 -0.172092 3.390000 56 49 68
0.413445 -0.167775 3.423000 56 30 67
0.413445 -0.161783 3.423000 53 55 66
0.413445 -0.155791 3.423000 50 41 72
0.413445 -0.149799 3.423000 50 54 79
0.413445 -0.143807 3.423000 51 42 80
0.405474 -0.105776 3.357000 50 38 75
0.405474 -0.099899 3.357000 58 62 69
0.405474 -0.094023 3.357000 66 33 67
0.405474 -0.088146 3.357000 60 50 66
0.409459 -0.083079 3.390000 54 24 50
0.409459 -0.077144 3.390000 48 44 35
0.409459 -0.071210 3.390000 42 14 39
0.409459 -0.065276 3.390000 35 11 43
0.413445 -0.059920 3.423000 29 8 39
0.417673 -0.054479 3.458000 26 19 35
0.417673 -0.048426 3.458000 24 6 40
0.413445 -0.041944 3.423000 31 4 44
0.413445 -0.035952 3.423000 39 8 44
0.413445 -0.029960 3.423000 40 28 45
0.413445 -0.023968 3.423000 42 18 50
0.417673 -0.018160 3.458000 43 33 55
0.417673 -0.012106 3.458000 44 26 56
0.413445 -0.005992 3.423000 40 35 57
0.409459 -0.000000 3.390000 36 25 51
0.409459 0.005934 3.390000 34 30 46
0.405474 0.011753 3.357000 32 20 45
0.405474 0.017629 3.357000 29 19 44
0.405474 0.023506 3.357000 26 17 42
0.405474 0.029382 3.357000 24 19 40
0.405474 0.035259 3.357000 22 18 38
0.405474 0.041135 3.357000 22 24 37
0.405474 0.047012 3.357000 22 19 37
0.405474 0.052888 3.357000 24 22 38
0.405474 0.058764 3.357000 27 18 36
0.405474 0.064641 3.357000 25 20 35
0.401488 0.069824 3.324000 23 17 37
0.405474 0.076394 3.357000 22 20 39
0.405474 0.082270 3.357000 22 17 37
0.405474 0.088146 3.357000 24 21 36
0.405474 0.094023 3.357000 26 20 36
0.405474 0.099899 3.357000 27 30 36
0.405474 0.105776 3.357000 29 22 32
0.405474 0.111652 3.357000 33 27 28
0.405474 0.117529 3.357000 37 21 34
0.405474 0.123405 3.357000 35 30 41
0.405474 0.129281 3.357000 34 23 39
0.405474 0.135158 3.357000 34 33 38
0.405474 0.141034 3.357000 34 25 37
0.409459 0.148355 3.390000 35 35 36
0.409459 0.154289 3.390000 37 25 37
0.409459 0.160223 3.390000 34 26 37
0.409459 0.166157 3.390000 31 23 42
0.409459 0.172092 3.390000 31 32 46
0.409459 0.178026 3.390000 32 27 45
0.409459 0.183960 3.390000 32 24 43
0.409459 0.189894 3.390000 32 23 50
0.409459 0.195829 3.390000 42 29 56
0.409459 0.201763 3.390000 52 30 55
0.405474 0.205675 3.357000 53 31 54
0.405474 0.211552 3.357000 54 35 45
0.405474 0.217428 3.357000 52 36 35
0.405474 0.223304 3.357000 50 33 42
0.405474 0.229181 3.357000 50 32 49
0.401488 0.232747 3.324000 51 32 47
0.405474 0.240934 3.357000 49 33 45
0.405474 0.246810 3.357000 47 34 46
0.405474 0.252686 3.357000 47 34 47
0.405474 0.258563 3.357000 47 34 46
0.405474 0.264439 3.357000 47 34 45
0.405474 0.270316 3.357000 47 33 43
0.405474 0.276192 3.357000 47 30 41
0.405474 0.282069 3.357000 47 35 37
0.405474 0.287945 3.357000 45 36 34
0.405474 0.293821 3.357000 44 36 37
0.401488 0.296752 3.324000 45 39 41
0.401488 0.302570 3.324000 46 39 42
0.405474 0.311451 3.357000 45 39 44
0.405474 0.317327 3.357000 44 35 42
0.405474 0.323204 3.357000 43 31 40
0.405474 0.329080 3.357000 43 35 39
0.405474 0.334957 3.357000 43 39 39
0.401488 0.337482 3.324000 43 39 33
0.401488 0.343301 3.324000 44 41 26
0.397743 0.345864 3.293000 46 39 32
0.393999 0.348318 3.262000 46 39 38
0.390255 0.350664 3.231000 46 39 35
0.393999 0.359738 3.262000 45 41 31
0.393999 0.365449 3.262000 45 40 34
0.393999 0.371159 3.262000 45 42 37
0.397743 0.380450 3.293000 45 41 38
0.401488 0.389850 3.324000 44 42 39
0.397743 0.391979 3.293000 44 38 39
0.397743 0.397743 3.293000 44 40 39
0.397743 0.403508 3.293000 45 38 39
0.397743 0.409272 3.293000 44 39 39
0.397743 0.415037 3.293000 44 37 37
0.397743 0.420801 3.293000 44 39 36
0.401488 0.430581 3.324000 45 36 37
0.401488 0.436400 3.324000 44 38 38
0.401488 0.442218 3.324000 44 35 36
0.397743 0.616791 3.293000 38 20 29
0.397743 0.622555 3.293000 37 20 27
0.397743 0.628319 3.293000 37 17 25
0.397743 0.634084 3.293000 37 18 24
0.397743 0.639848 3.293000 37 15 23
0.397743 0.645613 3.293000 37 18 22
0.401488 0.657509 3.324000 37 14 21
0.401488 0.663328 3.324000 38 15 16
0.397743 0.662906 3.293000 38 14 12
0.397743 0.668670 3.293000 38 16 18
0.397743 0.674435 3.293000 39 17 24
0.397743 0.680199 3.293000 40 16 24
0.397743 0.685963 3.293000 42 14 25
0.397743 0.691728 3.293000 45 16 22
0.397743 0.697492 3.293000 41 14 20
0.401488 0.709877 3.324000 37 14 22
0.397743 0.709021 3.293000 27 10 23
0.397743 0.714785 3.293000 18 12 18
0.397743 0.720550 3.293000 17 14 12
0.393999 0.719477 3.262000 17 14 12
0.393999 0.725187 3.262000 14 12 12
0.397743 0.737843 3.293000 12 13 12
0.397743 0.743607 3.293000 14 11 12
0.397743 0.749372 3.293000 17 13 10
0.401488 0.762245 3.324000 19 14 9
0.401488 0.768064 3.324000 21 17 14
0.401488 0.773882 3.324000 23 21 19
0.401488 0.779701 3.324000 26 21 23
0.401488 0.785520 3.324000 20 20 27
0.401488 0.791338 3.324000 14 20 30
0.397743 0.789723 3.293000 22 18 33
0.397743 0.795487 3.293000 30 22 31
0.393999 0.793708 3.262000 35 22 30
0.393999 0.799419 3.262000 40 21 32
0.393999 0.805129 3.262000 29 16 34
0.393999 0.810839 3.262000 18 19 37
0.393999 0.816549 3.262000 26 14 40
0.393999 0.822259 3.262000 35 16 39
0.393999 0.827969 3.262000 34 14 38
0.393999 0.833679 3.262000 34 20 38
0.390255 0.831412 3.231000 33 19 38
0.390255 0.837068 3.231000 33 21 38
0.390255 0.842724 3.231000 35 20 38
0.390255 0.848380 3.231000 37 22 35
0.390255 0.854036 3.231000 38 17 33
0.390255 0.859692 3.231000 39 21 36
0.390255 0.865348 3.231000 39 18 39
0.390255 0.871004 3.231000 40 20 38
0.390255 0.876659 3.231000 30 13 37
0.432304 -0.537291 3.528000 44 43 51
0.415394 -0.373854 3.390000 49 36 46
0.428015 -0.238465 3.493000 101 8 120
0.423726 -0.230023 3.458000 102 1 127
0.423726 -0.223969 3.458000 98 30 134
0.415394 -0.178026 3.390000 59 1 60
0.415394 -0.172092 3.390000 60 13 48
0.419437 -0.167775 3.423000 61 3 51
0.419437 -0.149799 3.423000 61 33 73
0.407306 -0.087280 3.324000 51 16 53
0.411350 -0.082270 3.357000 50 3 33
0.415394 -0.077144 3.390000 45 12 14
0.411350 -0.070517 3.357000 41 1 21
0.415394 -0.065276 3.390000 37 3 28
0.419437 -0.059920 3.423000 34 1 21
0.423726 -0.054479 3.458000 27 5 14
0.423726 -0.048426 3.458000 20 1 17
0.419437 -0.041944 3.423000 21 1 21
0.419437 -0.035952 3.423000 22 1 20
0.419437 -0.029960 3.423000 22 10 19
0.419437 -0.023968 3.423000 23 12 33
0.423726 -0.018160 3.458000 30 20 47
0.419437 -0.011984 3.423000 37 37 49
0.419437 -0.005992 3.423000 33 27 52
0.415394 -0.000000 3.390000 29 37 46
0.415394 0.023737 3.390000 25 30 36
0.415394 0.029671 3.390000 22 20 34
0.415394 0.035605 3.390000 20 30 31
0.411350 0.041135 3.357000 19 21 29
0.411350 0.047012 3.357000 19 30 31
0.411350 0.052888 3.357000 21 20 33
0.411350 0.058764 3.357000 23 30 29
0.411350 0.064641 3.357000 22 20 26
0.407306 0.069824 3.324000 21 29 29
0.411350 0.076394 3.357000 20 19 33
0.411350 0.082270 3.357000 19 26 32
0.415394 0.089013 3.390000 21 19 31
0.415394 0.094947 3.390000 23 29 32
0.411350 0.099899 3.357000 23 22 33
0.411350 0.105776 3.357000 23 30 27
0.411350 0.111652 3.357000 26 21 21
0.411350 0.117529 3.357000 29 27 30
0.411350 0.123405 3.357000 29 22 39
0.407306 0.128011 3.324000 30 30 35
0.411350 0.135158 3.357000 27 23 32
0.411350 0.141034 3.357000 25 31 32
0.411350 0.146911 3.357000 29 25 32
0.415394 0.154289 3.390000 32 33 32
0.415394 0.160223 3.390000 30 22 32
0.415394 0.166157 3.390000 28 28 32
0.415394 0.172092 3.390000 27 30 32
0.415394 0.178026 3.390000 26 36 27
0.415394 0.183960 3.390000 27 30 22
0.415394 0.189894 3.390000 28 33 36
0.415394 0.195829 3.390000 34 34 50
0.415394 0.201763 3.390000 41 36 50
0.411350 0.205675 3.357000 42 36 50
0.411350 0.211552 3.357000 43 37 29
0.411350 0.217428 3.357000 45 37 9
0.411350 0.223304 3.357000 46 34 25
0.411350 0.229181 3.357000 47 34 41
0.407306 0.232747 3.324000 49 29 39
0.411350 0.240934 3.357000 47 33 38
0.411350 0.246810 3.357000 45 31 40
0.411350 0.252686 3.357000 41 33 43
0.411350 0.258563 3.357000 38 31 41
0.411350 0.264439 3.357000 41 33 39
0.407306 0.267659 3.324000 44 30 35
0.407306 0.273477 3.324000 44 31 32
0.407306 0.279296 3.324000 43 31 24
0.407306 0.285115 3.324000 43 33 16
0.407306 0.290933 3.324000 42 29 27
0.407306 0.296752 3.324000 39 32 38
0.407306 0.302570 3.324000 35 29 38
0.411350 0.311451 3.357000 37 32 39
0.415394 0.320447 3.390000 39 27 37
0.411350 0.323204 3.357000 39 29 36
0.411350 0.329080 3.357000 40 28 37
0.411350 0.334957 3.357000 39 32 38
0.411350 0.340833 3.357000 38 30 26
0.407306 0.343301 3.324000 39 33 14
0.403508 0.345864 3.293000 40 29 22
0.403508 0.351628 3.293000 38 32 30
0.395911 0.350664 3.231000 36 30 25
0.399709 0.359738 3.262000 37 33 21
0.399709 0.365449 3.262000 39 30 28
0.399709 0.393999 3.262000 40 29 34
0.399709 0.399709 3.262000 40 26 36
0.399709 0.405419 3.262000 38 28 38
0.399709 0.411130 3.262000 37 26 34
0.399709 0.416840 3.262000 37 27 31
0.403508 0.426565 3.293000 38 23 31
0.403508 0.432330 3.293000 34 27 32
0.403508 0.438094 3.293000 30 26 31
0.403508 0.443859 3.293000 34 27 30
0.399709 0.610984 3.262000 31 19 21
0.399709 0.616694 3.262000 31 21 18
0.399709 0.622404 3.262000 31 20 16
0.399709 0.628115 3.262000 31 24 16
0.399709 0.633825 3.262000 31 19 16
0.399709 0.639535 3.262000 31 22 16
0.403508 0.651377 3.293000 30 19 16
0.399709 0.650955 3.262000 30 22 14
0.403508 0.662906 3.293000 30 19 12
0.403508 0.668670 3.293000 30 21 13
0.403508 0.674435 3.293000 31 21 14
0.399709 0.673796 3.262000 33 22 14
0.399709 0.679506 3.262000 34 20 14
0.399709 0.685216 3.262000 35 25 18
0.403508 0.697492 3.293000 33 20 22
0.403508 0.703257 3.293000 31 21 18
0.399709 0.702346 3.262000 25 17 15
0.399709 0.708056 3.262000 19 17 15
0.399709 0.713767 3.262000 19 18 15
0.399709 0.719477 3.262000 19 20 14
0.403508 0.732078 3.293000 17 17 14
0.403508 0.737843 3.293000 15 20 14
0.403508 0.743607 3.293000 19 17 14
0.407306 0.756426 3.324000 22 19 14
0.407306 0.762245 3.324000 22 18 14
0.407306 0.768064 3.324000 22 22 16
0.407306 0.773882 3.324000 26 22 18
0.403508 0.772429 3.293000 30 26 19
0.407306 0.785520 3.324000 24 23 20
0.403508 0.783958 3.293000 18 26 23
0.403508 0.789723 3.293000 23 22 26
0.399709 0.787998 3.262000 27 26 28
0.399709 0.793708 3.262000 33 24 31
0.399709 0.799419 3.262000 39 27 27
0.399709 0.805129 3.262000 30 24 23
0.399709 0.810839 3.262000 22 31 27
0.399709 0.816549 3.262000 28 23 31
0.399709 0.822259 3.262000 33 24 30
0.399709 0.827969 3.262000 31 22 30
0.395911 0.825757 3.231000 30 26 30
0.395911 0.831412 3.231000 29 24 30
0.395911 0.837068 3.231000 29 28 30
0.392235 0.834899 3.201000 30 25 31
0.392235 0.840503 3.201000 31 30 28
0.392235 0.846106 3.201000 32 25 25
0.392235 0.851710 3.201000 34 29 27
0.392235 0.857313 3.201000 34 23 30
0.395911 0.871004 3.231000 35 25 29
0.395911 0.882315 3.231000 27 29 28
0.429779 -0.230023 3.458000 183 97 190
0.429779 -0.223969 3.458000 183 104 194
0.425429 -0.029960 3.423000 5 1 102
0.425429 -0.023968 3.423000 4 51 103
0.421328 0.029671 3.390000 21 1 80
0.417226 0.035259 3.357000 18 43 78
0.417226 0.041135 3.357000 17 1 76
0.417226 0.047012 3.357000 17 42 78
0.417226 0.052888 3.357000 18 1 79
0.417226 0.058764 3.357000 19 39 75
0.417226 0.064641 3.357000 19 1 72
0.413125 0.069824 3.324000 20 39 73
0.417226 0.076394 3.357000 18 1 75
0.417226 0.082270 3.357000 17 37 71
0.421328 0.089013 3.390000 19 1 68
0.421328 0.094947 3.390000 21 37 68
0.417226 0.099899 3.357000 19 1 68
0.417226 0.105776 3.357000 17 34 64
0.417226 0.111652 3.357000 19 1 60
0.417226 0.117529 3.357000 22 31 67
0.417226 0.123405 3.357000 24 1 74
0.413125 0.128011 3.324000 26 31 72
0.417226 0.141034 3.357000 17 28 67
0.417226 0.146911 3.357000 22 1 63
0.421328 0.154289 3.390000 28 28 62
0.421328 0.160223 3.390000 27 1 62
0.421328 0.166157 3.390000 26 31 60
0.421328 0.172092 3.390000 23 26 59
0.421328 0.178026 3.390000 21 32 50
0.421328 0.183960 3.390000 22 27 41
0.421328 0.189894 3.390000 24 31 47
0.421328 0.195829 3.390000 27 39 53
0.417226 0.199799 3.357000 30 31 51
0.417226 0.205675 3.357000 31 42 49
0.417226 0.211552 3.357000 33 36 38
0.417226 0.217428 3.357000 38 41 27
0.417226 0.240934 3.357000 45 39 32
0.417226 0.246810 3.357000 43 34 33
0.417226 0.258563 3.357000 30 33 32
0.413125 0.261840 3.324000 36 40 30
0.413125 0.267659 3.324000 42 31 28
0.413125 0.273477 3.324000 41 36 26
0.413125 0.279296 3.324000 40 29 21
0.409272 0.282456 3.293000 40 37 16
0.413125 0.290933 3.324000 41 28 20
0.413125 0.296752 3.324000 33 33 24
0.417226 0.305574 3.357000 25 27 25
0.425429 0.317574 3.423000 29 35 26
0.427045 0.324795 3.436000 34 26 25
0.424311 0.328692 3.414000 35 30 24
0.417226 0.329080 3.357000 37 26 25
0.417226 0.334957 3.357000 35 34 26
0.417226 0.340833 3.357000 34 28 20
0.413125 0.343301 3.324000 34 34 14
0.409272 0.345864 3.293000 35 27 18
0.409272 0.351628 3.293000 30 30 22
0.405419 0.354028 3.262000 26 27 19
0.405419 0.393999 3.262000 36 27 22
0.405419 0.399709 3.262000 36 22 30
0.405419 0.405419 3.262000 33 23 39
0.405419 0.411130 3.262000 30 21 39
0.409272 0.420801 3.293000 31 23 39
0.409272 0.426565 3.293000 32 21 38
0.409272 0.432330 3.293000 24 21 38
0.413125 0.442218 3.324000 17 21 36
0.409272 0.443859 3.293000 23 22 35
0.405419 0.622404 3.262000 25 19 16
0.405419 0.628115 3.262000 26 18 16
0.405419 0.633825 3.262000 25 17 16
0.405419 0.639535 3.262000 25 19 16
0.405419 0.645245 3.262000 23 21 17
0.405419 0.650955 3.262000 22 19 12
0.405419 0.656665 3.262000 22 20 8
0.409272 0.668670 3.293000 23 21 12
0.405419 0.668085 3.262000 24 26 16
0.405419 0.673796 3.262000 26 21 13
0.401567 0.673048 3.231000 26 22 11
0.405419 0.685216 3.262000 26 21 15
0.405419 0.690926 3.262000 25 21 19
0.405419 0.696636 3.262000 25 19 14
0.405419 0.702346 3.262000 23 21 9
0.405419 0.708056 3.262000 21 19 12
0.405419 0.713767 3.262000 21 21 16
0.405419 0.719477 3.262000 22 19 13
0.409272 0.732078 3.293000 20 18 11
0.409272 0.737843 3.293000 19 18 13
0.405419 0.736607 3.262000 23 20 15
0.413125 0.756426 3.324000 28 18 13
0.413125 0.762245 3.324000 25 19 11
0.413125 0.768064 3.324000 23 19 14
0.413125 0.773882 3.324000 28 19 17
0.405419 0.765158 3.262000 34 20 16
0.405419 0.770868 3.262000 28 22 14
0.405419 0.776578 3.262000 23 22 17
0.405419 0.782288 3.262000 24 20 21
0.401567 0.780510 3.231000 25 20 23
0.401567 0.786166 3.231000 31 22 26
0.401567 0.791821 3.231000 38 22 21
0.405419 0.805129 3.262000 32 25 16
0.405419 0.810839 3.262000 27 24 21
0.401567 0.808789 3.231000 29 24 26
0.405419 0.822259 3.262000 32 22 27
0.401567 0.820101 3.231000 29 26 28
0.401567 0.825757 3.231000 26 23 24
0.397838 0.823693 3.201000 26 26 19
0.394234 0.821783 3.172000 26 23 22
0.394234 0.827335 3.172000 26 24 26
0.394234 0.832888 3.172000 26 24 24
0.394234 0.838441 3.172000 27 26 23
0.394234 0.843993 3.172000 29 23 25
0.394234 0.849546 3.172000 29 23 27
0.435832 -0.223969 3.458000 218 216 254
0.423103 0.035259 3.357000 87 143 125
0.418944 0.040731 3.324000 85 100 124
0.418944 0.046549 3.324000 83 138 125
0.423103 0.052888 3.357000 81 90 126
0.423103 0.058764 3.357000 79 127 122
0.418944 0.064005 3.324000 79 87 118
0.415036 0.069173 3.293000 78 126 118
0.423103 0.076394 3.357000 76 83 118
0.423103 0.082270 3.357000 74 121 111
0.423103 0.088146 3.357000 73 80 105
0.423103 0.094023 3.357000 73 117 104
0.423103 0.099899 3.357000 70 74 103
0.423103 0.105776 3.357000 67 105 101
0.423103 0.111652 3.357000 67 65 99
0.427262 0.160223 3.390000 61 41 92
0.427262 0.166157 3.390000 59 70 89
0.427262 0.172092 3.390000 56 38 87
0.427262 0.178026 3.390000 53 39 73
0.427262 0.183960 3.390000 53 26 60
0.427262 0.189894 3.390000 54 28 58
0.423103 0.193922 3.357000 54 19 57
0.423103 0.199799 3.357000 55 10 52
0.418944 0.261840 3.324000 37 20 22
0.411129 0.268376 3.262000 35 17 20
0.415036 0.276691 3.293000 32 15 18
0.415036 0.282456 3.293000 32 17 16
0.418944 0.290933 3.324000 33 15 13
0.423103 0.299698 3.357000 28 15 11
0.440244 0.324068 3.493000 25 15 14
0.438857 0.329143 3.482000 27 14 13
0.437471 0.334179 3.471000 27 14 13
0.411129 0.405419 3.262000 25 13 40
0.411129 0.411130 3.262000 23 15 44
0.415036 0.420801 3.293000 24 16 48
0.415036 0.426565 3.293000 25 17 46
0.415036 0.432330 3.293000 20 16 44
0.415036 0.438094 3.293000 16 17 42
0.415036 0.443859 3.293000 20 15 40
0.407222 0.616490 3.231000 24 17 16
0.411129 0.628115 3.262000 25 14 16
0.411129 0.633825 3.262000 24 17 16
0.411129 0.639535 3.262000 23 18 17
0.411129 0.645245 3.262000 20 19 18
0.411129 0.650955 3.262000 18 16 11
0.411129 0.662375 3.262000 21 18 11
0.411129 0.668085 3.262000 20 20 18
0.407222 0.667392 3.231000 20 17 13
0.407222 0.673048 3.231000 21 18 9
0.407222 0.678704 3.231000 22 18 12
0.411129 0.690926 3.262000 22 17 16
0.411129 0.696636 3.262000 21 14 10
0.411129 0.702346 3.262000 18 17 4
0.407222 0.701328 3.231000 16 17 10
0.407222 0.706983 3.231000 18 18 17
0.407222 0.712639 3.231000 21 18 13
0.411129 0.725187 3.262000 20 16 9
0.415036 0.737843 3.293000 19 15 13
0.411129 0.736607 3.262000 20 16 17
0.418944 0.756426 3.324000 20 15 13
0.418944 0.762245 3.324000 20 17 9
0.418944 0.768064 3.324000 20 18 13
0.418944 0.773882 3.324000 23 17 17
0.415036 0.772429 3.293000 27 16 13
0.415036 0.778194 3.293000 23 18 9
0.411129 0.776578 3.262000 19 21 12
0.411129 0.782288 3.262000 18 17 16
0.407222 0.780510 3.231000 18 14 19
0.407222 0.786166 3.231000 22 16 22
0.407222 0.791821 3.231000 26 16 15
0.411129 0.805129 3.262000 23 17 9
0.411129 0.810839 3.262000 21 17 15
0.407222 0.808789 3.231000 23 17 22
0.396131 0.814270 3.143000 19 16 15
0.396131 0.825273 3.143000 20 17 21
0.392602 0.823374 3.115000 22 18 21
0.396131 0.836277 3.143000 24 17 23
0.396131 0.841779 3.143000 24 16 25
0.428979 0.035259 3.357000 156 152 160
0.424762 0.064005 3.324000 138 94 151
0.420801 0.069173 3.293000 137 125 151
0.428979 0.076394 3.357000 134 85 150
0.428979 0.082270 3.357000 131 120 146
0.428979 0.088146 3.357000 128 84 142
0.433196 0.189894 3.390000 84 48 100
0.424762 0.290933 3.324000 25 35 60
0.428979 0.299698 3.357000 23 1 59
0.446358 0.324068 3.493000 20 1 56
0.450831 0.333491 3.528000 20 33 55
0.450831 0.339667 3.528000 18 1 54
0.412878 0.407222 3.231000 17 27 49
0.416840 0.416840 3.262000 18 12 48
0.420801 0.426565 3.293000 19 26 50
0.420801 0.432330 3.293000 17 10 53
0.416840 0.433970 3.262000 15 26 48
0.416840 0.439680 3.262000 16 8 43
0.412878 0.616490 3.231000 22 20 14
0.416840 0.628115 3.262000 25 15 14
0.416840 0.639535 3.262000 21 17 22
0.416840 0.668085 3.262000 16 20 31
0.412878 0.667392 3.231000 14 18 30
0.412878 0.673048 3.231000 16 18 28
0.412878 0.678704 3.231000 19 16 29
0.416840 0.690926 3.262000 18 16 29
0.416840 0.696636 3.262000 18 14 26
0.416840 0.702346 3.262000 14 17 24
0.412878 0.701328 3.231000 11 17 21
0.412878 0.706983 3.231000 16 17 19
0.412878 0.712639 3.231000 21 16 19
0.416840 0.725187 3.262000 20 14 19
0.416840 0.730897 3.262000 20 15 19
0.412878 0.729607 3.231000 16 14 19
0.416840 0.742317 3.262000 13 15 15
0.424762 0.762245 3.324000 15 16 11
0.428979 0.775689 3.357000 17 17 15
0.428979 0.781565 3.357000 18 15 19
0.424762 0.779701 3.324000 20 15 17
0.424762 0.785520 3.324000 18 13 15
0.420801 0.783958 3.293000 16 16 17
0.420801 0.789723 3.293000 13 16 19
0.416840 0.787998 3.262000 11 14 21
0.412878 0.786166 3.231000 13 12 22
0.412878 0.791821 3.231000 15 14 21
0.416840 0.805129 3.262000 15 12 19
0.416840 0.810839 3.262000 15 13 23
0.398055 0.817921 3.115000 14 12 23
0.418534 0.407222 3.231000 55 81 54
0.422550 0.422550 3.262000 54 68 55
0.422550 0.428260 3.262000 52 58 62
0.422550 0.433970 3.262000 51 72 54
0.422550 0.439680 3.262000 51 57 46
0.418534 0.678704 3.231000 25 12 45
0.418534 0.684360 3.231000 22 12 43
0.418534 0.690016 3.231000 19 12 43
0.418534 0.695672 3.231000 17 13 44
0.418534 0.701328 3.231000 15 19 32
0.414648 0.700419 3.201000 20 17 21
0.418534 0.712639 3.231000 25 16 25
0.422550 0.725187 3.262000 22 15 29
0.439130 0.783314 3.390000 17 21 17
0.439130 0.789248 3.390000 21 21 21
0.434856 0.787442 3.357000 25 18 21
0.434856 0.799194 3.357000 21 17 22
0.430581 0.797157 3.324000 19 18 23
0.426565 0.795487 3.293000 18 16 23
0.422550 0.793708 3.262000 19 18 23
0.424190 0.684360 3.231000 26 9 38
0.424190 0.690016 3.231000 20 26 30
0.424190 0.695672 3.231000 20 5 23
0.424190 0.701328 3.231000 20 12 23
0.445065 0.783314 3.390000 18 23 17
0.429846 0.695672 3.231000 38 42 3
0.411411 0.847023 2.765000 45 26 55
0.414833 0.858950 2.788000 39 28 49
0.408138 0.849887 2.743000 36 30 44
0.408138 0.854689 2.743000 34 29 38
0.412939 0.840284 2.743000 52 48 57
0.416251 0.851864 2.765000 46 30 53
0.412939 0.849887 2.743000 37 29 49
0.412939 0.854689 2.743000 28 30 38
0.412939 0.859490 2.743000 32 30 28
0.416251 0.871224 2.765000 35 32 31
0.415609 0.840772 2.729000 53 48 56
0.414543 0.843381 2.722000 38 26 52
0.414543 0.848145 2.722000 23 28 43
0.414543 0.852910 2.722000 28 30 35
0.417741 0.864292 2.743000 34 30 35
0.411345 0.855786 2.701000 33 31 36
0.408147 0.853824 2.680000 33 31 33
0.414995 0.829989 2.694000 57 72 60
0.412838 0.830367 2.680000 46 47 56
0.416073 0.841602 2.701000 35 27 49
0.416073 0.846330 2.701000 36 26 42
0.416073 0.851058 2.701000 37 30 40
0.412838 0.849133 2.680000 36 29 39
0.409603 0.847134 2.659000 35 29 36
0.414258 0.819206 2.659000 61 68 63
0.414258 0.823861 2.659000 54 65 60
0.414258 0.828515 2.659000 47 44 54
0.414258 0.833170 2.659000 43 18 48
0.414258 0.837824 2.659000 40 24 45
0.414258 0.842479 2.659000 39 29 43
0.418912 0.823861 2.659000 60 65 65
0.418912 0.828515 2.659000 53 66 59
0.418912 0.833170 2.659000 47 41 54
0.415761 0.831523 2.639000 42 22 50
0.420381 0.817664 2.639000 66 65 65
0.420381 0.822284 2.639000 59 65 60
0.420381 0.826903 2.639000 52 58 55
0.417195 0.825221 2.619000 45 38 51
0.425000 0.817664 2.639000 69 69 66
0.425000 0.822284 2.639000 65 71 61
0.425000 0.826903 2.639000 58 61 56
0.421779 0.825221 2.619000 51 44 53
0.429620 0.817664 2.639000 72 72 67
0.426364 0.816052 2.619000 71 71 65
0.429620 0.826903 2.639000 64 72 64
0.426364 0.825221 2.619000 57 57 58
0.430949 0.811467 2.619000 73 73 68
0.430949 0.816052 2.619000 72 72 70
0.430949 0.820636 2.619000 68 70 72
0.430949 0.825221 2.619000 63 70 63
0.432207 0.805270 2.599000 74 78 63
0.432207 0.809820 2.599000 74 73 71
0.432207 0.814369 2.599000 72 68 79
0.432207 0.818919 2.599000 70 68 70
0.425722 0.811112 2.560000 60 70 61
0.404768 0.890490 2.434000 39 36 29
0.407595 0.901000 2.451000 37 35 30
0.407595 0.905290 2.451000 36 36 31
0.404768 0.903272 2.434000 35 32 34
0.404768 0.907533 2.434000 34 25 37
0.401941 0.905425 2.417000 34 28 35
0.409029 -0.835101 2.434000 41 37 39
0.409029 -0.830840 2.434000 42 36 39
0.433564 0.799384 2.580000 76 66 58
0.433564 0.803900 2.580000 81 76 72
0.433564 0.808416 2.580000 78 71 87
0.427178 0.800959 2.542000 75 67 77
0.423985 0.799389 2.523000 66 69 67
0.411886 0.883838 2.451000 43 36 30
0.411886 0.888129 2.451000 42 36 30
0.409029 0.886229 2.434000 41 37 30
0.409029 0.890490 2.434000 40 35 30
0.409029 0.894751 2.434000 39 36 30
0.409029 0.899011 2.434000 39 36 30
0.409029 0.903272 2.434000 39 37 37
0.406172 0.901194 2.417000 38 30 44
0.406172 0.905425 2.417000 36 29 38
0.403315 0.903258 2.400000 38 31 33
0.413289 -0.839361 2.434000 40 38 42
0.413289 -0.835101 2.434000 43 37 40
0.413289 -0.830840 2.434000 43 37 39
0.413289 -0.826579 2.434000 43 36 39
0.419232 -0.825499 2.469000 40 34 42
0.438080 0.803900 2.580000 89 66 66
0.434684 0.802149 2.560000 84 73 74
0.425345 0.789301 2.505000 80 71 71
0.422289 0.787982 2.487000 73 68 67
0.419232 0.786601 2.469000 66 69 62
0.419232 0.790923 2.469000 57 68 58
0.413289 0.873447 2.434000 40 33 25
0.413289 0.877708 2.434000 41 34 25
0.413289 0.881968 2.434000 41 37 25
0.410403 0.880040 2.417000 42 35 27
0.410403 0.884270 2.417000 41 34 29
0.413289 0.894751 2.434000 41 35 29
0.413289 0.899011 2.434000 42 36 30
0.410403 0.896963 2.417000 44 36 32
0.410403 0.901194 2.417000 41 32 35
0.407516 0.899057 2.400000 39 31 32
0.404800 0.897236 2.384000 39 33 29
0.414634 -0.833499 2.417000 40 37 45
0.417550 -0.835101 2.434000 41 37 42
0.417550 -0.830840 2.434000 40 36 39
0.417550 -0.826579 2.434000 40 35 38
0.417550 -0.822318 2.434000 38 36 38
0.420467 -0.823771 2.451000 37 35 36
0.423554 -0.825499 2.469000 38 34 35
0.426642 -0.827164 2.487000 40 36 35
0.423554 0.782279 2.469000 74 72 68
0.420467 0.780867 2.451000 70 71 65
0.420467 0.785157 2.451000 62 67 63
0.417550 0.783972 2.434000 54 61 56
0.406056 0.803826 2.367000 35 26 26
0.406056 0.807970 2.367000 31 23 23
0.414634 0.867347 2.417000 38 32 20
0.414634 0.871578 2.417000 38 31 20
0.414634 0.875809 2.417000 39 32 20
0.414634 0.880040 2.417000 41 35 24
0.414634 0.884270 2.417000 40 34 29
0.414634 0.888501 2.417000 40 36 29
0.414634 0.892732 2.417000 41 37 30
0.411718 0.890655 2.400000 42 39 28
0.411718 0.894856 2.400000 40 34 26
0.408973 0.893063 2.384000 38 32 26
0.408973 0.897236 2.384000 35 32 26
0.406056 0.894982 2.367000 32 31 24
0.406056 0.899125 2.367000 37 30 22
0.418865 -0.833499 2.417000 39 38 43
0.421811 -0.835101 2.434000 39 35 39
0.421811 -0.830840 2.434000 38 35 36
0.418865 -0.820806 2.417000 38 35 35
0.421811 -0.822318 2.434000 36 39 33
0.421811 -0.818058 2.434000 34 35 32
0.420771 0.773539 2.428000 74 73 74
0.421811 0.779711 2.434000 67 68 68
0.418865 0.778497 2.417000 60 66 59
0.418865 0.782727 2.417000 52 62 51
0.410200 0.795539 2.367000 31 28 29
0.410200 0.799683 2.367000 35 26 29
0.407427 0.798393 2.351000 39 26 25
0.410200 0.807970 2.367000 33 25 22
0.410200 0.812113 2.367000 28 21 21
0.418865 0.867347 2.417000 37 33 23
0.418865 0.871578 2.417000 36 31 22
0.418865 0.875809 2.417000 38 28 22
0.415919 0.873850 2.400000 40 31 26
0.415919 0.878051 2.400000 40 34 30
0.415919 0.882252 2.400000 40 35 29
0.415919 0.886453 2.400000 40 39 28
0.413146 0.884717 2.384000 41 36 29
0.415919 0.894856 2.400000 39 33 30
0.413146 0.893063 2.384000 38 32 30
0.410200 0.890838 2.367000 31 35 30
0.410200 0.894982 2.367000 24 32 30
0.410200 0.899125 2.367000 33 28 30
0.423096 -0.833499 2.417000 38 34 41
0.426072 -0.835101 2.434000 39 32 37
0.426072 -0.830840 2.434000 37 33 34
0.423096 -0.820806 2.417000 36 34 31
0.426072 -0.822318 2.434000 35 36 29
0.421170 0.766530 2.406000 79 78 83
0.417319 0.763694 2.384000 73 73 74
0.417319 0.767868 2.384000 67 73 63
0.417319 0.772041 2.384000 59 65 53
0.414343 0.770679 2.367000 52 49 55
0.417319 0.780387 2.384000 45 33 57
0.414343 0.778966 2.367000 39 26 46
0.414343 0.783109 2.367000 38 26 35
