ply
format ascii 1.0
element vertex 1312
property float x
property float y
property float z
property uchar red
property uchar green
property uchar blue
end_header
0.720509 0.244753 1.571000 24 14 18
0.720509 0.247503 1.571000 20 14 16
0.720509 0.250253 1.571000 16 11 14
0.720509 0.253003 1.571000 13 10 11
0.720509 0.255753 1.571000 15 11 9
0.720509 0.258503 1.571000 17 13 6
0.720509 0.261253 1.571000 15 13 4
0.720509 0.264003 1.571000 13 14 6
0.720509 0.266753 1.571000 15 13 9
0.720509 0.269504 1.571000 17 13 9
0.720509 0.272254 1.571000 16 13 9
0.720509 0.275004 1.571000 16 14 9
0.720509 0.277754 1.571000 15 13 9
0.720509 0.280504 1.571000 15 14 9
0.720509 0.283254 1.571000 14 15 9
0.720509 0.286004 1.571000 13 15 9
0.720509 0.288754 1.571000 15 12 9
0.720509 0.291504 1.571000 17 12 9
0.720509 0.294254 1.571000 19 12 9
0.720509 0.297004 1.571000 21 12 11
0.720509 0.299754 1.571000 19 11 13
0.720509 0.302504 1.571000 17 11 10
0.720509 0.305254 1.571000 15 11 8
0.716840 0.306436 1.563000 13 13 8
0.716840 0.309172 1.563000 13 12 8
0.720509 0.313504 1.571000 14 12 10
0.720509 0.316254 1.571000 15 10 13
0.716840 0.317380 1.563000 16 10 9
0.716840 0.320116 1.563000 15 11 5
0.716840 0.322852 1.563000 14 12 6
0.716840 0.325588 1.563000 15 12 7
0.716840 0.328324 1.563000 17 12 10
0.716840 0.331060 1.563000 17 11 13
0.713630 0.332301 1.556000 17 11 15
0.713630 0.335025 1.556000 16 11 18
0.710419 0.336229 1.549000 15 11 12
0.710419 0.338941 1.549000 15 10 6
0.710419 0.341652 1.549000 15 12 5
0.710419 0.344364 1.549000 15 10 5
0.710419 0.347075 1.549000 15 10 5
0.711795 0.350464 1.552000 17 8 5
0.711795 0.353181 1.552000 19 8 8
0.713630 0.356815 1.556000 14 9 11
0.713630 0.359539 1.556000 9 9 10
0.713630 0.362263 1.556000 11 8 10
0.713630 0.364986 1.556000 12 8 7
0.710419 0.366056 1.549000 13 9 4
0.710419 0.368767 1.549000 13 10 7
0.710419 0.371479 1.549000 15 10 11
0.710419 0.374190 1.549000 17 10 13
0.710419 0.376902 1.549000 18 11 15
0.710419 0.379613 1.549000 20 12 14
0.710419 0.382325 1.549000 18 12 14
0.710419 0.385037 1.549000 16 12 14
0.710419 0.387748 1.549000 14 14 15
0.710419 0.390460 1.549000 12 14 17
0.710419 0.393171 1.549000 12 13 20
0.710419 0.395883 1.549000 13 13 20
0.710419 0.398594 1.549000 13 13 21
0.707209 0.399492 1.542000 14 12 21
0.694826 0.395149 1.515000 14 13 21
0.686112 0.392812 1.496000 15 15 14
0.682902 0.393581 1.489000 18 14 8
0.663180 0.384746 1.446000 21 14 9
0.660429 0.385670 1.440000 20 15 11
0.657677 0.386573 1.434000 20 18 14
0.657677 0.389084 1.434000 19 14 17
0.657677 0.391594 1.434000 18 14 26
0.660429 0.395753 1.440000 18 12 36
0.665932 0.404135 1.452000 17 15 19
0.674188 0.411718 1.470000 16 15 21
0.674188 0.414291 1.470000 15 14 23
0.680150 0.420551 1.483000 15 14 22
0.682902 0.424859 1.489000 14 13 21
0.682902 0.427465 1.489000 14 11 19
0.686112 0.432094 1.496000 18 15 18
0.680150 0.430935 1.483000 22 17 20
0.680150 0.433531 1.483000 24 15 23
0.677398 0.434362 1.477000 25 17 22
0.677398 0.436948 1.477000 25 19 22
0.680150 0.441319 1.483000 24 19 22
0.677398 0.442119 1.477000 29 23 23
0.677398 0.444704 1.477000 34 29 26
0.677398 0.447290 1.477000 35 28 29
0.677398 0.449875 1.477000 36 29 27
0.674188 0.450316 1.470000 37 31 26
0.680150 0.456895 1.483000 38 34 32
0.692074 0.467546 1.509000 36 30 38
0.698036 0.474239 1.522000 34 29 38
0.698036 0.476903 1.522000 35 29 38
0.701247 0.481773 1.529000 36 27 39
0.701247 0.484449 1.529000 39 31 41
0.698036 0.484896 1.522000 42 34 33
0.698036 0.487560 1.522000 41 34 26
0.698036 0.490224 1.522000 41 34 25
0.698036 0.492888 1.522000 43 35 24
0.698036 0.495553 1.522000 46 40 23
0.698036 0.498217 1.522000 46 42 23
0.698036 0.500881 1.522000 47 44 28
0.694826 0.501230 1.515000 49 44 34
0.694826 0.503882 1.515000 52 43 36
0.692074 0.504528 1.509000 52 48 39
0.692074 0.507169 1.509000 53 52 40
0.692074 0.509811 1.509000 53 50 41
0.692074 0.512452 1.509000 54 49 43
0.694826 0.517142 1.515000 56 49 45
0.694826 0.519794 1.515000 57 51 47
0.694826 0.522446 1.515000 59 51 49
0.692074 0.523018 1.509000 60 53 47
0.694826 0.527750 1.515000 55 50 45
0.698036 0.532852 1.522000 51 49 44
0.694826 0.533054 1.515000 55 49 43
0.694826 0.535706 1.515000 59 50 43
0.694826 0.538358 1.515000 59 48 44
0.694826 0.541010 1.515000 59 47 44
0.694826 0.543662 1.515000 57 47 44
0.694826 0.546314 1.515000 56 48 45
0.694826 0.548966 1.515000 58 50 47
0.694826 0.551618 1.515000 61 51 43
0.694826 0.554270 1.515000 59 49 39
0.694826 0.556922 1.515000 58 49 36
0.694826 0.559574 1.515000 53 47 34
0.694826 0.562226 1.515000 49 45 36
0.694826 0.564878 1.515000 50 44 39
0.698036 0.570152 1.522000 51 43 36
0.694826 0.570182 1.515000 54 41 34
0.694826 0.572834 1.515000 57 41 39
0.694826 0.575486 1.515000 57 46 44
0.694826 0.578138 1.515000 58 52 43
0.692074 0.578490 1.509000 55 49 42
0.692074 0.581131 1.509000 53 45 38
0.692074 0.583773 1.509000 52 45 34
0.694826 0.588746 1.515000 51 49 36
0.694826 0.591398 1.515000 49 47 38
0.807509 -0.687764 1.754000 24 16 22
0.807509 -0.684694 1.754000 24 17 22
0.807509 -0.681624 1.754000 24 16 20
0.811653 -0.682035 1.763000 24 17 17
0.811653 -0.678949 1.763000 25 18 15
0.811653 -0.675863 1.763000 24 18 13
0.811653 -0.672777 1.763000 23 17 14
0.811653 -0.669691 1.763000 24 18 16
0.811653 -0.666604 1.763000 25 19 16
0.811653 -0.663518 1.763000 22 18 17
0.811653 -0.660432 1.763000 19 18 16
0.811653 -0.657346 1.763000 18 19 15
0.807509 -0.650920 1.754000 18 18 15
0.807509 -0.647850 1.754000 21 18 16
0.803366 -0.641471 1.745000 24 16 17
0.799222 -0.635123 1.736000 25 17 18
0.799222 -0.632085 1.736000 26 16 17
0.795539 -0.626147 1.728000 22 18 16
0.795539 -0.623122 1.728000 18 18 13
0.795539 -0.620097 1.728000 20 21 10
0.795539 -0.617072 1.728000 23 18 13
0.795539 -0.614047 1.728000 24 17 16
0.795539 -0.611023 1.728000 25 19 18
0.795539 -0.607998 1.728000 22 22 21
0.795539 -0.604973 1.728000 20 20 18
0.795539 -0.601948 1.728000 20 22 15
0.795539 -0.598923 1.728000 20 21 15
0.795539 -0.595898 1.728000 19 21 14
0.795539 -0.592873 1.728000 19 21 17
0.795539 -0.589849 1.728000 19 20 20
0.795539 -0.586824 1.728000 20 19 16
0.795539 -0.583799 1.728000 18 20 13
0.791396 -0.577749 1.719000 16 18 15
0.795539 -0.577749 1.728000 13 17 18
0.795539 -0.574724 1.728000 10 17 17
0.795539 -0.571699 1.728000 15 16 16
0.791396 -0.565713 1.719000 21 16 16
0.791396 -0.562703 1.719000 22 16 15
0.791396 -0.559694 1.719000 24 17 15
0.787713 -0.554095 1.711000 23 17 15
0.783569 -0.548201 1.702000 23 17 16
0.783569 -0.545221 1.702000 21 17 17
0.787713 -0.545109 1.711000 19 17 22
0.779886 -0.536728 1.694000 21 18 26
0.779886 -0.533763 1.694000 24 16 19
0.779886 -0.530797 1.694000 22 16 11
0.779886 -0.527832 1.694000 20 17 21
0.779886 -0.524866 1.694000 22 18 32
0.779886 -0.521901 1.694000 25 18 21
0.783569 -0.521386 1.702000 24 16 11
0.783569 -0.518407 1.702000 23 19 14
0.783569 -0.515428 1.702000 24 19 17
0.783569 -0.512448 1.702000 26 17 19
0.787713 -0.512163 1.711000 26 17 21
0.787713 -0.509168 1.711000 26 18 26
0.783569 -0.503510 1.702000 29 21 32
0.783569 -0.500531 1.702000 32 18 24
0.783569 -0.497552 1.702000 28 17 17
0.779886 -0.492248 1.694000 25 17 15
0.779886 -0.489282 1.694000 24 16 13
0.779886 -0.486317 1.694000 24 16 18
0.776203 -0.481069 1.686000 25 17 23
0.779886 -0.480386 1.694000 26 17 20
0.776203 -0.475166 1.686000 28 19 17
0.776203 -0.472215 1.686000 30 17 14
0.779886 -0.471490 1.694000 27 16 11
0.779886 -0.468525 1.694000 24 15 18
0.779886 -0.465560 1.694000 24 15 26
0.779886 -0.462594 1.694000 24 16 21
0.779886 -0.459629 1.694000 22 17 16
0.779886 -0.456663 1.694000 21 18 20
0.779886 -0.453698 1.694000 24 20 24
0.779886 -0.450733 1.694000 27 18 21
0.779886 -0.447767 1.694000 26 18 18
0.779886 -0.444802 1.694000 26 19 16
0.779886 -0.441837 1.694000 27 22 15
0.779886 -0.438871 1.694000 28 21 13
0.779886 -0.435906 1.694000 27 21 11
0.779886 -0.432941 1.694000 26 20 13
0.779886 -0.429975 1.694000 23 20 15
0.779886 -0.427010 1.694000 21 20 16
0.779886 -0.424045 1.694000 23 20 17
0.779886 -0.421079 1.694000 26 20 16
0.779886 -0.418114 1.694000 27 21 16
0.779886 -0.415149 1.694000 28 21 16
0.779886 -0.412183 1.694000 31 22 16
0.776203 -0.407285 1.686000 35 20 12
0.779886 -0.406253 1.694000 30 18 9
0.776203 -0.401383 1.686000 26 19 13
0.776203 -0.398431 1.686000 26 17 18
0.776203 -0.395480 1.686000 26 20 17
0.776203 -0.392529 1.686000 25 22 16
0.776203 -0.389577 1.686000 25 22 16
0.779886 -0.388461 1.694000 25 21 16
0.776203 -0.383675 1.686000 26 18 19
0.776203 -0.380723 1.686000 26 20 22
0.776203 -0.377772 1.686000 27 22 20
0.772060 -0.372820 1.677000 27 22 18
0.776203 -0.371869 1.686000 28 22 21
0.772060 -0.366949 1.677000 28 21 24
0.772060 -0.364013 1.677000 28 22 16
0.772060 -0.361077 1.677000 30 26 8
0.776203 -0.360064 1.686000 32 25 11
0.776203 -0.357112 1.686000 33 28 14
0.776203 -0.354161 1.686000 34 25 19
0.776203 -0.351210 1.686000 32 26 24
0.776203 -0.348258 1.686000 31 24 27
0.776203 -0.345307 1.686000 30 21 31
0.776203 -0.342356 1.686000 30 21 28
0.776203 -0.339404 1.686000 29 22 26
0.772060 -0.334657 1.677000 28 21 21
0.772060 -0.331722 1.677000 32 24 16
0.772060 -0.328786 1.677000 36 21 22
0.772060 -0.325850 1.677000 34 21 29
0.772060 -0.322915 1.677000 32 24 23
0.772060 -0.319979 1.677000 32 26 17
0.768377 -0.315531 1.669000 33 26 22
0.768377 -0.312610 1.669000 29 26 28
0.768377 -0.309688 1.669000 26 24 28
0.768377 -0.306766 1.669000 21 26 29
0.768377 -0.303845 1.669000 17 23 25
0.764694 -0.299481 1.661000 19 20 21
0.764694 -0.296573 1.661000 22 20 24
0.764694 -0.293666 1.661000 23 25 27
0.764694 -0.290758 1.661000 25 23 24
0.764694 -0.287850 1.661000 25 21 22
0.764694 -0.284943 1.661000 26 19 18
0.764694 -0.282035 1.661000 23 21 15
0.764694 -0.279128 1.661000 21 18 21
0.764694 -0.276220 1.661000 20 18 27
0.764694 -0.273313 1.661000 20 18 23
0.764694 -0.270405 1.661000 18 20 19
0.761011 -0.266209 1.653000 17 17 15
0.764694 -0.264590 1.661000 19 16 12
0.764694 -0.261682 1.661000 21 15 16
0.764694 -0.258775 1.661000 21 16 21
0.764694 -0.255867 1.661000 21 18 19
0.768377 -0.254178 1.669000 27 25 17
0.768377 -0.251256 1.669000 33 29 28
0.768377 -0.248335 1.669000 35 29 40
0.768377 -0.245413 1.669000 37 34 43
0.768377 -0.242491 1.669000 36 35 45
0.764694 -0.238422 1.661000 35 34 47
0.764694 -0.235514 1.661000 38 34 50
0.764694 -0.232606 1.661000 41 38 56
0.764694 -0.229699 1.661000 41 42 62
0.764694 -0.226791 1.661000 41 42 67
0.764694 -0.223884 1.661000 39 41 73
0.764694 -0.220976 1.661000 37 41 71
0.764694 -0.218069 1.661000 40 41 69
0.764694 -0.215161 1.661000 44 43 72
0.764694 -0.212253 1.661000 38 46 74
0.761011 -0.208338 1.653000 32 43 70
0.761011 -0.205444 1.653000 35 40 66
0.761011 -0.202550 1.653000 38 38 59
0.761011 -0.199657 1.653000 34 33 52
0.761011 -0.196763 1.653000 30 28 47
0.761011 -0.193870 1.653000 29 27 42
0.761011 -0.190976 1.653000 29 27 38
0.761011 -0.188082 1.653000 31 28 33
0.761011 -0.185189 1.653000 34 29 39
0.761011 -0.182295 1.653000 34 30 46
0.757328 -0.178533 1.645000 34 30 41
0.761011 -0.176508 1.653000 34 31 37
0.761011 -0.173615 1.653000 34 32 43
0.757328 -0.169895 1.645000 32 37 49
0.757328 -0.167015 1.645000 30 33 47
0.757328 -0.164136 1.645000 28 27 46
0.757328 -0.161256 1.645000 26 25 37
0.757328 -0.158376 1.645000 26 26 27
0.757328 -0.155497 1.645000 26 25 31
0.754105 -0.151968 1.638000 26 24 36
0.754105 -0.149101 1.638000 27 24 39
0.754105 -0.146233 1.638000 27 25 42
0.754105 -0.143366 1.638000 27 25 37
0.754105 -0.140499 1.638000 27 26 32
0.754105 -0.137631 1.638000 27 24 38
0.754105 -0.134764 1.638000 26 23 44
0.754105 -0.131897 1.638000 26 23 37
0.754105 -0.129029 1.638000 29 22 30
0.754105 -0.126162 1.638000 33 23 36
0.754105 -0.123295 1.638000 29 20 43
0.754105 -0.120427 1.638000 26 23 41
0.754105 -0.117560 1.638000 26 25 40
0.754105 -0.114693 1.638000 26 25 37
0.754105 -0.111825 1.638000 25 27 34
0.754105 -0.108958 1.638000 24 29 37
0.754105 -0.106091 1.638000 26 29 41
0.750422 -0.102719 1.630000 28 27 39
0.750422 -0.099866 1.630000 27 26 37
0.750422 -0.097013 1.630000 26 25 27
0.750422 -0.094159 1.630000 28 26 17
0.750422 -0.091306 1.630000 31 24 22
0.750422 -0.088453 1.630000 34 24 27
0.750422 -0.085599 1.630000 38 24 24
0.754105 -0.083152 1.638000 35 26 21
0.754105 -0.080285 1.638000 33 26 19
0.754105 -0.077418 1.638000 32 26 17
0.750422 -0.074186 1.630000 32 27 22
0.750422 -0.071333 1.630000 35 30 27
0.750422 -0.068480 1.630000 39 28 29
0.750422 -0.065626 1.630000 40 26 32
0.746739 -0.062465 1.622000 42 30 30
0.746739 -0.059626 1.622000 41 34 29
0.746739 -0.056786 1.622000 41 34 33
0.750422 -0.054213 1.630000 42 34 37
0.750422 -0.051360 1.630000 44 33 31
0.750422 -0.048506 1.630000 44 37 26
0.750422 -0.045653 1.630000 45 34 26
0.750422 -0.042800 1.630000 43 34 25
0.750422 -0.039946 1.630000 42 35 27
0.750422 -0.037093 1.630000 44 34 29
0.750422 -0.034240 1.630000 46 34 31
0.750422 -0.031386 1.630000 45 37 34
0.746739 -0.028393 1.622000 45 39 35
0.746739 -0.025554 1.622000 45 41 36
0.743516 -0.022616 1.615000 46 41 38
0.746739 -0.019875 1.622000 45 42 40
0.743516 -0.016962 1.615000 45 41 36
0.746739 -0.014197 1.622000 44 42 32
0.743516 -0.011308 1.615000 44 41 32
0.743516 -0.008481 1.615000 46 40 32
0.743516 -0.005654 1.615000 48 40 33
0.743516 -0.002827 1.615000 50 44 34
0.746739 -0.000000 1.622000 52 45 41
0.743516 0.002827 1.615000 45 41 48
0.746739 0.005679 1.622000 39 32 37
0.743516 0.008481 1.615000 34 22 25
0.743516 0.011308 1.615000 30 22 19
0.743516 0.014135 1.615000 33 22 13
0.743516 0.016962 1.615000 36 27 16
0.743516 0.019789 1.615000 39 28 18
0.743516 0.022617 1.615000 42 30 20
0.743516 0.025444 1.615000 43 34 21
0.743516 0.028271 1.615000 45 33 25
0.743516 0.031098 1.615000 44 33 30
0.739833 0.033757 1.607000 44 32 25
0.739833 0.036570 1.607000 42 34 20
0.743516 0.039579 1.615000 41 35 22
0.743516 0.042406 1.615000 41 37 24
0.743516 0.045233 1.615000 41 35 25
0.743516 0.048060 1.615000 37 36 27
0.743516 0.050887 1.615000 34 36 28
0.739833 0.053448 1.607000 40 39 29
0.743516 0.056541 1.615000 47 38 30
0.739833 0.059074 1.607000 52 42 30
0.739833 0.061887 1.607000 58 41 33
0.739833 0.064700 1.607000 63 44 36
0.739833 0.067513 1.607000 69 43 38
0.739833 0.070326 1.607000 74 55 40
0.736610 0.072821 1.600000 80 61 71
0.736610 0.075622 1.600000 82 44 103
0.736610 0.078422 1.600000 84 56 104
0.739833 0.081579 1.607000 85 20 106
0.736610 0.084024 1.600000 87 50 108
0.736610 0.086825 1.600000 83 1 110
0.736610 0.089626 1.600000 79 46 110
0.739833 0.092831 1.607000 73 1 110
0.739833 0.095644 1.607000 68 37 98
0.739833 0.098457 1.607000 68 1 86
0.739833 0.101270 1.607000 68 38 94
0.736610 0.103630 1.600000 62 1 103
0.736610 0.106430 1.600000 56 28 98
0.736610 0.109231 1.600000 38 1 92
0.736610 0.112032 1.600000 20 31 89
0.736610 0.114833 1.600000 34 1 87
0.736610 0.117634 1.600000 49 27 91
0.736610 0.120434 1.600000 45 1 95
0.736610 0.123235 1.600000 42 16 79
0.736610 0.126036 1.600000 44 17 64
0.736610 0.128837 1.600000 47 22 61
0.736610 0.131638 1.600000 49 24 58
0.736610 0.134438 1.600000 52 19 42
0.736610 0.137239 1.600000 39 12 27
0.736610 0.140040 1.600000 26 15 28
0.736610 0.142841 1.600000 26 12 29
0.736610 0.145642 1.600000 27 14 29
0.732927 0.147700 1.592000 24 11 30
0.732927 0.150487 1.592000 21 16 30
0.732927 0.153274 1.592000 24 15 30
0.729705 0.155374 1.585000 27 19 31
0.729705 0.158149 1.585000 31 16 33
0.729705 0.160923 1.585000 36 21 33
0.729705 0.163698 1.585000 42 24 34
0.729705 0.166473 1.585000 49 28 31
0.729705 0.169247 1.585000 43 25 29
0.729705 0.172022 1.585000 37 20 27
0.726482 0.174024 1.578000 42 21 24
0.726482 0.176787 1.578000 48 26 26
0.726482 0.179549 1.578000 51 28 29
0.726482 0.182311 1.578000 54 33 32
0.726482 0.185073 1.578000 56 45 36
0.726482 0.187836 1.578000 59 43 37
0.726482 0.190598 1.578000 57 61 38
0.726482 0.193360 1.578000 55 44 31
0.726482 0.196123 1.578000 50 38 24
0.726482 0.198885 1.578000 46 26 27
0.729705 0.202542 1.585000 60 21 31
0.729705 0.205316 1.585000 75 44 33
0.726482 0.207172 1.578000 67 77 35
0.729705 0.210865 1.585000 60 51 32
0.729705 0.213640 1.585000 54 43 29
0.729705 0.216414 1.585000 48 33 24
0.732927 0.220157 1.592000 44 22 19
0.736610 0.224064 1.600000 41 19 17
0.723259 0.236503 1.571000 26 20 12
0.723259 0.239253 1.571000 28 19 11
0.723259 0.242003 1.571000 31 16 14
0.723259 0.244753 1.571000 25 14 17
0.723259 0.247503 1.571000 20 12 14
0.723259 0.250253 1.571000 17 12 11
0.723259 0.253003 1.571000 14 10 8
0.723259 0.255753 1.571000 15 9 5
0.723259 0.258503 1.571000 17 11 4
0.723259 0.261253 1.571000 15 13 3
0.723259 0.264003 1.571000 13 13 7
0.723259 0.266753 1.571000 11 13 11
0.723259 0.269504 1.571000 9 14 10
0.723259 0.272254 1.571000 11 15 9
0.723259 0.275004 1.571000 14 14 7
0.723259 0.277754 1.571000 14 13 6
0.723259 0.280504 1.571000 14 13 7
0.723259 0.283254 1.571000 13 14 7
0.723259 0.286004 1.571000 12 12 6
0.723259 0.288754 1.571000 14 10 6
0.723259 0.291504 1.571000 17 11 7
0.723259 0.294254 1.571000 17 12 8
0.723259 0.297004 1.571000 17 12 9
0.723259 0.299754 1.571000 17 12 10
0.723259 0.302504 1.571000 17 11 8
0.723259 0.305254 1.571000 15 12 7
0.723259 0.308004 1.571000 14 11 8
0.723259 0.310754 1.571000 14 10 9
0.723259 0.313504 1.571000 14 11 11
0.723259 0.316254 1.571000 14 10 13
0.719576 0.317380 1.563000 15 9 10
0.719576 0.320116 1.563000 13 10 7
0.719576 0.322852 1.563000 11 10 9
0.719576 0.325588 1.563000 14 11 11
0.719576 0.328324 1.563000 17 11 11
0.716354 0.329577 1.556000 17 12 12
0.716354 0.332301 1.556000 18 11 13
0.716354 0.335025 1.556000 16 10 14
0.713131 0.336229 1.549000 14 10 10
0.713131 0.338941 1.549000 15 10 5
0.713131 0.341652 1.549000 17 10 5
0.713131 0.344364 1.549000 16 10 5
0.713131 0.347075 1.549000 15 9 4
0.716354 0.351367 1.556000 18 7 3
0.716354 0.354091 1.556000 21 9 8
0.716354 0.356815 1.556000 13 12 12
0.719576 0.361156 1.563000 5 10 10
0.716354 0.362263 1.556000 8 9 7
0.716354 0.364986 1.556000 11 9 7
0.713131 0.366056 1.549000 12 9 6
0.713131 0.368767 1.549000 14 9 9
0.713131 0.371479 1.549000 15 11 11
0.713131 0.374190 1.549000 17 11 13
0.713131 0.376902 1.549000 19 12 14
0.713131 0.379613 1.549000 21 12 14
0.713131 0.382325 1.549000 19 12 14
0.713131 0.385037 1.549000 18 12 16
0.713131 0.387748 1.549000 15 15 18
0.713131 0.390460 1.549000 12 13 18
0.713131 0.393171 1.549000 11 13 19
0.713131 0.395883 1.549000 11 13 20
0.709908 0.396793 1.542000 12 14 21
0.700701 0.394311 1.522000 14 12 21
0.697478 0.395149 1.515000 14 12 21
0.694716 0.396226 1.509000 15 13 16
0.691493 0.397017 1.502000 18 14 11
0.665712 0.384746 1.446000 21 14 12
0.662949 0.385670 1.440000 21 14 14
0.657425 0.384956 1.428000 21 15 13
0.657425 0.387456 1.428000 18 14 12
0.660187 0.391594 1.434000 16 13 20
0.660187 0.394104 1.434000 18 11 28
0.679984 0.418849 1.477000 15 13 19
0.682746 0.423147 1.483000 14 14 21
0.685508 0.427465 1.489000 14 13 18
0.682746 0.428339 1.483000 17 16 16
0.682746 0.430935 1.483000 21 15 18
0.679984 0.431777 1.477000 22 14 19
0.679984 0.434362 1.477000 24 17 20
0.679984 0.436948 1.477000 22 20 21
0.682746 0.441319 1.483000 21 19 21
0.682746 0.443915 1.483000 27 20 22
0.682746 0.446511 1.483000 34 24 24
0.679984 0.447290 1.477000 34 26 27
0.679984 0.449875 1.477000 34 28 25
0.676761 0.450316 1.470000 35 31 23
0.685508 0.458743 1.489000 37 31 27
0.700701 0.471574 1.522000 34 29 30
0.700701 0.474239 1.522000 31 29 32
0.700701 0.476903 1.522000 32 30 34
0.700701 0.479567 1.522000 34 28 33
0.703923 0.484449 1.529000 36 29 31
0.703923 0.487126 1.529000 39 31 24
0.700701 0.487560 1.522000 39 34 18
0.700701 0.490224 1.522000 39 34 20
0.700701 0.492888 1.522000 42 35 22
0.700701 0.495553 1.522000 46 39 24
0.700701 0.498217 1.522000 46 43 26
0.700701 0.500881 1.522000 47 44 30
0.700701 0.503545 1.522000 50 46 34
0.697478 0.503882 1.515000 53 45 36
0.694716 0.504528 1.509000 52 47 38
0.694716 0.507169 1.509000 51 50 39
0.694716 0.509811 1.509000 52 50 41
0.694716 0.512452 1.509000 53 49 41
0.694716 0.515094 1.509000 55 50 42
0.697478 0.519794 1.515000 57 50 42
0.697478 0.522446 1.515000 56 52 43
0.694716 0.523018 1.509000 56 51 44
0.694716 0.525660 1.509000 56 49 45
0.697478 0.530402 1.515000 56 47 45
0.697478 0.533054 1.515000 57 47 45
0.697478 0.535706 1.515000 59 49 45
0.697478 0.538358 1.515000 57 46 45
0.697478 0.541010 1.515000 55 46 43
0.697478 0.543662 1.515000 51 44 41
0.697478 0.546314 1.515000 47 45 36
0.697478 0.548966 1.515000 51 47 31
0.697478 0.551618 1.515000 56 47 35
0.697478 0.554270 1.515000 55 46 39
0.697478 0.556922 1.515000 54 47 33
0.700701 0.562159 1.522000 51 47 27
0.700701 0.564824 1.522000 48 44 32
0.700701 0.567488 1.522000 47 44 36
0.700701 0.570152 1.522000 47 42 34
0.700701 0.572816 1.522000 49 42 31
0.697478 0.572834 1.515000 52 42 35
0.697478 0.575486 1.515000 53 44 39
0.694716 0.575848 1.509000 54 46 39
0.694716 0.578490 1.509000 52 47 40
0.694716 0.581131 1.509000 51 44 36
0.694716 0.583773 1.509000 50 41 32
0.694716 0.586414 1.509000 49 46 32
0.697478 0.591398 1.515000 48 49 33
0.810580 -0.687764 1.754000 24 16 20
0.810580 -0.684694 1.754000 23 17 20
0.810580 -0.681624 1.754000 22 18 20
0.810580 -0.678553 1.754000 22 18 21
0.810580 -0.675483 1.754000 23 19 16
0.810580 -0.672413 1.754000 22 18 12
0.810580 -0.669342 1.754000 21 17 12
0.810580 -0.666272 1.754000 21 20 13
0.814739 -0.666604 1.763000 22 23 13
0.814739 -0.663518 1.763000 19 19 14
0.814739 -0.660432 1.763000 17 19 16
0.814739 -0.657346 1.763000 18 19 18
0.810580 -0.650920 1.754000 19 17 22
0.810580 -0.647850 1.754000 20 17 26
0.802261 -0.638162 1.736000 21 17 22
0.802261 -0.635123 1.736000 23 17 19
0.802261 -0.632085 1.736000 25 17 19
0.802261 -0.629046 1.736000 22 17 20
0.798564 -0.623122 1.728000 18 18 17
0.798564 -0.620097 1.728000 21 19 14
0.798564 -0.617072 1.728000 24 20 14
0.798564 -0.614047 1.728000 24 20 14
0.802261 -0.613851 1.736000 23 20 17
0.802261 -0.610813 1.736000 23 19 21
0.802261 -0.607774 1.736000 23 17 18
0.802261 -0.604735 1.736000 23 20 16
0.798564 -0.598923 1.728000 23 21 15
0.798564 -0.595898 1.728000 21 22 15
0.798564 -0.592873 1.728000 20 23 18
0.798564 -0.589849 1.728000 20 21 21
0.798564 -0.586824 1.728000 20 21 20
0.794405 -0.580758 1.719000 18 19 20
0.794405 -0.577749 1.719000 17 18 19
0.794405 -0.574740 1.719000 17 18 19
0.794405 -0.571731 1.719000 18 20 18
0.794405 -0.568722 1.719000 20 17 18
0.794405 -0.565713 1.719000 22 18 15
0.790708 -0.560085 1.711000 21 17 13
0.790708 -0.557090 1.711000 21 17 15
0.790708 -0.554095 1.711000 21 16 18
0.790708 -0.551099 1.711000 22 16 17
0.786549 -0.545221 1.702000 21 14 16
0.790708 -0.545109 1.711000 20 12 20
0.782852 -0.536728 1.694000 21 14 25
0.786549 -0.536283 1.702000 22 14 21
0.782852 -0.530797 1.694000 22 14 18
0.782852 -0.527832 1.694000 22 15 22
0.782852 -0.524866 1.694000 22 17 26
0.782852 -0.521901 1.694000 22 20 23
0.782852 -0.518936 1.694000 20 19 20
0.786549 -0.518407 1.702000 19 21 20
0.786549 -0.515428 1.702000 21 19 21
0.786549 -0.512448 1.702000 23 18 21
0.786549 -0.509469 1.702000 24 18 21
0.786549 -0.506490 1.702000 25 17 21
0.786549 -0.503510 1.702000 26 18 21
0.786549 -0.500531 1.702000 28 20 17
0.786549 -0.497552 1.702000 26 18 13
0.782852 -0.492248 1.694000 24 18 9
0.782852 -0.489282 1.694000 24 16 6
0.782852 -0.486317 1.694000 25 16 11
0.779155 -0.481069 1.686000 25 15 17
0.782852 -0.480386 1.694000 25 14 15
0.779155 -0.475166 1.686000 25 17 14
0.779155 -0.472215 1.686000 26 18 13
0.779155 -0.469264 1.686000 25 16 12
0.782852 -0.468525 1.694000 24 16 15
0.782852 -0.465560 1.694000 22 16 19
0.782852 -0.462594 1.694000 20 19 19
0.779155 -0.457458 1.686000 20 18 20
0.782852 -0.456663 1.694000 20 17 23
0.782852 -0.453698 1.694000 25 16 26
0.782852 -0.450733 1.694000 31 15 23
0.782852 -0.447767 1.694000 28 17 21
0.782852 -0.444802 1.694000 26 18 17
0.782852 -0.441837 1.694000 26 19 13
0.782852 -0.438871 1.694000 26 21 10
0.782852 -0.435906 1.694000 26 19 7
0.782852 -0.432941 1.694000 26 18 11
0.779155 -0.427945 1.686000 23 19 15
0.779155 -0.424993 1.686000 20 20 18
0.779155 -0.422042 1.686000 21 19 21
0.779155 -0.419091 1.686000 21 20 18
0.782852 -0.418114 1.694000 24 20 16
0.779155 -0.413188 1.686000 27 21 16
0.779155 -0.410237 1.686000 27 20 16
0.779155 -0.407285 1.686000 28 21 9
0.779155 -0.404334 1.686000 27 19 3
0.779155 -0.401383 1.686000 26 21 9
0.779155 -0.398431 1.686000 24 20 15
0.779155 -0.395480 1.686000 23 22 15
0.779155 -0.392529 1.686000 24 22 15
0.782852 -0.391426 1.694000 25 22 16
0.782852 -0.388461 1.694000 25 20 17
0.782852 -0.385495 1.694000 26 18 19
0.779155 -0.380723 1.686000 26 19 21
0.782852 -0.379564 1.694000 27 21 15
0.782852 -0.376599 1.694000 27 23 10
0.779155 -0.371869 1.686000 26 27 18
0.774995 -0.366949 1.677000 26 22 26
0.774995 -0.364013 1.677000 27 21 19
0.774995 -0.361077 1.677000 29 22 13
0.779155 -0.360064 1.686000 32 21 13
0.774995 -0.355206 1.677000 31 23 14
0.774995 -0.352271 1.677000 31 22 17
0.774995 -0.349335 1.677000 30 23 20
0.774995 -0.346399 1.677000 30 22 18
0.774995 -0.343464 1.677000 29 21 17
0.774995 -0.340528 1.677000 29 20 20
0.774995 -0.337593 1.677000 29 20 23
0.771298 -0.333061 1.669000 29 21 23
0.771298 -0.330139 1.669000 32 20 23
0.771298 -0.327217 1.669000 35 19 30
0.771298 -0.324296 1.669000 33 21 38
0.771298 -0.321374 1.669000 31 23 26
0.771298 -0.318453 1.669000 31 23 14
0.771298 -0.315531 1.669000 31 26 25
0.771298 -0.312610 1.669000 29 23 36
0.771298 -0.309688 1.669000 28 22 34
0.771298 -0.306766 1.669000 27 23 32
0.771298 -0.303845 1.669000 26 23 30
0.767601 -0.299481 1.661000 25 20 28
0.767601 -0.296573 1.661000 24 20 30
0.767601 -0.293666 1.661000 24 23 32
0.767601 -0.290758 1.661000 25 25 26
0.767601 -0.287850 1.661000 24 21 21
0.767601 -0.284943 1.661000 24 17 15
0.767601 -0.282035 1.661000 23 17 9
0.767601 -0.279128 1.661000 22 17 15
0.767601 -0.276220 1.661000 21 17 21
0.767601 -0.273313 1.661000 19 19 20
0.767601 -0.270405 1.661000 18 18 19
0.767601 -0.267497 1.661000 16 17 12
0.767601 -0.264590 1.661000 18 17 6
0.767601 -0.261682 1.661000 21 17 16
0.767601 -0.258775 1.661000 23 17 26
0.771298 -0.257099 1.669000 25 21 28
0.771298 -0.254178 1.669000 29 30 30
0.767601 -0.250052 1.661000 34 37 36
0.771298 -0.248335 1.669000 36 35 43
0.767601 -0.244237 1.661000 38 36 45
0.767601 -0.241329 1.661000 36 35 47
0.767601 -0.238422 1.661000 34 34 47
0.767601 -0.235514 1.661000 36 36 47
0.767601 -0.232606 1.661000 38 39 54
0.767601 -0.229699 1.661000 38 42 62
0.767601 -0.226791 1.661000 39 44 64
0.763904 -0.222805 1.653000 37 43 67
0.763904 -0.219912 1.653000 35 44 67
0.767601 -0.218069 1.661000 39 42 67
0.763904 -0.214125 1.653000 42 41 69
0.763904 -0.211231 1.653000 38 43 71
0.763904 -0.208338 1.653000 35 43 68
0.763904 -0.205444 1.653000 34 42 66
0.763904 -0.202550 1.653000 34 42 57
0.763904 -0.199657 1.653000 28 33 49
0.763904 -0.196763 1.653000 21 25 45
0.763904 -0.193870 1.653000 25 23 41
0.763904 -0.190976 1.653000 28 23 32
0.763904 -0.188082 1.653000 30 24 23
0.763904 -0.185189 1.653000 32 27 28
0.763904 -0.182295 1.653000 32 26 34
0.763904 -0.179402 1.653000 32 26 33
0.760207 -0.175654 1.645000 32 28 32
0.760207 -0.172774 1.645000 32 28 33
0.756972 -0.169172 1.638000 31 31 34
0.760207 -0.167015 1.645000 30 32 38
0.756972 -0.163437 1.638000 28 26 42
0.760207 -0.161256 1.645000 26 24 29
0.760207 -0.158376 1.645000 26 25 16
0.760207 -0.155497 1.645000 26 26 24
0.756972 -0.151968 1.638000 25 25 33
0.756972 -0.149101 1.638000 25 25 36
0.760207 -0.146858 1.645000 25 25 39
0.756972 -0.143366 1.638000 25 26 35
0.756972 -0.140499 1.638000 23 26 32
0.756972 -0.137631 1.638000 22 26 41
0.756972 -0.134764 1.638000 23 25 50
0.756972 -0.131897 1.638000 24 25 38
0.756972 -0.129029 1.638000 25 25 26
0.756972 -0.126162 1.638000 27 26 33
0.760207 -0.123822 1.645000 23 24 41
0.756972 -0.120427 1.638000 19 26 40
0.756972 -0.117560 1.638000 22 25 40
0.760207 -0.115183 1.645000 26 24 33
0.760207 -0.112303 1.645000 27 26 27
0.760207 -0.109424 1.645000 28 30 34
0.756972 -0.106091 1.638000 28 27 41
0.753275 -0.102719 1.630000 28 25 40
0.753275 -0.099866 1.630000 27 25 40
0.753275 -0.097013 1.630000 26 25 32
0.753275 -0.094159 1.630000 28 24 25
0.753275 -0.091306 1.630000 30 21 25
0.753275 -0.088453 1.630000 32 22 25
0.756972 -0.086020 1.638000 34 22 23
0.756972 -0.083152 1.638000 33 25 21
0.756972 -0.080285 1.638000 33 27 17
0.756972 -0.077418 1.638000 32 26 14
0.753275 -0.074186 1.630000 31 26 19
0.753275 -0.071333 1.630000 35 29 25
0.753275 -0.068480 1.630000 39 31 29
0.753275 -0.065626 1.630000 40 30 34
0.749578 -0.062465 1.622000 41 36 32
0.749578 -0.059626 1.622000 39 34 30
0.749578 -0.056786 1.622000 38 33 32
0.749578 -0.053947 1.622000 39 32 35
0.749578 -0.051108 1.622000 41 30 32
0.753275 -0.048506 1.630000 41 32 29
0.753275 -0.045653 1.630000 42 33 29
0.753275 -0.042800 1.630000 41 33 30
0.753275 -0.039946 1.630000 41 34 29
0.753275 -0.037093 1.630000 42 34 29
0.753275 -0.034240 1.630000 44 34 31
0.753275 -0.031386 1.630000 45 37 34
0.753275 -0.028533 1.630000 46 41 35
0.749578 -0.025554 1.622000 46 40 36
0.749578 -0.022714 1.622000 46 43 39
0.749578 -0.019875 1.622000 45 42 43
0.749578 -0.017036 1.622000 44 41 36
0.749578 -0.014197 1.622000 44 41 29
0.746343 -0.011308 1.615000 44 41 30
0.746343 -0.008481 1.615000 46 40 31
0.742646 -0.005626 1.607000 48 39 35
0.746343 -0.002827 1.615000 52 43 39
0.746343 -0.000000 1.615000 55 49 48
0.742646 0.002813 1.607000 47 41 57
0.746343 0.005654 1.615000 39 33 41
0.746343 0.008481 1.615000 34 24 25
0.746343 0.011308 1.615000 30 22 23
0.746343 0.014135 1.615000 30 25 21
0.742646 0.016878 1.607000 30 31 20
0.742646 0.019691 1.607000 36 29 19
0.749578 0.022715 1.622000 42 30 20
0.749578 0.025554 1.622000 44 32 22
0.746343 0.028271 1.615000 47 34 30
0.746343 0.031098 1.615000 45 32 38
0.746343 0.033925 1.615000 44 31 25
0.742646 0.036570 1.607000 43 32 13
0.746343 0.039579 1.615000 42 32 18
0.746343 0.042406 1.615000 42 32 24
0.746343 0.045233 1.615000 42 31 25
0.746343 0.048060 1.615000 39 34 27
0.746343 0.050887 1.615000 37 37 26
0.746343 0.053714 1.615000 42 37 26
0.746343 0.056541 1.615000 47 36 27
0.742646 0.059074 1.607000 46 38 28
0.742646 0.061887 1.607000 45 34 28
0.742646 0.064700 1.607000 49 33 29
0.742646 0.067513 1.607000 53 28 21
0.739411 0.070020 1.600000 70 43 14
0.739411 0.072821 1.600000 88 88 77
0.739411 0.075622 1.600000 96 61 141
0.739411 0.078422 1.600000 105 114 149
0.739411 0.081223 1.600000 113 69 157
0.739411 0.084024 1.600000 122 142 157
0.739411 0.086825 1.600000 119 72 157
0.739411 0.089626 1.600000 117 145 163
0.742646 0.092831 1.607000 112 70 169
0.742646 0.095644 1.607000 108 135 168
0.739411 0.098028 1.600000 109 69 167
0.739411 0.100829 1.600000 110 140 165
0.739411 0.103630 1.600000 103 62 163
0.739411 0.106430 1.600000 95 109 152
0.739411 0.109231 1.600000 86 56 142
0.739411 0.112032 1.600000 76 116 126
0.739411 0.114833 1.600000 83 59 110
0.739411 0.117634 1.600000 91 97 115
0.739411 0.120434 1.600000 78 35 121
0.739411 0.123235 1.600000 65 43 86
0.739411 0.126036 1.600000 57 21 51
0.739411 0.128837 1.600000 49 21 57
0.739411 0.131638 1.600000 49 18 63
0.739411 0.134438 1.600000 49 21 47
0.739411 0.137239 1.600000 39 21 32
0.735714 0.139340 1.592000 30 26 25
0.735714 0.142127 1.592000 30 20 19
0.735714 0.144913 1.592000 31 21 18
0.735714 0.147700 1.592000 27 19 18
0.735714 0.150487 1.592000 23 21 17
0.732479 0.152600 1.585000 25 20 16
0.732479 0.155374 1.585000 26 25 18
0.732479 0.158149 1.585000 26 19 20
0.732479 0.160923 1.585000 26 18 21
0.729244 0.162975 1.578000 34 20 22
0.729244 0.165737 1.578000 42 23 24
0.729244 0.168500 1.578000 38 23 26
0.729244 0.171262 1.578000 34 21 23
0.729244 0.174024 1.578000 36 18 20
0.729244 0.176787 1.578000 38 16 18
0.729244 0.179549 1.578000 38 15 17
0.729244 0.182311 1.578000 39 10 21
0.729244 0.185073 1.578000 41 17 25
0.729244 0.187836 1.578000 43 7 28
0.729244 0.190598 1.578000 43 21 32
0.729244 0.193360 1.578000 42 13 28
0.726009 0.195253 1.571000 40 21 25
0.726009 0.198003 1.571000 38 21 19
0.732479 0.202542 1.585000 41 16 14
0.729244 0.204409 1.578000 44 7 27
0.729244 0.207172 1.578000 46 28 41
0.729244 0.209934 1.578000 49 20 34
0.732479 0.213640 1.585000 47 29 27
0.735714 0.217370 1.592000 46 31 21
0.735714 0.220157 1.592000 43 24 16
0.722312 0.238035 1.563000 26 18 13
0.722312 0.240771 1.563000 27 15 14
0.726009 0.244753 1.571000 23 13 16
0.726009 0.247503 1.571000 18 10 12
0.726009 0.250253 1.571000 16 10 9
0.722312 0.251715 1.563000 13 10 5
0.726009 0.255753 1.571000 14 9 2
0.726009 0.258503 1.571000 15 10 2
0.726009 0.261253 1.571000 13 11 3
0.726009 0.264003 1.571000 12 12 8
0.726009 0.266753 1.571000 11 13 13
0.726009 0.269504 1.571000 11 17 11
0.726009 0.272254 1.571000 12 15 9
0.726009 0.275004 1.571000 12 15 6
0.726009 0.277754 1.571000 12 13 4
0.726009 0.280504 1.571000 12 14 5
0.726009 0.283254 1.571000 12 13 6
0.726009 0.286004 1.571000 13 12 4
0.726009 0.288754 1.571000 14 10 3
0.726009 0.291504 1.571000 15 10 5
0.726009 0.294254 1.571000 15 11 8
0.726009 0.297004 1.571000 15 12 7
0.726009 0.299754 1.571000 15 11 7
0.726009 0.302504 1.571000 16 10 7
0.726009 0.305254 1.571000 14 11 7
0.722312 0.306436 1.563000 12 12 9
0.722312 0.309172 1.563000 12 11 11
0.726009 0.313504 1.571000 13 12 12
0.726009 0.316254 1.571000 13 11 13
0.722312 0.317380 1.563000 14 9 11
0.722312 0.320116 1.563000 13 9 10
0.719078 0.321406 1.556000 12 9 12
0.719078 0.324130 1.556000 14 9 15
0.719078 0.326853 1.556000 16 9 13
0.719078 0.329577 1.556000 15 10 11
0.719078 0.332301 1.556000 15 12 11
0.719078 0.335025 1.556000 12 11 11
0.715843 0.336229 1.549000 10 11 8
0.715843 0.338941 1.549000 12 10 5
0.715843 0.341652 1.549000 15 10 5
0.715843 0.344364 1.549000 15 9 5
0.715843 0.347075 1.549000 14 9 3
0.719078 0.351367 1.556000 17 8 2
0.719078 0.354091 1.556000 20 9 8
0.719078 0.356815 1.556000 14 10 14
0.719078 0.359539 1.556000 8 11 9
0.719078 0.362263 1.556000 9 10 5
0.715843 0.363344 1.549000 11 10 7
0.715843 0.366056 1.549000 12 8 9
0.715843 0.368767 1.549000 14 8 10
0.715843 0.371479 1.549000 13 10 12
0.715843 0.374190 1.549000 13 13 13
0.715843 0.376902 1.549000 15 12 14
0.715843 0.379613 1.549000 18 14 14
0.715843 0.382325 1.549000 17 12 15
0.715843 0.385037 1.549000 16 10 18
0.715843 0.387748 1.549000 13 12 21
0.715843 0.390460 1.549000 10 12 19
0.712608 0.391394 1.542000 12 13 18
0.712608 0.394094 1.542000 13 14 19
0.712608 0.396793 1.542000 12 13 21
0.709835 0.397938 1.536000 11 12 21
0.703365 0.396975 1.522000 13 12 21
0.700130 0.397801 1.515000 15 14 18
0.697357 0.398867 1.509000 18 13 15
0.703365 0.404968 1.522000 21 14 16
0.659925 0.382456 1.428000 22 14 17
0.659925 0.384956 1.428000 24 17 12
0.654379 0.384200 1.416000 20 15 7
0.659925 0.389955 1.428000 16 14 13
0.662697 0.394104 1.434000 16 12 20
0.685342 0.423147 1.483000 14 13 21
0.688115 0.427465 1.489000 14 14 18
0.685342 0.428339 1.483000 17 14 15
0.685342 0.430935 1.483000 20 14 15
0.679334 0.429730 1.470000 20 15 16
0.679334 0.442596 1.470000 30 21 23
0.679334 0.445170 1.470000 30 25 26
0.682569 0.449875 1.477000 31 27 23
0.685342 0.454299 1.483000 32 29 21
0.688115 0.458743 1.489000 33 31 22
0.688115 0.461350 1.489000 33 29 23
0.700130 0.472057 1.515000 33 29 27
0.700130 0.474709 1.515000 32 28 31
0.709835 0.483978 1.536000 32 27 26
0.709835 0.486667 1.536000 34 27 22
0.703365 0.484896 1.522000 36 28 16
0.703365 0.487560 1.522000 37 32 10
0.703365 0.490224 1.522000 39 34 15
0.703365 0.492888 1.522000 41 36 21
0.703365 0.495553 1.522000 44 39 25
0.700130 0.495926 1.515000 45 41 30
0.700130 0.498578 1.515000 47 43 32
0.700130 0.501230 1.515000 49 44 34
0.700130 0.503882 1.515000 51 45 35
0.697357 0.504528 1.509000 51 47 37
0.694122 0.504816 1.502000 51 51 39
0.697357 0.509811 1.509000 51 49 41
0.697357 0.512452 1.509000 52 48 40
0.697357 0.515094 1.509000 53 48 39
0.700130 0.519794 1.515000 54 50 38
0.700130 0.522446 1.515000 56 50 37
0.700130 0.525098 1.515000 59 50 41
0.700130 0.527750 1.515000 57 48 45
0.700130 0.530402 1.515000 56 46 46
0.700130 0.533054 1.515000 57 50 47
0.700130 0.535706 1.515000 59 54 47
0.700130 0.538358 1.515000 57 49 47
0.700130 0.541010 1.515000 55 47 43
0.700130 0.543662 1.515000 52 43 39
0.700130 0.546314 1.515000 49 41 27
0.700130 0.548966 1.515000 52 42 16
0.700130 0.551618 1.515000 54 46 28
0.703365 0.556831 1.522000 53 45 40
0.703365 0.559495 1.522000 51 46 30
0.703365 0.562159 1.522000 49 43 21
0.703365 0.564824 1.522000 47 40 27
0.703365 0.567488 1.522000 46 41 34
0.703365 0.570152 1.522000 45 41 31
0.703365 0.572816 1.522000 48 41 29
0.700130 0.572834 1.515000 51 42 31
0.700130 0.575486 1.515000 53 42 34
0.697357 0.575848 1.509000 55 44 36
0.697357 0.578490 1.509000 52 44 39
0.700130 0.583442 1.515000 49 44 34
0.694122 0.581065 1.502000 49 43 30
0.697357 0.586414 1.509000 48 46 29
0.697357 0.589056 1.509000 47 45 29
0.813650 -0.687764 1.754000 24 17 24
0.813650 -0.684694 1.754000 22 18 20
0.813650 -0.681624 1.754000 21 18 22
0.813650 -0.678553 1.754000 21 20 25
0.813650 -0.675483 1.754000 21 18 20
0.813650 -0.672413 1.754000 20 18 16
0.817825 -0.672777 1.763000 19 19 15
0.817825 -0.669691 1.763000 19 22 14
0.817825 -0.666604 1.763000 20 21 17
0.817825 -0.663518 1.763000 17 19 20
0.817825 -0.660432 1.763000 15 20 21
0.817825 -0.657346 1.763000 18 22 22
0.817825 -0.654260 1.763000 21 18 24
0.809475 -0.644525 1.745000 20 17 26
0.809475 -0.641471 1.745000 19 17 24
0.805300 -0.635123 1.736000 22 17 22
0.805300 -0.632085 1.736000 25 17 19
0.805300 -0.629046 1.736000 22 17 17
0.801589 -0.623122 1.728000 19 17 15
0.801589 -0.620097 1.728000 22 17 14
0.801589 -0.617072 1.728000 26 20 14
0.801589 -0.614047 1.728000 24 26 15
0.801589 -0.611023 1.728000 22 22 18
0.805300 -0.610813 1.736000 24 20 21
0.805300 -0.607774 1.736000 26 19 22
0.805300 -0.604735 1.736000 26 20 22
0.805300 -0.601696 1.736000 26 20 18
0.805300 -0.598657 1.736000 23 23 14
0.805300 -0.595618 1.736000 21 21 19
0.801589 -0.589849 1.728000 21 21 24
0.801589 -0.586824 1.728000 21 19 27
0.797414 -0.580758 1.719000 19 18 30
0.797414 -0.577749 1.719000 18 18 27
0.801589 -0.577749 1.728000 22 20 23
0.797414 -0.571731 1.719000 26 19 21
0.797414 -0.568722 1.719000 24 17 19
0.797414 -0.565713 1.719000 23 17 17
0.793703 -0.560085 1.711000 21 19 16
0.793703 -0.557090 1.711000 19 17 21
0.793703 -0.554095 1.711000 20 17 26
0.789528 -0.548201 1.702000 21 15 21
0.789528 -0.545221 1.702000 21 14 16
0.793703 -0.545109 1.711000 21 13 20
0.789528 -0.539263 1.702000 21 14 25
0.789528 -0.536283 1.702000 21 14 23
0.789528 -0.533304 1.702000 22 13 22
0.789528 -0.530325 1.702000 24 14 23
0.789528 -0.527345 1.702000 22 15 25
0.789528 -0.524366 1.702000 20 18 23
0.789528 -0.521386 1.702000 17 21 20
0.789528 -0.518407 1.702000 15 20 20
0.789528 -0.515428 1.702000 18 21 20
0.789528 -0.512448 1.702000 21 19 20
0.789528 -0.509469 1.702000 23 20 20
0.789528 -0.506490 1.702000 25 18 20
0.789528 -0.503510 1.702000 24 17 20
0.789528 -0.500531 1.702000 24 18 18
0.785817 -0.495213 1.694000 23 17 15
0.785817 -0.492248 1.694000 23 17 14
0.785817 -0.489282 1.694000 25 17 12
0.785817 -0.486317 1.694000 27 15 16
0.785817 -0.483352 1.694000 25 16 20
0.785817 -0.480386 1.694000 24 16 16
0.785817 -0.477421 1.694000 23 18 13
0.782106 -0.472215 1.686000 23 16 16
0.782106 -0.469264 1.686000 23 16 18
0.782106 -0.466312 1.686000 24 16 17
0.785817 -0.465560 1.694000 20 17 16
0.785817 -0.462594 1.694000 17 18 16
0.782106 -0.457458 1.686000 18 19 17
0.785817 -0.456663 1.694000 20 17 19
0.785817 -0.453698 1.694000 27 15 22
0.785817 -0.450733 1.694000 35 15 20
0.785817 -0.447767 1.694000 30 17 17
0.785817 -0.444802 1.694000 26 18 18
0.785817 -0.441837 1.694000 25 17 19
0.782106 -0.436799 1.686000 24 17 21
0.782106 -0.433847 1.686000 25 18 23
0.782106 -0.430896 1.686000 26 18 20
0.782106 -0.427945 1.686000 23 19 18
0.782106 -0.424993 1.686000 20 19 19
0.782106 -0.422042 1.686000 18 19 20
0.785817 -0.421079 1.694000 17 19 19
0.785817 -0.418114 1.694000 21 21 18
0.785817 -0.415149 1.694000 26 21 18
0.782106 -0.410237 1.686000 23 19 18
0.782106 -0.407285 1.686000 21 19 17
0.785817 -0.406253 1.694000 23 19 16
0.782106 -0.401383 1.686000 26 20 17
0.782106 -0.398431 1.686000 23 22 18
0.782106 -0.395480 1.686000 21 21 18
0.782106 -0.392529 1.686000 23 22 18
0.782106 -0.389577 1.686000 26 20 18
0.785817 -0.388461 1.694000 26 20 19
0.785817 -0.385495 1.694000 26 19 22
0.782106 -0.380723 1.686000 27 20 26
0.782106 -0.377772 1.686000 28 21 20
0.782106 -0.374821 1.686000 26 24 14
0.782106 -0.371869 1.686000 25 23 21
0.777931 -0.366949 1.677000 25 21 29
0.777931 -0.364013 1.677000 26 21 23
0.777931 -0.361077 1.677000 29 22 18
0.777931 -0.358142 1.677000 32 21 17
0.777931 -0.355206 1.677000 30 22 16
0.777931 -0.352271 1.677000 28 21 18
0.777931 -0.349335 1.677000 29 24 21
0.777931 -0.346399 1.677000 30 21 20
0.777931 -0.343464 1.677000 29 22 19
0.774220 -0.338904 1.669000 28 20 23
0.774220 -0.335982 1.669000 29 19 27
0.774220 -0.333061 1.669000 30 19 23
0.774220 -0.330139 1.669000 32 17 20
0.774220 -0.327217 1.669000 34 19 26
0.774220 -0.324296 1.669000 32 23 33
0.774220 -0.321374 1.669000 30 21 26
0.774220 -0.318453 1.669000 30 20 19
0.774220 -0.315531 1.669000 30 22 26
0.774220 -0.312610 1.669000 30 21 33
0.774220 -0.309688 1.669000 30 20 32
0.774220 -0.306766 1.669000 33 21 31
0.774220 -0.303845 1.669000 36 20 30
0.774220 -0.300923 1.669000 31 18 29
0.770509 -0.296573 1.661000 27 20 28
0.774220 -0.295080 1.669000 26 23 27
0.770509 -0.290758 1.661000 25 23 24
0.770509 -0.287850 1.661000 24 21 21
0.770509 -0.284943 1.661000 23 17 19
0.770509 -0.282035 1.661000 23 16 17
0.770509 -0.279128 1.661000 24 15 20
0.770509 -0.276220 1.661000 21 15 23
0.770509 -0.273313 1.661000 19 17 21
0.770509 -0.270405 1.661000 17 18 18
0.770509 -0.267497 1.661000 16 17 15
0.770509 -0.264590 1.661000 18 20 12
0.770509 -0.261682 1.661000 21 17 19
0.774220 -0.260021 1.669000 25 17 27
0.774220 -0.257099 1.669000 30 25 36
0.774220 -0.254178 1.669000 32 38 46
0.774220 -0.251256 1.669000 35 38 46
0.770509 -0.247144 1.661000 37 40 46
0.770509 -0.244237 1.661000 39 37 47
0.770509 -0.241329 1.661000 36 36 48
0.770509 -0.238422 1.661000 34 36 47
0.770509 -0.235514 1.661000 35 38 46
0.770509 -0.232606 1.661000 36 40 54
0.770509 -0.229699 1.661000 36 45 62
0.766798 -0.225699 1.653000 37 44 66
0.766798 -0.222805 1.653000 35 44 71
0.766798 -0.219912 1.653000 34 43 67
0.770509 -0.218069 1.661000 37 45 64
0.766798 -0.214125 1.653000 41 42 66
0.766798 -0.211231 1.653000 39 42 68
0.766798 -0.208338 1.653000 38 43 70
0.766798 -0.205444 1.653000 34 44 72
0.766798 -0.202550 1.653000 31 40 63
0.766798 -0.199657 1.653000 22 34 53
0.766798 -0.196763 1.653000 13 26 48
0.766798 -0.193870 1.653000 20 19 44
0.766798 -0.190976 1.653000 28 21 37
0.766798 -0.188082 1.653000 29 21 30
0.766798 -0.185189 1.653000 31 23 32
0.766798 -0.182295 1.653000 31 23 35
0.766798 -0.179402 1.653000 31 25 32
0.763087 -0.175654 1.645000 30 28 30
0.763087 -0.172774 1.645000 30 27 26
0.763087 -0.169895 1.645000 30 28 23
0.763087 -0.167015 1.645000 30 26 32
0.763087 -0.164136 1.645000 28 24 42
0.763087 -0.161256 1.645000 26 24 33
0.763087 -0.158376 1.645000 26 26 25
0.763087 -0.155497 1.645000 27 25 29
0.763087 -0.152617 1.645000 25 26 33
0.763087 -0.149738 1.645000 23 26 35
0.763087 -0.146858 1.645000 23 27 37
0.759840 -0.143366 1.638000 23 26 35
0.763087 -0.141099 1.645000 20 26 33
0.763087 -0.138219 1.645000 17 26 37
0.759840 -0.134764 1.638000 20 26 42
0.759840 -0.131897 1.638000 23 26 37
0.759840 -0.129029 1.638000 22 28 33
0.759840 -0.126162 1.638000 21 26 36
0.763087 -0.123822 1.645000 16 26 40
0.759840 -0.120427 1.638000 12 25 38
0.759840 -0.117560 1.638000 19 26 37
0.759840 -0.114693 1.638000 27 25 36
0.759840 -0.111825 1.638000 29 26 34
0.759840 -0.108958 1.638000 32 28 40
0.756129 -0.105573 1.630000 30 27 46
0.756129 -0.102719 1.630000 28 25 43
0.756129 -0.099866 1.630000 27 25 40
0.756129 -0.097013 1.630000 26 24 34
0.756129 -0.094159 1.630000 28 25 28
0.756129 -0.091306 1.630000 30 22 27
0.756129 -0.088453 1.630000 30 22 25
0.756129 -0.085599 1.630000 31 23 26
0.759840 -0.083152 1.638000 32 26 27
0.759840 -0.080285 1.638000 33 25 23
0.759840 -0.077418 1.638000 32 25 20
0.756129 -0.074186 1.630000 31 25 24
0.756129 -0.071333 1.630000 35 29 28
0.756129 -0.068480 1.630000 39 30 33
0.752418 -0.065304 1.622000 40 30 38
0.752418 -0.062465 1.622000 41 33 35
0.752418 -0.059626 1.622000 38 36 32
0.752418 -0.056786 1.622000 35 33 36
0.752418 -0.053947 1.622000 36 31 40
0.756129 -0.051360 1.630000 38 30 37
0.756129 -0.048506 1.630000 38 31 35
0.756129 -0.045653 1.630000 39 32 32
0.756129 -0.042800 1.630000 39 34 30
0.756129 -0.039946 1.630000 40 34 31
0.756129 -0.037093 1.630000 41 34 33
0.756129 -0.034240 1.630000 42 35 34
0.756129 -0.031386 1.630000 45 39 36
0.752418 -0.028393 1.622000 48 37 37
0.752418 -0.025554 1.622000 47 37 38
0.749170 -0.022616 1.615000 47 41 44
0.752418 -0.019875 1.622000 45 42 49
0.752418 -0.017036 1.622000 44 40 40
0.752418 -0.014197 1.622000 44 40 31
0.745459 -0.011252 1.607000 45 40 33
0.749170 -0.008481 1.615000 47 42 34
0.745459 -0.005626 1.607000 49 40 36
0.749170 -0.002827 1.615000 54 40 39
0.752418 -0.000000 1.622000 59 43 42
0.749170 0.002827 1.615000 49 41 46
0.749170 0.005654 1.615000 39 31 35
0.749170 0.008481 1.615000 34 22 25
0.749170 0.011308 1.615000 30 23 28
0.749170 0.014135 1.615000 27 26 31
0.745459 0.016878 1.607000 24 28 26
0.749170 0.019789 1.615000 33 30 22
0.749170 0.022617 1.615000 43 30 22
0.749170 0.025444 1.615000 46 32 23
0.749170 0.028271 1.615000 49 33 28
0.749170 0.031098 1.615000 46 33 34
0.745459 0.033757 1.607000 44 32 25
0.745459 0.036570 1.607000 44 33 17
0.745459 0.039383 1.607000 44 31 22
0.749170 0.042406 1.615000 43 30 26
0.745459 0.045009 1.607000 43 31 24
0.749170 0.048060 1.615000 42 33 22
0.749170 0.050887 1.615000 41 36 24
0.749170 0.053714 1.615000 44 39 26
0.749170 0.056541 1.615000 47 36 31
0.745459 0.059074 1.607000 39 40 36
0.745459 0.061887 1.607000 32 25 27
0.745459 0.064700 1.607000 35 26 18
0.745459 0.067513 1.607000 38 59 40
0.745459 0.070326 1.607000 67 1 62
0.742212 0.072821 1.600000 96 86 130
0.742212 0.075622 1.600000 111 1 197
0.742212 0.078422 1.600000 126 92 201
0.742212 0.081223 1.600000 142 1 205
0.742212 0.084024 1.600000 158 99 205
0.742212 0.086825 1.600000 156 1 205
0.742212 0.089626 1.600000 155 100 208
0.745459 0.092831 1.607000 151 1 211
0.745459 0.095644 1.607000 148 97 211
0.742212 0.098028 1.600000 150 1 210
0.742212 0.100829 1.600000 153 99 209
0.742212 0.103630 1.600000 144 1 208
0.742212 0.106430 1.600000 135 86 195
0.742212 0.109231 1.600000 134 1 183
0.742212 0.112032 1.600000 133 87 171
0.738501 0.114259 1.592000 133 23 160
0.738501 0.117045 1.592000 133 78 151
0.738501 0.119832 1.592000 110 2 142
0.742212 0.123235 1.600000 88 39 122
0.742212 0.126036 1.600000 70 4 102
0.742212 0.128837 1.600000 52 14 77
0.742212 0.131638 1.600000 49 8 52
0.742212 0.134438 1.600000 46 15 45
0.738501 0.136553 1.592000 40 28 39
0.735254 0.138727 1.585000 34 25 31
0.735254 0.141502 1.585000 35 22 23
0.735254 0.144276 1.585000 36 23 19
0.735254 0.147051 1.585000 31 26 15
0.735254 0.149825 1.585000 26 22 15
0.735254 0.152600 1.585000 26 21 16
0.735254 0.155374 1.585000 26 20 18
0.735254 0.158149 1.585000 21 17 20
0.735254 0.160923 1.585000 17 18 19
0.735254 0.163698 1.585000 26 17 18
0.735254 0.166473 1.585000 35 22 25
0.735254 0.169247 1.585000 33 23 32
0.732007 0.171262 1.578000 31 20 26
0.732007 0.174024 1.578000 30 14 21
0.732007 0.176787 1.578000 29 14 17
0.732007 0.179549 1.578000 26 9 14
0.732007 0.182311 1.578000 24 10 16
0.728759 0.184252 1.571000 26 8 18
0.728759 0.187002 1.571000 28 8 19
0.728759 0.189752 1.571000 29 6 20
0.728759 0.192503 1.571000 30 10 19
0.728759 0.195253 1.571000 30 12 19
0.725048 0.196994 1.563000 31 17 16
0.732007 0.201647 1.578000 22 16 13
0.732007 0.204409 1.578000 14 11 18
0.732007 0.207172 1.578000 26 9 23
0.735254 0.210865 1.585000 38 15 22
0.738501 0.214583 1.592000 41 22 22
0.738501 0.217370 1.592000 45 25 19
0.725048 0.240771 1.563000 24 16 16
0.725048 0.243507 1.563000 20 14 16
0.725048 0.246243 1.563000 17 11 13
0.718554 0.246749 1.549000 15 10 10
