ply
format ascii 1.0
element vertex 1327
property float x
property float y
property float z
property uchar red
property uchar green
property uchar blue
end_header
0.335219 0.909880 2.487000 45 40 40
0.335219 0.914234 2.487000 45 40 46
0.330367 0.905290 2.451000 42 41 52
0.328075 0.903272 2.434000 39 39 49
0.325784 0.901194 2.417000 42 39 46
0.325784 0.905425 2.417000 45 38 44
0.323492 0.903258 2.400000 44 38 43
0.319044 0.894982 2.367000 44 39 44
0.316888 0.893048 2.351000 44 40 46
0.312709 0.885333 2.320000 45 37 46
0.308531 0.877510 2.289000 44 35 46
0.306509 0.875740 2.274000 44 35 45
0.304487 0.873918 2.259000 44 35 44
0.542742 -1.537771 3.975000 49 38 47
0.542742 -1.530812 3.975000 48 40 45
0.542742 -1.523854 3.975000 48 40 44
0.518848 1.137475 3.800000 28 18 22
0.518848 1.144127 3.800000 30 19 27
0.453856 1.047359 3.324000 40 33 40
0.445390 1.033534 3.262000 42 35 43
0.445390 1.039244 3.262000 44 39 41
0.441158 1.035024 3.231000 44 38 39
0.441158 1.040680 3.231000 45 38 40
0.439792 1.043097 3.221000 45 38 41
0.400059 0.989890 2.930000 44 40 57
0.393369 0.978379 2.881000 46 41 49
0.393369 0.983422 2.881000 45 39 42
0.390092 0.980231 2.857000 44 38 44
0.390092 0.985232 2.857000 47 37 46
0.383675 0.973943 2.810000 50 35 46
0.380671 0.971199 2.788000 48 38 46
0.377530 0.968027 2.765000 46 41 46
0.371659 0.957737 2.722000 46 40 47
0.365925 0.947651 2.680000 46 40 46
0.363057 0.944880 2.659000 45 38 46
0.349540 0.914181 2.560000 44 37 50
0.349540 0.918663 2.560000 45 39 54
0.349540 0.923144 2.560000 45 41 51
0.347082 0.921103 2.542000 45 39 48
0.344488 0.918635 2.523000 45 39 47
0.342030 0.916466 2.505000 45 39 46
0.339572 0.914234 2.487000 45 41 52
0.337115 0.911939 2.469000 45 39 59
0.332336 0.903272 2.434000 44 38 54
0.330015 0.901194 2.417000 44 37 50
0.327694 0.899057 2.400000 44 37 47
0.325509 0.897236 2.384000 44 37 45
0.321003 0.888932 2.351000 44 39 47
0.318819 0.886970 2.335000 44 38 50
0.316770 0.885333 2.320000 45 38 46
0.312538 0.877510 2.289000 44 36 43
0.310490 0.875740 2.274000 44 36 42
0.308442 0.873918 2.259000 44 37 42
0.549701 -1.537771 3.975000 50 38 50
0.549701 -1.530812 3.975000 50 39 47
0.525500 1.137475 3.800000 29 18 25
0.525500 1.144127 3.800000 33 19 29
0.459674 1.047359 3.324000 40 33 39
0.455387 1.043356 3.293000 42 34 41
0.451100 1.039244 3.262000 44 36 38
0.446813 1.035024 3.231000 45 36 35
0.446813 1.040680 3.231000 47 38 37
0.444048 1.039858 3.211000 46 39 40
0.401731 0.981444 2.905000 45 39 52
0.398412 0.978379 2.881000 46 40 46
0.395093 0.975230 2.857000 45 40 41
0.391912 0.972340 2.834000 44 39 42
0.388594 0.969024 2.810000 46 39 43
0.385551 0.966318 2.788000 49 38 44
0.382370 0.963187 2.765000 47 40 46
0.379328 0.960324 2.743000 46 39 47
0.376424 0.957737 2.722000 46 41 49
0.370616 0.947651 2.680000 47 39 46
0.367712 0.944880 2.659000 46 39 44
0.356787 0.921323 2.580000 45 38 46
0.354021 0.918663 2.560000 45 38 49
0.354021 0.923144 2.560000 45 38 47
0.351532 0.921103 2.542000 45 39 45
0.348904 0.918635 2.523000 45 39 45
0.346415 0.916466 2.505000 45 39 46
0.343926 0.914234 2.487000 46 39 50
0.341437 0.911939 2.469000 48 38 54
0.338948 0.909581 2.451000 50 36 51
0.336597 0.907533 2.434000 47 37 47
0.331895 0.899057 2.400000 44 36 46
0.327331 0.890838 2.367000 44 35 44
0.325119 0.888932 2.351000 44 36 46
0.322906 0.886970 2.335000 44 37 47
0.320832 0.885333 2.320000 45 36 45
0.316545 0.877510 2.289000 44 37 44
0.314470 0.875740 2.274000 44 37 44
0.312396 0.873918 2.259000 44 40 44
0.556659 -1.537771 3.975000 49 38 53
0.538034 1.136596 3.842000 23 16 20
0.532152 1.137475 3.800000 27 17 28
0.532152 1.144127 3.800000 29 17 31
0.461152 1.037592 3.293000 40 33 38
0.461152 1.043356 3.293000 42 35 39
0.452469 1.029368 3.231000 43 36 35
0.452469 1.035024 3.231000 44 36 31
0.448268 1.031017 3.201000 45 39 35
0.448268 1.036620 3.201000 44 39 40
0.406816 0.981444 2.905000 45 39 47
0.403455 0.978379 2.881000 46 41 44
0.403455 0.983422 2.881000 46 39 41
0.400094 0.980231 2.857000 46 39 41
0.393512 0.969024 2.810000 46 38 41
0.390432 0.966318 2.788000 47 40 43
0.387211 0.963187 2.765000 47 38 46
0.384130 0.960324 2.743000 47 35 48
0.381189 0.957737 2.722000 49 37 51
0.378248 0.955077 2.701000 51 38 46
0.372366 0.944880 2.659000 48 38 42
0.361303 0.921323 2.580000 45 39 43
0.358502 0.918663 2.560000 45 38 45
0.358502 0.923144 2.560000 45 37 43
0.355982 0.921103 2.542000 45 38 42
0.353321 0.918635 2.523000 45 40 44
0.350800 0.916466 2.505000 45 40 46
0.348280 0.914234 2.487000 45 39 48
0.348280 0.918587 2.487000 47 36 50
0.343238 0.909581 2.451000 48 34 47
0.338477 0.901194 2.417000 46 35 45
0.336096 0.899057 2.400000 43 35 44
0.331475 0.890838 2.367000 44 34 44
0.329234 0.888932 2.351000 45 36 44
0.326993 0.886970 2.335000 46 35 45
0.324893 0.885333 2.320000 47 34 45
0.318451 0.871760 2.274000 45 35 45
0.316350 0.869964 2.259000 43 36 46
0.314250 0.868115 2.244000 44 37 47
0.557237 1.148871 3.930000 16 14 12
0.557237 1.155750 3.930000 21 14 16
0.544759 1.136596 3.842000 23 17 20
0.544759 1.143322 3.842000 26 17 23
0.544759 1.150047 3.842000 26 17 27
0.538804 1.144127 3.800000 26 19 30
0.466916 1.037592 3.293000 41 34 39
0.462521 1.033534 3.262000 42 37 39
0.458125 1.029368 3.231000 43 36 36
0.458125 1.035024 3.231000 43 36 34
0.458125 1.040680 3.231000 43 38 37
0.453871 1.036620 3.201000 43 39 40
0.453871 1.042223 3.201000 44 39 42
0.408498 0.973336 2.881000 45 40 45
0.408498 0.978379 2.881000 46 40 43
0.405096 0.975230 2.857000 47 39 41
0.405096 0.980231 2.857000 49 38 41
0.398431 0.969024 2.810000 47 37 41
0.395312 0.966318 2.788000 45 39 42
0.395312 0.971199 2.788000 47 40 44
0.388931 0.960324 2.743000 49 37 45
0.385954 0.957737 2.722000 52 37 46
0.379999 0.947651 2.680000 55 38 43
0.377021 0.944880 2.659000 50 39 40
0.362984 0.914181 2.560000 45 38 41
0.362984 0.918663 2.560000 45 38 43
0.362984 0.923144 2.560000 45 38 43
0.360431 0.921103 2.542000 45 39 44
0.357737 0.918635 2.523000 45 40 44
0.357737 0.923051 2.523000 45 42 44
0.355185 0.920851 2.505000 45 39 44
0.352633 0.918587 2.487000 46 36 45
0.347529 0.909581 2.451000 47 34 46
0.345118 0.907533 2.434000 45 34 47
0.340297 0.899057 2.400000 43 33 45
0.335618 0.890838 2.367000 45 33 44
0.333350 0.888932 2.351000 47 34 45
0.333350 0.893048 2.351000 48 34 47
0.331081 0.891057 2.335000 49 34 46
0.322432 0.871760 2.274000 46 34 45
0.318178 0.864187 2.244000 43 34 46
0.316193 0.862699 2.230000 43 34 48
0.564116 1.148871 3.930000 15 14 10
0.564116 1.155750 3.930000 18 14 15
0.551484 1.136596 3.842000 22 17 20
0.551484 1.143322 3.842000 25 18 23
0.551484 1.150047 3.842000 25 17 27
0.545456 1.144127 3.800000 26 19 30
0.545456 1.150779 3.800000 31 22 33
0.413542 0.973336 2.881000 46 39 43
0.413542 0.978379 2.881000 46 41 42
0.413542 0.983422 2.881000 47 38 41
0.410097 0.980231 2.857000 49 37 41
0.406795 0.977301 2.834000 46 37 42
0.403350 0.973943 2.810000 43 39 42
0.400192 0.971199 2.788000 45 39 42
0.396891 0.968027 2.765000 47 39 41
0.390719 0.957737 2.722000 48 38 41
0.384690 0.947651 2.680000 50 39 39
0.378805 0.937773 2.639000 47 38 38
0.367465 0.914181 2.560000 45 36 39
0.367465 0.918663 2.560000 45 37 41
0.364881 0.916653 2.542000 45 39 43
0.364881 0.921103 2.542000 45 39 46
0.364881 0.925553 2.542000 45 40 44
0.362154 0.923051 2.523000 44 40 43
0.362154 0.927468 2.523000 43 40 41
0.359570 0.925236 2.505000 44 37 40
0.354403 0.916261 2.469000 45 34 44
0.351819 0.913871 2.451000 46 33 49
0.344498 0.899057 2.400000 48 32 46
0.337465 0.884817 2.351000 47 33 44
0.337465 0.888932 2.351000 46 35 47
0.337465 0.893048 2.351000 46 35 50
0.335168 0.891057 2.335000 46 37 47
0.324259 0.866009 2.259000 45 35 45
0.320096 0.858795 2.230000 43 35 47
0.320096 0.862699 2.230000 45 35 50
0.577534 1.162026 3.975000 15 17 12
0.570996 1.155750 3.930000 16 16 15
0.564457 1.149317 3.885000 20 19 19
0.564457 1.156118 3.885000 25 17 23
0.558210 1.150047 3.842000 25 16 27
0.558210 1.156773 3.842000 26 18 28
0.422072 0.981444 2.905000 47 39 42
0.418585 0.978379 2.881000 46 39 39
0.418585 0.983422 2.881000 47 37 37
0.415098 0.980231 2.857000 49 37 39
0.411756 0.977301 2.834000 45 37 41
0.408269 0.973943 2.810000 41 39 42
0.408269 0.978862 2.810000 43 39 44
0.405073 0.976079 2.788000 45 39 42
0.395483 0.957737 2.722000 45 39 41
0.389381 0.947651 2.680000 45 38 41
0.383424 0.937773 2.639000 45 39 41
0.374852 0.921323 2.580000 45 36 42
0.371946 0.918663 2.560000 45 37 43
0.371946 0.923144 2.560000 45 37 45
0.369331 0.921103 2.542000 45 39 48
0.369331 0.925553 2.542000 45 39 45
0.366570 0.923051 2.523000 43 40 42
0.366570 0.927468 2.523000 42 40 41
0.363955 0.925236 2.505000 43 39 40
0.356109 0.909581 2.451000 44 34 43
0.348700 0.894856 2.400000 48 33 47
0.343905 0.886695 2.367000 53 32 45
0.341580 0.884817 2.351000 49 33 44
0.341580 0.888932 2.351000 45 35 45
0.341580 0.893048 2.351000 44 37 47
0.339256 0.891057 2.335000 44 37 45
0.334752 0.883261 2.304000 44 37 42
0.326034 0.864187 2.244000 44 36 46
0.324000 0.862699 2.230000 46 37 49
0.584492 1.162026 3.975000 15 13 14
0.577875 1.155750 3.930000 16 15 16
0.577875 1.162630 3.930000 20 17 19
0.571258 1.156118 3.885000 25 18 23
0.571258 1.162919 3.885000 26 17 27
0.518764 1.093110 3.528000 39 30 35
0.430833 0.984761 2.930000 47 39 41
0.427157 0.981444 2.905000 46 39 41
0.427157 0.986529 2.905000 45 41 37
0.423628 0.983422 2.881000 46 38 34
0.420099 0.980231 2.857000 47 38 37
0.416717 0.977301 2.834000 45 38 41
0.413188 0.973943 2.810000 43 41 43
0.413188 0.978862 2.810000 44 39 46
0.409953 0.976079 2.788000 45 39 43
0.403336 0.965126 2.743000 45 38 41
0.394073 0.947651 2.680000 46 35 43
0.385103 0.930666 2.619000 47 35 45
0.379368 0.921323 2.580000 48 34 45
0.376428 0.918663 2.560000 47 34 45
0.376428 0.923144 2.560000 46 34 47
0.373781 0.921103 2.542000 45 36 50
0.373781 0.925553 2.542000 45 39 46
0.370987 0.923051 2.523000 43 39 42
0.368340 0.920851 2.505000 41 41 41
0.365693 0.918587 2.487000 42 37 41
0.360400 0.909581 2.451000 43 32 43
0.350548 0.888890 2.384000 46 31 45
0.348048 0.886695 2.367000 49 32 44
0.345696 0.884817 2.351000 47 34 44
0.345696 0.888932 2.351000 44 38 44
0.345696 0.893048 2.351000 44 37 45
0.343343 0.891057 2.335000 43 38 42
0.341137 0.889394 2.320000 43 37 40
0.329962 0.864187 2.244000 43 35 44
0.327904 0.862699 2.230000 45 34 49
0.584755 1.148871 3.930000 15 13 11
0.584755 1.155750 3.930000 16 15 15
0.584755 1.162630 3.930000 21 19 19
0.584755 1.169509 3.930000 26 18 21
0.584755 1.176389 3.930000 26 20 24
0.524940 1.080759 3.528000 35 26 38
0.524940 1.086935 3.528000 37 28 36
0.519732 1.082266 3.493000 38 33 35
0.519732 1.088381 3.493000 40 32 36
0.435962 0.984761 2.930000 45 39 44
0.432242 0.981444 2.905000 45 38 43
0.432242 0.986529 2.905000 45 39 40
0.428671 0.983422 2.881000 45 39 37
0.428671 0.988465 2.881000 45 37 39
0.421678 0.977301 2.834000 45 39 41
0.421678 0.982262 2.834000 45 39 42
0.418107 0.978862 2.810000 45 40 43
0.414833 0.976079 2.788000 45 39 42
0.408138 0.965126 2.743000 46 39 40
0.401889 0.955077 2.701000 48 36 42
0.395639 0.944880 2.659000 50 34 45
0.383885 0.921323 2.580000 52 34 44
0.380909 0.918663 2.560000 50 34 43
0.380909 0.923144 2.560000 48 35 45
0.378231 0.921103 2.542000 46 33 47
0.378231 0.925553 2.542000 45 36 43
0.375403 0.923051 2.523000 43 38 40
0.372725 0.920851 2.505000 41 38 40
0.370047 0.918587 2.487000 41 37 40
0.364690 0.909581 2.451000 42 34 42
0.354721 0.888890 2.384000 44 30 44
0.352192 0.886695 2.367000 46 31 44
0.349811 0.884817 2.351000 45 34 43
0.349811 0.888932 2.351000 44 35 42
0.347431 0.886970 2.335000 43 36 41
0.347431 0.891057 2.335000 43 37 38
0.345199 0.889394 2.320000 43 39 34
0.333890 0.864187 2.244000 43 36 39
0.331807 0.862699 2.230000 45 35 44
0.591634 1.155750 3.930000 16 16 14
0.584860 1.149317 3.885000 20 17 19
0.531116 1.080759 3.528000 35 27 32
0.525847 1.076152 3.493000 37 27 33
0.531116 1.093110 3.528000 38 30 35
0.531116 1.099286 3.528000 39 33 35
0.441091 0.979632 2.930000 41 39 51
0.437327 0.976359 2.905000 43 40 48
0.437327 0.981444 2.905000 44 39 45
0.437327 0.986529 2.905000 45 39 42
0.433714 0.983422 2.881000 46 37 40
0.433714 0.988465 2.881000 48 35 40
0.430101 0.985232 2.857000 46 37 41
0.426639 0.982262 2.834000 45 38 41
0.423026 0.978862 2.810000 44 37 41
0.412939 0.960324 2.743000 44 39 40
0.409778 0.957737 2.722000 45 39 40
0.406617 0.955077 2.701000 46 39 42
0.400294 0.944880 2.659000 47 35 45
0.397283 0.942392 2.639000 48 34 43
0.388401 0.925840 2.580000 47 36 41
0.385390 0.923144 2.560000 46 39 42
0.382680 0.921103 2.542000 45 35 44
0.379820 0.918635 2.523000 44 36 41
0.377110 0.916466 2.505000 43 36 39
0.374400 0.914234 2.487000 42 36 39
0.371691 0.911939 2.469000 42 36 39
0.368981 0.909581 2.451000 42 37 41
0.363862 0.901194 2.417000 42 33 44
0.358895 0.893063 2.384000 42 31 43
0.353927 0.884817 2.351000 43 33 43
0.353927 0.888932 2.351000 43 35 40
0.351518 0.886970 2.335000 41 35 38
0.351518 0.891057 2.335000 39 38 33
0.346851 0.883261 2.304000 40 37 29
0.335711 0.858795 2.230000 42 36 34
0.335711 0.862699 2.230000 43 34 39
0.537291 1.074583 3.528000 33 26 28
0.537291 1.080759 3.528000 35 30 31
0.537291 1.086935 3.528000 37 28 37
0.537291 1.093110 3.528000 38 29 42
0.537291 1.099286 3.528000 39 30 40
0.446220 0.979632 2.930000 41 39 47
0.442413 0.976359 2.905000 41 39 46
0.442413 0.981444 2.905000 43 41 45
0.442413 0.986529 2.905000 45 39 42
0.438758 0.983422 2.881000 48 38 40
0.438758 0.988465 2.881000 52 36 39
0.435103 0.985232 2.857000 48 36 37
0.431600 0.982262 2.834000 45 36 42
0.424594 0.971199 2.788000 44 34 48
0.421091 0.968027 2.765000 44 36 45
0.417741 0.965126 2.743000 44 39 42
0.411345 0.955077 2.701000 44 37 43
0.408147 0.952342 2.680000 44 36 45
0.401903 0.942392 2.639000 44 35 44
0.392917 0.925840 2.580000 44 38 43
0.389871 0.923144 2.560000 45 37 43
0.387130 0.921103 2.542000 44 35 44
0.384237 0.918635 2.523000 44 36 43
0.381495 0.916466 2.505000 43 37 42
0.378754 0.914234 2.487000 43 36 43
0.376013 0.911939 2.469000 42 36 44
0.373271 0.909581 2.451000 42 35 45
0.368093 0.901194 2.417000 40 34 46
0.363068 0.893063 2.384000 39 33 45
0.358042 0.884817 2.351000 41 34 43
0.358042 0.888932 2.351000 43 33 42
0.355605 0.886970 2.335000 39 31 40
0.353321 0.885333 2.320000 35 35 37
0.350884 0.883261 2.304000 38 36 34
0.341747 0.864187 2.244000 42 34 37
0.339614 0.862699 2.230000 42 31 40
0.543467 1.074583 3.528000 32 26 28
0.538076 1.070037 3.493000 34 28 31
0.543467 1.086935 3.528000 37 29 40
0.543467 1.093110 3.528000 38 29 50
0.541619 1.095547 3.516000 39 28 45
0.459051 0.991133 2.980000 42 36 41
0.455200 0.987991 2.955000 41 37 44
0.451349 0.984761 2.930000 41 39 44
0.447498 0.981444 2.905000 43 39 45
0.447498 0.986529 2.905000 45 39 43
0.443801 0.983422 2.881000 46 38 41
0.443801 0.988465 2.881000 48 37 37
0.440104 0.985232 2.857000 46 37 34
0.436561 0.982262 2.834000 45 39 44
0.429475 0.971199 2.788000 44 36 55
0.425932 0.968027 2.765000 44 35 50
0.419308 0.957737 2.722000 44 36 45
0.416073 0.955077 2.701000 44 37 45
0.412838 0.952342 2.680000 45 36 45
0.406522 0.942392 2.639000 46 35 45
0.397434 0.925840 2.580000 45 36 45
0.394353 0.923144 2.560000 44 36 44
0.391580 0.921103 2.542000 45 35 44
0.388653 0.918635 2.523000 45 36 44
0.385880 0.916466 2.505000 44 36 45
0.383107 0.914234 2.487000 44 37 47
0.380335 0.911939 2.469000 43 36 50
0.377562 0.909581 2.451000 43 35 49
0.369706 0.894856 2.400000 42 34 49
0.364622 0.886695 2.367000 41 34 46
0.359693 0.878795 2.335000 43 34 44
0.357382 0.877211 2.320000 46 35 43
0.357382 0.881272 2.320000 43 34 43
0.354917 0.879227 2.304000 39 37 41
0.354917 0.883261 2.304000 41 35 39
0.347985 0.869964 2.259000 42 33 40
0.345675 0.868115 2.244000 42 33 42
0.544190 1.063923 3.493000 32 24 29
0.544190 1.070037 3.493000 34 27 29
0.549643 1.086935 3.528000 37 28 35
0.544190 1.082266 3.493000 38 30 42
0.545904 1.091808 3.504000 39 29 39
0.468318 0.999781 3.006000 43 35 41
0.460373 0.987991 2.955000 42 37 43
0.456478 0.984761 2.930000 41 38 43
0.452583 0.981444 2.905000 43 40 43
0.452583 0.986529 2.905000 45 38 43
0.448844 0.983422 2.881000 45 38 43
0.448844 0.988465 2.881000 45 38 41
0.445105 0.985232 2.857000 45 39 39
0.441522 0.982262 2.834000 45 37 44
0.430772 0.963187 2.765000 45 37 50
0.427344 0.960324 2.743000 45 36 47
0.424073 0.957737 2.722000 45 36 45
0.420801 0.955077 2.701000 45 37 45
0.420801 0.959805 2.701000 47 38 45
0.414258 0.949534 2.659000 49 35 45
0.404910 0.932658 2.599000 46 35 45
0.401950 0.930356 2.580000 44 36 45
0.398834 0.927625 2.560000 45 36 44
0.393070 0.918635 2.523000 47 36 43
0.387461 0.909880 2.487000 46 37 43
0.387461 0.914234 2.487000 45 38 45
0.384657 0.911939 2.469000 45 39 48
0.379204 0.903272 2.434000 45 36 47
0.376555 0.901194 2.417000 44 36 47
0.371414 0.893063 2.384000 43 35 46
0.366273 0.884817 2.351000 46 35 46
0.363780 0.882882 2.335000 50 34 47
0.361443 0.881272 2.320000 47 34 49
0.358951 0.879227 2.304000 44 35 45
0.358951 0.883261 2.304000 43 36 42
0.354277 0.875740 2.274000 43 34 42
0.351940 0.873918 2.259000 41 36 43
0.555819 1.074583 3.528000 31 25 30
0.555819 1.080759 3.528000 34 26 28
0.555819 1.086935 3.528000 37 29 31
0.550305 1.082266 3.493000 38 30 34
0.550305 1.088381 3.493000 39 31 33
0.465546 0.987991 2.955000 42 35 43
0.465546 0.993164 2.955000 41 36 42
0.457668 0.981444 2.905000 44 37 41
0.457668 0.986529 2.905000 48 38 43
0.453887 0.983422 2.881000 46 37 45
0.453887 0.988465 2.881000 45 38 44
0.450106 0.985232 2.857000 44 36 44
0.442702 0.973943 2.810000 44 35 44
0.432146 0.955523 2.743000 45 36 45
0.432146 0.960324 2.743000 46 38 45
0.428838 0.957737 2.722000 45 38 46
0.425529 0.955077 2.701000 45 39 46
0.422221 0.952342 2.680000 45 37 46
0.418912 0.949534 2.659000 46 34 46
0.409459 0.932658 2.599000 45 35 46
0.403315 0.923144 2.560000 44 38 45
0.400479 0.921103 2.542000 46 36 45
0.394650 0.912081 2.505000 48 35 43
0.391814 0.909880 2.487000 47 36 41
0.388979 0.907617 2.469000 46 40 43
0.388979 0.911939 2.469000 46 36 46
0.386143 0.909581 2.451000 46 36 45
0.380786 0.901194 2.417000 45 35 45
0.375587 0.893063 2.384000 43 35 47
0.370388 0.884817 2.351000 45 35 49
0.367868 0.882882 2.335000 47 34 52
0.365504 0.881272 2.320000 45 35 55
0.362984 0.879227 2.304000 44 36 50
0.362984 0.883261 2.304000 44 35 45
0.358257 0.875740 2.274000 45 34 44
0.353531 0.868115 2.244000 43 35 44
0.570915 1.091640 3.584000 31 23 31
0.561995 1.080759 3.528000 34 26 31
0.561995 1.086935 3.528000 37 29 32
0.556419 1.082266 3.493000 38 31 33
0.556419 1.088381 3.493000 39 31 33
0.550844 1.083528 3.458000 40 32 33
0.545269 1.078553 3.423000 42 32 35
0.540012 1.074090 3.390000 41 33 37
0.462753 0.981444 2.905000 46 35 43
0.458930 0.978379 2.881000 51 35 45
0.458930 0.983422 2.881000 48 34 47
0.458930 0.988465 2.881000 45 35 46
0.455107 0.985232 2.857000 44 33 46
0.451443 0.982262 2.834000 44 34 45
0.440452 0.963187 2.765000 46 35 45
0.436948 0.960324 2.743000 48 36 44
0.433602 0.957737 2.722000 46 39 43
0.430257 0.955077 2.701000 45 37 44
0.426912 0.952342 2.680000 44 37 45
0.423567 0.949534 2.659000 44 36 46
0.414009 0.932658 2.599000 44 36 48
0.407797 0.923144 2.560000 44 36 47
0.404929 0.921103 2.542000 46 37 47
0.399035 0.912081 2.505000 49 36 45
0.396168 0.909880 2.487000 48 35 43
0.393301 0.907617 2.469000 48 36 44
0.393301 0.911939 2.469000 48 32 46
0.387725 0.903272 2.434000 48 33 45
0.385017 0.901194 2.417000 46 33 45
0.382309 0.899057 2.400000 44 35 46
0.377052 0.890838 2.367000 44 37 47
0.371955 0.882882 2.335000 44 35 48
0.369566 0.881272 2.320000 44 36 49
0.367017 0.879227 2.304000 44 35 47
0.364627 0.877510 2.289000 45 36 44
0.362238 0.875740 2.274000 47 34 44
0.357459 0.868115 2.244000 45 35 44
0.586207 1.102325 3.640000 29 20 31
0.586207 1.108697 3.640000 31 22 32
0.574129 1.092093 3.565000 33 25 34
0.574129 1.098334 3.565000 36 30 33
0.562534 1.082266 3.493000 37 30 33
0.471865 0.989890 2.930000 44 35 45
0.467839 0.986529 2.905000 47 34 47
0.467839 0.991615 2.905000 46 34 50
0.463974 0.988465 2.881000 44 35 49
0.460108 0.985232 2.857000 43 34 48
0.452539 0.973943 2.810000 43 34 46
0.441749 0.955523 2.743000 46 35 45
0.441749 0.960324 2.743000 50 35 43
0.438367 0.957737 2.722000 48 36 41
0.434985 0.955077 2.701000 46 35 43
0.431603 0.952342 2.680000 45 36 45
0.428221 0.949534 2.659000 44 37 47
0.421779 0.939835 2.619000 44 36 50
0.415499 0.930356 2.580000 44 36 50
0.409379 0.921103 2.542000 45 36 50
0.403420 0.912081 2.505000 47 39 47
0.400521 0.909880 2.487000 46 37 45
0.397623 0.907617 2.469000 46 37 45
0.394724 0.905290 2.451000 46 35 46
0.391986 0.903272 2.434000 46 34 46
0.389248 0.901194 2.417000 45 35 46
0.383934 0.893063 2.384000 44 36 45
0.381196 0.890838 2.367000 44 36 45
0.378619 0.888932 2.351000 45 36 44
0.376042 0.886970 2.335000 44 35 44
0.371050 0.879227 2.304000 43 35 44
0.368634 0.877510 2.289000 45 33 44
0.363803 0.869964 2.259000 47 31 44
0.361387 0.868115 2.244000 46 33 44
0.598928 1.114136 3.679000 28 22 28
0.592579 1.108697 3.640000 31 22 31
0.586393 1.103428 3.602000 33 24 34
0.580369 1.098334 3.565000 36 27 33
0.568648 1.082266 3.493000 37 30 33
0.469017 0.983422 2.881000 44 35 47
0.469017 0.988465 2.881000 44 34 46
0.465110 0.985232 2.857000 43 34 46
0.457458 0.973943 2.810000 42 35 45
0.450132 0.963187 2.765000 47 36 44
0.446551 0.960324 2.743000 52 35 40
0.446551 0.965126 2.743000 50 37 37
0.443132 0.962502 2.722000 48 35 40
0.439713 0.959805 2.701000 46 35 43
0.436295 0.957034 2.680000 44 36 43
0.426364 0.939835 2.619000 44 37 44
0.420015 0.930356 2.580000 45 36 45
0.413829 0.921103 2.542000 45 35 47
0.410736 0.918635 2.523000 45 36 42
0.404875 0.909880 2.487000 44 39 37
0.401945 0.907617 2.469000 44 36 41
0.399014 0.905290 2.451000 44 37 45
0.396247 0.903272 2.434000 44 36 44
0.393479 0.901194 2.417000 44 38 43
0.390712 0.899057 2.400000 44 36 44
0.385339 0.890838 2.367000 45 36 45
0.382735 0.888932 2.351000 47 35 44
0.380130 0.886970 2.335000 45 36 44
0.375083 0.879227 2.304000 43 34 44
0.372641 0.877510 2.289000 45 32 44
0.367757 0.869964 2.259000 47 32 42
0.365315 0.868115 2.244000 47 31 41
0.598951 1.095953 3.640000 26 18 23
0.605368 1.114136 3.679000 28 21 26
0.605368 1.120576 3.679000 31 23 30
0.598951 1.115069 3.640000 33 24 34
0.592698 1.109733 3.602000 35 27 33
0.574763 1.082266 3.493000 36 28 33
0.507957 1.032125 3.087000 41 34 35
0.470111 0.985232 2.857000 43 35 44
0.458757 0.966318 2.788000 43 36 44
0.458757 0.971199 2.788000 45 36 44
0.458757 0.976079 2.788000 48 34 38
0.454972 0.972867 2.765000 47 35 33
0.451352 0.969928 2.743000 46 34 37
0.444441 0.959805 2.701000 44 35 41
0.440986 0.957034 2.680000 43 38 40
0.430949 0.939835 2.619000 44 37 39
0.421240 0.923144 2.560000 45 39 41
0.415152 0.914218 2.523000 45 35 44
0.412190 0.912081 2.505000 46 33 36
0.409228 0.909880 2.487000 47 34 29
0.403305 0.901000 2.451000 48 34 37
0.400507 0.899011 2.434000 47 35 45
0.397710 0.896963 2.417000 46 35 43
0.397710 0.901194 2.417000 45 36 41
0.394913 0.899057 2.400000 44 37 43
0.392280 0.897236 2.384000 45 34 45
0.386850 0.888932 2.351000 47 33 45
0.386850 0.893048 2.351000 45 34 45
0.379116 0.879227 2.304000 43 35 44
0.376648 0.877510 2.289000 44 34 44
0.371712 0.869964 2.259000 45 34 41
0.366940 0.862699 2.230000 46 33 38
0.611809 1.107696 3.679000 26 19 24
0.611809 1.114136 3.679000 29 21 29
0.611809 1.120576 3.679000 32 23 30
0.605323 1.115069 3.640000 33 25 31
0.599004 1.109733 3.602000 34 26 36
0.586698 1.093110 3.528000 36 28 41
0.580877 1.088381 3.493000 38 28 38
0.518017 1.041487 3.115000 40 34 31
0.471121 0.976956 2.833000 44 35 46
0.463637 0.966318 2.788000 44 35 48
0.463637 0.971199 2.788000 44 38 50
0.463637 0.976079 2.788000 45 36 43
0.456154 0.965126 2.743000 44 38 37
0.452662 0.962502 2.722000 44 35 40
0.445677 0.952342 2.680000 43 35 43
0.442185 0.949534 2.659000 43 37 41
0.432207 0.932658 2.599000 44 37 40
0.425722 0.923144 2.560000 45 37 42
0.419569 0.914218 2.523000 46 36 44
0.416575 0.912081 2.505000 47 34 39
0.413582 0.909880 2.487000 49 33 35
0.410589 0.907617 2.469000 52 34 42
0.404768 0.899011 2.434000 50 36 50
0.404768 0.903272 2.434000 48 35 46
0.401941 0.901194 2.417000 46 35 43
0.399114 0.899057 2.400000 44 34 44
0.396453 0.897236 2.384000 45 32 46
0.393626 0.894982 2.367000 47 32 45
0.390965 0.893048 2.351000 45 35 45
0.383150 0.879227 2.304000 44 36 43
0.380655 0.877510 2.289000 43 37 42
0.375666 0.869964 2.259000 43 36 40
0.373172 0.868115 2.244000 45 36 38
0.618249 1.101256 3.679000 24 17 19
0.618249 1.107696 3.679000 26 19 25
0.611695 1.102325 3.640000 29 21 32
0.611695 1.108697 3.640000 32 23 30
0.611695 1.115069 3.640000 33 25 29
0.605309 1.109733 3.602000 34 26 39
0.592873 1.093110 3.528000 35 27 50
0.586992 1.088381 3.493000 37 28 45
0.521789 1.038143 3.105000 41 33 28
0.472215 0.969024 2.810000 45 34 49
0.468518 0.966318 2.788000 47 32 53
0.468518 0.971199 2.788000 46 35 57
0.464653 0.968027 2.765000 45 37 49
0.460956 0.965126 2.743000 45 35 41
0.457427 0.962502 2.722000 45 34 43
0.453898 0.959805 2.701000 44 36 45
0.446840 0.949534 2.659000 44 39 43
0.436757 0.932658 2.599000 44 38 41
0.430203 0.923144 2.560000 44 39 42
0.427178 0.921103 2.542000 44 36 44
0.423985 0.918635 2.523000 45 36 42
0.417935 0.909880 2.487000 46 35 41
0.414911 0.907617 2.469000 48 34 48
0.409029 0.899011 2.434000 47 35 56
0.406172 0.896963 2.417000 46 36 50
0.406172 0.901194 2.417000 45 36 45
0.403315 0.899057 2.400000 44 35 46
0.400626 0.897236 2.384000 45 32 48
0.397770 0.894982 2.367000 47 31 46
0.397770 0.899125 2.367000 45 35 45
0.389871 0.885333 2.320000 44 39 42
0.384662 0.877510 2.289000 43 37 40
0.379620 0.869964 2.259000 43 37 39
0.374747 0.862699 2.230000 43 34 39
0.674949 -1.537771 3.975000 52 37 45
0.674949 -1.530812 3.975000 54 36 44
0.618066 1.095953 3.640000 26 18 25
0.618066 1.102325 3.640000 29 21 32
0.618066 1.108697 3.640000 32 24 28
0.618066 1.115069 3.640000 33 26 24
0.611614 1.109733 3.602000 34 26 35
0.593106 1.082266 3.493000 35 27 46
0.599049 1.099286 3.528000 37 27 41
0.587163 1.083528 3.458000 38 30 36
0.575617 1.068155 3.390000 39 29 39
0.533677 1.023339 3.143000 39 30 39
0.533677 1.028841 3.143000 40 33 38
0.533677 1.034343 3.143000 41 33 38
0.533677 1.039845 3.143000 41 34 38
0.525696 1.035134 3.096000 41 35 33
0.477134 0.964105 2.810000 44 35 39
0.477134 0.969024 2.810000 47 32 44
0.473398 0.966318 2.788000 51 32 47
0.473398 0.971199 2.788000 48 33 50
0.469493 0.968027 2.765000 45 35 46
0.465757 0.965126 2.743000 46 33 43
0.462192 0.962502 2.722000 47 34 44
0.455060 0.952342 2.680000 46 36 45
0.448098 0.942392 2.639000 45 38 43
0.438080 0.925840 2.580000 44 39 41
0.431628 0.916653 2.542000 44 37 42
0.431628 0.921103 2.542000 43 34 44
0.428402 0.918635 2.523000 43 36 42
0.425345 0.916466 2.505000 44 39 41
0.419232 0.907617 2.469000 45 37 44
0.416176 0.905290 2.451000 45 36 48
0.413289 0.903272 2.434000 45 37 43
0.410403 0.901194 2.417000 44 38 39
0.407516 0.899057 2.400000 44 35 46
0.404800 0.897236 2.384000 45 33 53
0.401913 0.894982 2.367000 47 33 49
0.399196 0.893048 2.351000 45 36 44
0.393933 0.885333 2.320000 44 37 43
0.391216 0.883261 2.304000 43 38 42
0.388669 0.881517 2.289000 43 35 40
0.378651 0.862699 2.230000 42 32 38
0.681907 -1.537771 3.975000 49 36 46
0.681907 -1.530812 3.975000 49 36 44
0.681907 -1.523854 3.975000 48 37 43
0.624438 1.095953 3.640000 26 18 26
0.624438 1.102325 3.640000 27 21 32
0.624438 1.108697 3.640000 29 27 25
0.624438 1.115069 3.640000 32 26 19
0.624438 1.121441 3.640000 35 26 30
0.605225 1.093110 3.528000 35 26 42
0.605225 1.099286 3.528000 36 25 37
0.596133 1.088855 3.475000 37 29 33
0.579664 1.064689 3.379000 38 31 36
0.534375 1.014223 3.115000 39 30 40
0.539178 1.028841 3.143000 39 31 41
0.534375 1.025128 3.115000 40 33 44
0.534375 1.030581 3.115000 40 33 48
0.534375 1.036034 3.115000 40 33 43
0.529572 1.032125 3.087000 41 34 38
0.502639 0.995019 2.930000 45 34 34
0.494233 0.983422 2.881000 44 35 31
0.482053 0.964105 2.810000 43 37 35
0.490116 0.985232 2.857000 45 34 40
0.482053 0.973943 2.810000 46 34 42
0.478279 0.971199 2.788000 45 34 44
0.478279 0.976079 2.788000 44 37 44
0.478279 0.980959 2.788000 45 35 45
0.470559 0.969928 2.743000 45 34 45
0.459751 0.952342 2.680000 45 36 45
0.452718 0.942392 2.639000 44 39 43
0.439165 0.918663 2.560000 44 37 41
0.436078 0.916653 2.542000 44 36 42
0.436078 0.921103 2.542000 45 35 44
0.432818 0.918635 2.523000 45 36 42
0.426642 0.909880 2.487000 45 38 41
0.423554 0.907617 2.469000 45 39 41
0.420467 0.905290 2.451000 44 38 41
0.414634 0.896963 2.417000 44 39 37
0.414634 0.901194 2.417000 44 37 33
0.411718 0.899057 2.400000 44 37 46
0.408973 0.897236 2.384000 44 34 59
0.406056 0.894982 2.367000 45 34 51
0.403312 0.893048 2.351000 44 35 44
0.400567 0.891057 2.335000 43 36 44
0.395249 0.883261 2.304000 43 35 44
0.392676 0.881517 2.289000 43 33 41
0.384956 0.868115 2.244000 42 33 38
0.688866 -1.537771 3.975000 47 37 46
0.688866 -1.530812 3.975000 44 36 44
0.688866 -1.523854 3.975000 45 36 42
0.688866 -1.516896 3.975000 46 39 41
0.637569 1.114136 3.679000 26 21 31
0.630810 1.108697 3.640000 27 25 26
0.630810 1.115069 3.640000 31 26 21
0.630810 1.121441 3.640000 36 27 30
0.617813 1.104574 3.565000 36 27 40
0.617813 1.110815 3.565000 36 27 36
0.605335 1.094495 3.493000 37 30 33
0.583673 1.061223 3.368000 38 30 34
0.539828 1.014223 3.115000 39 29 39
0.539828 1.019675 3.115000 39 30 40
0.539828 1.025128 3.115000 40 31 42
0.539828 1.030581 3.115000 39 33 44
0.534976 1.026721 3.087000 39 32 41
0.512100 0.987991 2.955000 40 34 38
0.507768 0.984761 2.930000 42 36 39
0.503435 0.981444 2.905000 42 37 41
0.503435 0.986529 2.905000 43 36 37
0.499276 0.983422 2.881000 43 37 34
0.495117 0.980231 2.857000 43 35 37
0.495117 0.985232 2.857000 42 36 40
0.495117 0.990233 2.857000 42 35 42
0.491131 0.987223 2.834000 43 34 44
0.486972 0.983781 2.810000 44 35 44
0.479173 0.972867 2.765000 44 36 45
0.475361 0.969928 2.743000 44 35 44
0.447113 0.916807 2.580000 44 35 44
0.447113 0.921323 2.580000 44 36 43
0.443647 0.918663 2.560000 44 37 43
0.440527 0.916653 2.542000 45 36 43
0.437235 0.914218 2.523000 46 36 44
0.430996 0.905527 2.487000 48 36 43
0.430996 0.909880 2.487000 46 38 43
0.427876 0.907617 2.469000 45 38 42
0.424757 0.905290 2.451000 44 39 41
0.418865 0.896963 2.417000 44 38 38
0.418865 0.901194 2.417000 44 36 36
0.415919 0.899057 2.400000 44 36 45
0.413146 0.897236 2.384000 44 34 54
0.407427 0.888932 2.351000 44 33 50
0.407427 0.893048 2.351000 43 34 46
0.404654 0.891057 2.335000 43 35 46
0.399282 0.883261 2.304000 43 35 47
0.396683 0.881517 2.289000 43 34 44
0.388884 0.868115 2.244000 42 34 41
0.695824 -1.537771 3.975000 48 36 47
0.695824 -1.530812 3.975000 46 35 44
0.695824 -1.523854 3.975000 46 37 42
0.637182 1.108697 3.640000 29 27 27
0.637182 1.115069 3.640000 32 28 23
0.630530 1.109733 3.602000 36 30 30
0.624053 1.104574 3.565000 36 28 38
0.624053 1.110815 3.565000 36 29 35
0.617576 1.105462 3.528000 37 28 33
0.587643 1.057757 3.357000 38 29 33
0.571013 1.039244 3.262000 39 31 33
0.571013 1.050664 3.262000 38 29 37
0.560335 1.036620 3.201000 39 29 40
0.550182 1.023339 3.143000 41 30 39
0.545281 1.019675 3.115000 41 28 39
0.545281 1.025128 3.115000 41 28 40
0.540379 1.021317 3.087000 40 30 41
0.535478 1.017408 3.059000 39 30 39
0.517273 0.987991 2.955000 40 34 38
0.512897 0.984761 2.930000 42 37 41
0.512897 0.989890 2.930000 42 36 44
0.508520 0.986529 2.905000 42 37 40
0.504319 0.983422 2.881000 44 35 37
0.500118 0.980231 2.857000 46 32 38
0.500118 0.985232 2.857000 44 34 40
0.500118 0.990233 2.857000 42 37 42
0.496092 0.987223 2.834000 43 35 44
0.491891 0.983781 2.810000 43 35 44
0.484013 0.972867 2.765000 43 36 45
0.451629 0.912291 2.580000 44 38 44
0.451629 0.916807 2.580000 44 35 44
0.451629 0.921323 2.580000 44 34 44
0.448128 0.918663 2.560000 44 36 45
0.444977 0.916653 2.542000 44 38 45
0.444977 0.921103 2.542000 44 36 45
0.441651 0.918635 2.523000 45 34 45
0.435349 0.909880 2.487000 44 36 45
0.435349 0.914234 2.487000 44 39 43
0.432198 0.911939 2.469000 43 39 41
0.426072 0.903272 2.434000 42 40 40
0.423096 0.901194 2.417000 43 38 39
0.420120 0.899057 2.400000 44 38 44
0.417319 0.897236 2.384000 45 35 49
0.414343 0.894982 2.367000 47 32 49
0.411543 0.893048 2.351000 45 33 49
0.406116 0.885333 2.320000 43 35 49
0.403315 0.883261 2.304000 43 34 50
0.400689 0.881517 2.289000 43 34 47
0.395438 0.873918 2.259000 43 33 44
0.702782 -1.537771 3.975000 50 37 47
0.702782 -1.530812 3.975000 49 35 44
0.702782 -1.523854 3.975000 47 37 42
0.643554 1.108697 3.640000 31 25 25
0.643554 1.115069 3.640000 33 29 23
0.636835 1.109733 3.602000 36 28 28
0.623752 1.093110 3.528000 36 29 34
0.623752 1.099286 3.528000 36 28 33
0.617564 1.094495 3.493000 37 26 32
0.593519 1.057757 3.357000 38 28 33
0.576723 1.039244 3.262000 40 30 35
0.576723 1.044954 3.262000 39 30 37
0.571243 1.040680 3.231000 39 29 38
0.565938 1.036620 3.201000 41 30 39
0.555684 1.023339 3.143000 43 29 39
0.550734 1.019675 3.115000 43 27 39
0.550734 1.025128 3.115000 43 28 38
0.545783 1.021317 3.087000 41 30 37
0.536236 1.008761 3.033000 39 32 38
0.522446 0.987991 2.955000 41 36 38
0.518026 0.984761 2.930000 43 36 41
0.513606 0.981444 2.905000 42 34 43
0.513606 0.986529 2.905000 42 34 40
0.509362 0.983422 2.881000 46 34 37
0.505119 0.980231 2.857000 50 33 38
0.505119 0.985232 2.857000 46 34 39
0.501053 0.982262 2.834000 43 35 41
0.496809 0.978862 2.810000 43 35 44
0.492920 0.976079 2.788000 43 36 41
0.488853 0.972867 2.765000 43 38 38
0.461273 0.922545 2.609000 44 37 41
0.459505 0.923559 2.599000 44 36 44
0.459505 0.928108 2.599000 44 35 44
0.456145 0.925840 2.580000 44 36 45
0.452609 0.923144 2.560000 44 36 45
0.449427 0.921103 2.542000 43 36 45
0.449427 0.925553 2.542000 42 35 44
0.439703 0.909880 2.487000 43 34 44
0.439703 0.914234 2.487000 44 37 42
0.439703 0.918587 2.487000 42 39 39
0.436521 0.916261 2.469000 41 38 39
0.427327 0.901194 2.417000 43 38 39
0.424321 0.899057 2.400000 45 37 41
0.421492 0.897236 2.384000 47 36 44
0.418487 0.894982 2.367000 50 32 45
0.415658 0.893048 2.351000 46 32 46
0.410177 0.885333 2.320000 43 34 45
0.407348 0.883261 2.304000 43 35 44
0.404696 0.881517 2.289000 43 34 42
0.396740 0.868115 2.244000 44 34 41
0.709740 -1.537771 3.975000 49 36 47
0.709740 -1.530812 3.975000 49 34 44
0.709740 -1.523854 3.975000 48 37 42
0.649926 1.108697 3.640000 30 22 24
0.649926 1.115069 3.640000 32 26 23
0.643141 1.109733 3.602000 35 27 26
0.643141 1.116038 3.602000 35 28 30
0.629928 1.099286 3.528000 36 30 31
0.611180 1.072561 3.423000 38 28 32
0.599396 1.057757 3.357000 40 27 33
0.582433 1.033534 3.262000 41 29 34
0.576898 1.029368 3.231000 42 31 37
0.576898 1.035024 3.231000 40 30 41
0.571542 1.031017 3.201000 39 28 40
0.566364 1.027229 3.172000 40 29 39
0.561186 1.023339 3.143000 41 31 39
0.556186 1.019675 3.115000 42 28 40
0.556186 1.025128 3.115000 43 28 37
0.546188 1.012054 3.059000 41 30 34
0.541545 1.008761 3.033000 39 32 36
0.527618 0.987991 2.955000 41 35 39
0.523154 0.984761 2.930000 43 37 41
0.518691 0.981444 2.905000 42 34 43
0.518691 0.986529 2.905000 42 34 40
0.514405 0.983422 2.881000 44 34 37
0.514405 0.988465 2.881000 46 34 38
0.510120 0.985232 2.857000 44 34 39
0.510120 0.990233 2.857000 41 35 41
0.506014 0.987223 2.834000 42 35 44
0.497800 0.976079 2.788000 42 37 37
0.471196 0.928534 2.639000 43 37 31
0.471196 0.933153 2.639000 44 37 37
0.467625 0.930666 2.619000 43 36 44
0.464054 0.928108 2.599000 43 36 44
0.460662 0.925840 2.580000 43 36 45
0.457091 0.923144 2.560000 44 35 45
0.453877 0.921103 2.542000 43 35 45
0.453877 0.925553 2.542000 42 36 44
0.447270 0.916466 2.505000 43 35 44
0.444056 0.914234 2.487000 44 38 41
0.444056 0.918587 2.487000 42 36 38
0.437629 0.909581 2.451000 41 36 38
0.434593 0.907533 2.434000 43 37 39
0.428522 0.899057 2.400000 44 38 39
0.425666 0.897236 2.384000 45 35 39
0.422630 0.894982 2.367000 46 31 41
0.419773 0.893048 2.351000 45 33 43
0.416917 0.891057 2.335000 43 37 41
0.414238 0.889394 2.320000 43 35 39
0.406025 0.875740 2.274000 42 34 38
0.400668 0.868115 2.244000 44 33 38
0.716698 -1.537771 3.975000 49 37 49
0.716698 -1.530812 3.975000 49 35 46
0.716698 -1.523854 3.975000 49 37 44
0.656297 1.108697 3.640000 30 23 24
0.656297 1.115069 3.640000 32 27 22
0.649446 1.109733 3.602000 34 26 24
0.649446 1.116038 3.602000 35 27 27
0.623483 1.077475 3.458000 37 29 29
0.617172 1.072561 3.423000 39 30 32
0.605272 1.057757 3.357000 42 28 34
0.593733 1.043356 3.293000 43 28 36
0.588144 1.039244 3.262000 44 29 36
0.582554 1.035024 3.231000 41 33 37
0.577145 1.031017 3.201000 39 30 35
0.571916 1.027229 3.172000 39 30 32
0.566688 1.023339 3.143000 39 29 37
0.561639 1.019675 3.115000 41 26 43
0.556591 1.015913 3.087000 43 28 38
0.551542 1.012054 3.059000 41 31 34
0.546854 1.008761 3.033000 39 32 36
0.532791 0.987991 2.955000 41 36 39
0.523776 0.976359 2.905000 43 35 43
0.523776 0.981444 2.905000 42 34 48
0.523776 0.986529 2.905000 42 34 43
0.519449 0.983422 2.881000 42 34 39
0.519449 0.988465 2.881000 43 34 40
0.515121 0.985232 2.857000 41 35 41
0.515121 0.990233 2.857000 40 34 42
0.510974 0.987223 2.834000 41 33 43
0.502681 0.976079 2.788000 42 35 39
0.475816 0.928534 2.639000 43 37 35
0.475816 0.933153 2.639000 44 37 39
0.472210 0.930666 2.619000 43 35 43
0.468604 0.928108 2.599000 42 35 43
0.468604 0.932658 2.599000 43 37 42
0.461572 0.923144 2.560000 44 36 43
0.454901 0.914218 2.523000 43 36 45
0.454901 0.918635 2.523000 43 35 44
0.451655 0.916466 2.505000 43 35 44
0.451655 0.920851 2.505000 44 35 43
0.448410 0.918587 2.487000 43 34 43
0.445164 0.916261 2.469000 42 35 41
0.438854 0.907533 2.434000 43 37 39
0.435789 0.905425 2.417000 44 37 40
0.429839 0.897236 2.384000 43 37 41
0.426774 0.894982 2.367000 43 35 41
0.423889 0.893048 2.351000 43 35 42
0.421004 0.891057 2.335000 44 36 40
0.418299 0.889394 2.320000 43 34 39
0.412710 0.881517 2.289000 42 34 40
0.404597 0.868115 2.244000 44 34 41
0.723657 -1.544729 3.975000 49 40 49
0.723657 -1.537771 3.975000 49 38 52
0.723657 -1.530812 3.975000 49 35 49
0.723657 -1.523854 3.975000 49 37 46
0.662669 1.108697 3.640000 30 22 24
0.662669 1.115069 3.640000 32 24 21
0.662669 1.121441 3.640000 34 26 23
0.662669 1.127812 3.640000 35 28 25
0.629536 1.077475 3.458000 36 30 28
0.629536 1.083528 3.458000 38 29 32
0.623164 1.078553 3.423000 40 29 35
0.605141 1.053178 3.324000 41 27 38
0.593854 1.039244 3.262000 43 27 36
0.593854 1.044954 3.262000 41 31 34
0.588210 1.040680 3.231000 39 32 30
0.582749 1.036620 3.201000 39 30 26
0.572189 1.023339 3.143000 39 30 36
0.567092 1.019675 3.115000 41 28 46
0.561995 1.015913 3.087000 43 30 40
0.556897 1.012054 3.059000 41 31 34
0.547248 0.999781 3.006000 39 32 36
0.537964 0.987991 2.955000 40 33 39
0.533412 0.984761 2.930000 42 34 46
0.533412 0.989890 2.930000 42 33 53
0.528861 0.986529 2.905000 42 34 47
0.524492 0.983422 2.881000 43 33 42
0.520123 0.980231 2.857000 44 33 42
0.515935 0.977301 2.834000 44 34 43
0.515935 0.982262 2.834000 45 34 43
0.511566 0.978862 2.810000 44 33 43
0.507561 0.976079 2.788000 44 34 41
0.480435 0.928534 2.639000 44 36 40
0.480435 0.933153 2.639000 44 39 41
0.480435 0.937773 2.639000 45 34 43
0.476794 0.935250 2.619000 46 34 41
0.473153 0.932658 2.599000 45 35 40
0.466053 0.923144 2.560000 44 37 42
0.462776 0.921103 2.542000 43 36 45
0.459317 0.918635 2.523000 43 35 44
0.456040 0.916466 2.505000 43 34 44
0.456040 0.920851 2.505000 43 35 46
0.452763 0.918587 2.487000 43 34 49
0.449486 0.916261 2.469000 43 34 44
0.440020 0.901194 2.417000 42 37 40
0.436925 0.899057 2.400000 42 39 42
0.434012 0.897236 2.384000 42 38 44
0.430917 0.894982 2.367000 43 37 42
0.428004 0.893048 2.351000 45 37 41
0.425091 0.891057 2.335000 46 39 40
0.422361 0.889394 2.320000 45 35 40
0.416717 0.881517 2.289000 44 34 42
0.411255 0.873918 2.259000 46 32 44
0.730615 -1.544729 3.975000 49 36 47
0.730615 -1.537771 3.975000 49 40 50
0.730615 -1.530812 3.975000 49 38 47
0.698450 1.144127 3.800000 22 19 27
0.698450 1.150779 3.800000 26 18 31
0.690914 1.144943 3.759000 30 21 27
0.669041 1.115069 3.640000 32 24 24
0.669041 1.121441 3.640000 34 26 25
0.669041 1.127812 3.640000 35 29 27
0.635589 1.077475 3.458000 36 29 29
0.629156 1.072561 3.423000 37 30 32
0.623091 1.068155 3.390000 38 28 35
0.617025 1.063634 3.357000 40 27 38
0.610960 1.058997 3.324000 42 28 36
0.605262 1.054885 3.293000 41 33 34
0.599564 1.050664 3.262000 40 31 33
0.593866 1.046335 3.231000 39 30 32
0.577691 1.023339 3.143000 39 29 37
0.572545 1.019675 3.115000 41 29 43
0.567398 1.015913 3.087000 43 29 40
0.557473 1.003452 3.033000 41 31 37
0.552510 0.999781 3.006000 40 32 37
0.547732 0.996350 2.980000 40 33 38
0.543136 0.993164 2.955000 41 32 42
0.538541 0.989890 2.930000 41 33 46
0.533946 0.986529 2.905000 42 33 43
0.525124 0.975230 2.857000 44 32 40
0.520896 0.972340 2.834000 46 32 42
0.516485 0.969024 2.810000 48 34 43
0.516485 0.973943 2.810000 50 32 43
0.512441 0.971199 2.788000 48 31 43
0.500310 0.952972 2.722000 46 33 43
0.492591 0.942960 2.680000 45 36 42
0.485055 0.933153 2.639000 44 35 43
0.485055 0.937773 2.639000 47 30 43
0.481379 0.935250 2.619000 50 32 42
0.477703 0.932658 2.599000 47 34 42
0.470535 0.923144 2.560000 44 36 44
0.467226 0.921103 2.542000 44 36 47
0.463734 0.918635 2.523000 44 35 45
0.463734 0.923051 2.523000 43 34 44
0.460425 0.920851 2.505000 43 34 45
0.460425 0.925236 2.505000 43 35 46
0.453808 0.916261 2.469000 44 36 43
0.444251 0.901194 2.417000 42 38 40
0.441126 0.899057 2.400000 40 38 42
0.438185 0.897236 2.384000 42 39 44
0.435061 0.894982 2.367000 44 38 43
0.432120 0.893048 2.351000 46 37 42
0.429179 0.891057 2.335000 49 36 42
0.426422 0.889394 2.320000 48 36 42
0.423481 0.887294 2.304000 47 34 43
0.415210 0.873918 2.259000 48 30 44
0.737573 -1.544729 3.975000 51 33 44
0.737573 -1.537771 3.975000 50 37 48
0.737573 -1.530812 3.975000 50 39 46
0.705101 1.144127 3.800000 22 21 30
0.705101 1.150779 3.800000 26 19 35
0.697494 1.144943 3.759000 30 21 31
0.682650 1.127016 3.679000 32 24 27
0.675413 1.121441 3.640000 34 26 28
0.675413 1.127812 3.640000 35 28 30
0.641642 1.077475 3.458000 36 29 31
0.635148 1.072561 3.423000 37 29 32
0.629025 1.068155 3.390000 38 29 35
0.622901 1.063634 3.357000 39 27 38
0.616778 1.058997 3.324000 40 27 36
0.611026 1.054885 3.293000 40 30 34
0.611026 1.060649 3.293000 41 31 36
0.599522 1.046335 3.231000 40 29 38
0.577998 1.014223 3.115000 39 30 39
0.577998 1.019675 3.115000 41 29 40
0.572802 1.015913 3.087000 44 28 40
0.567607 1.012054 3.059000 41 30 40
0.562782 1.008761 3.033000 39 33 38
0.557772 1.005043 3.006000 40 32 37
0.552948 1.001566 2.980000 40 31 38
0.548309 0.998337 2.955000 41 33 39
0.539032 0.986529 2.905000 42 36 39
0.525857 0.967379 2.834000 44 33 39
0.521404 0.964105 2.810000 46 32 41
0.517322 0.961438 2.788000 46 32 44
0.513054 0.958346 2.765000 47 32 44
0.513054 0.963187 2.765000 46 30 44
0.505075 0.952972 2.722000 46 32 44
0.497282 0.942960 2.680000 44 33 45
0.489674 0.933153 2.639000 43 35 44
0.489674 0.937773 2.639000 45 32 44
0.485963 0.935250 2.619000 46 31 44
0.482252 0.932658 2.599000 45 34 44
0.475016 0.923144 2.560000 44 37 47
0.471676 0.921103 2.542000 43 36 50
0.471676 0.925553 2.542000 43 36 47
0.471676 0.930002 2.542000 44 35 44
0.471676 0.934452 2.542000 45 34 44
0.468150 0.931884 2.523000 44 35 44
0.458130 0.916261 2.469000 44 39 42
0.445327 0.894856 2.400000 43 38 40
0.445327 0.899057 2.400000 42 39 42
0.439204 0.890838 2.367000 42 38 45
0.436235 0.888932 2.351000 42 39 44
0.436235 0.893048 2.351000 44 36 44
0.433266 0.891057 2.335000 45 34 44
0.427514 0.883261 2.304000 45 35 44
0.424731 0.881517 2.289000 45 36 44
0.419164 0.873918 2.259000 46 32 44
0.744531 -1.544729 3.975000 53 35 41
0.744531 -1.537771 3.975000 52 39 46
0.744531 -1.530812 3.975000 51 39 43
0.711753 1.144127 3.800000 22 19 27
0.711753 1.150779 3.800000 26 17 32
0.704074 1.144943 3.759000 30 21 29
0.681785 1.115069 3.640000 32 25 27
0.681785 1.121441 3.640000 34 26 28
0.674667 1.116038 3.602000 35 29 30
0.647695 1.077475 3.458000 36 29 31
0.641140 1.072561 3.423000 37 30 32
0.634959 1.068155 3.390000 39 29 37
0.628778 1.063634 3.357000 38 28 41
0.622597 1.058997 3.324000 38 29 35
0.616790 1.054885 3.293000 40 31 30
0.616790 1.060649 3.293000 42 29 33
0.605178 1.046335 3.231000 40 26 36
0.583450 1.014223 3.115000 39 29 38
0.583450 1.019675 3.115000 42 30 40
0.578206 1.015913 3.087000 45 29 38
0.572961 1.012054 3.059000 42 28 37
0.572961 1.017408 3.059000 39 31 36
0.568092 1.014070 3.033000 39 33 36
0.563034 1.010305 3.006000 40 33 37
0.558164 1.006783 2.980000 41 34 38
0.544117 0.986529 2.905000 42 34 38
0.530818 0.967379 2.834000 44 34 38
0.526323 0.964105 2.810000 46 31 40
0.513773 0.945920 2.743000 45 30 43
0.509840 0.943443 2.722000 45 29 42
0.509840 0.948207 2.722000 45 27 42
0.505907 0.945620 2.701000 46 30 43
0.498040 0.935571 2.659000 44 32 44
0.494294 0.933153 2.639000 43 34 43
0.490548 0.930666 2.619000 43 35 42
0.490548 0.935250 2.619000 43 34 41
0.486802 0.932658 2.599000 43 36 40
0.479497 0.923144 2.560000 44 35 43
0.476125 0.921103 2.542000 43 35 46
0.476125 0.925553 2.542000 42 35 44
0.476125 0.930002 2.542000 44 38 42
0.472567 0.927468 2.523000 47 36 41
0.469195 0.925236 2.505000 45 34 39
0.465824 0.922941 2.487000 44 36 40
0.449528 0.894856 2.400000 44 39 40
0.443347 0.886695 2.367000 44 37 45
0.443347 0.890838 2.367000 42 36 49
0.437354 0.882882 2.335000 41 36 48
0.437354 0.886970 2.335000 41 34 46
0.434544 0.885333 2.320000 42 34 45
0.431547 0.883261 2.304000 42 34 43
0.428738 0.881517 2.289000 43 34 42
0.423119 0.873918 2.259000 44 33 41
0.751490 -1.544729 3.975000 51 36 39
0.751490 -1.537771 3.975000 51 38 44
0.751490 -1.530812 3.975000 51 40 41
0.751490 -1.523854 3.975000 51 39 39
0.751490 -1.502979 3.975000 51 40 41
0.751490 -1.496021 3.975000 51 39 44
0.718405 1.144127 3.800000 21 21 24
0.718405 1.150779 3.800000 25 19 29
0.710654 1.144943 3.759000 30 21 28
0.695530 1.127016 3.679000 32 23 28
0.688157 1.121441 3.640000 34 25 29
0.680972 1.116038 3.602000 36 26 30
0.653749 1.077475 3.458000 38 29 31
0.647132 1.072561 3.423000 38 30 33
0.640893 1.068155 3.390000 38 30 39
0.634654 1.063634 3.357000 38 29 45
0.628415 1.058997 3.324000 38 30 35
0.622555 1.054885 3.293000 39 30 26
0.616694 1.050664 3.262000 40 30 30
0.610834 1.046335 3.231000 39 29 34
0.588903 1.014223 3.115000 39 32 37
0.588903 1.019675 3.115000 40 30 41
0.583610 1.015913 3.087000 42 30 37
0.578316 1.012054 3.059000 40 30 34
0.583610 1.026721 3.087000 39 30 34
0.578316 1.022763 3.059000 39 32 35
0.568296 1.010305 3.006000 40 34 36
0.563381 1.006783 2.980000 40 33 37
0.558655 1.003509 2.955000 40 34 37
0.522734 0.943826 2.765000 42 32 37
0.522734 0.948666 2.765000 45 28 39
0.518575 0.945920 2.743000 45 28 42
0.514605 0.943443 2.722000 45 28 41
0.514605 0.948207 2.722000 44 28 41
0.506665 0.938268 2.680000 43 30 42
0.502695 0.935571 2.659000 43 33 44
0.498914 0.933153 2.639000 43 36 42
0.495132 0.930666 2.619000 43 36 40
0.495132 0.935250 2.619000 43 37 38
0.491351 0.932658 2.599000 45 34 37
0.483978 0.923144 2.560000 47 32 40
0.480575 0.921103 2.542000 44 33 43
0.480575 0.925553 2.542000 42 34 42
0.476983 0.923051 2.523000 44 37 41
0.476983 0.927468 2.523000 46 38 38
0.473580 0.925236 2.505000 44 35 35
0.470177 0.922941 2.487000 43 35 38
0.441441 0.870620 2.335000 43 37 41
0.441441 0.874708 2.335000 44 37 47
0.441441 0.878795 2.335000 42 37 54
0.441441 0.882882 2.335000 41 37 51
0.441441 0.886970 2.335000 41 36 49
0.435580 0.879227 2.304000 41 34 46
0.435580 0.883261 2.304000 42 34 43
0.432745 0.881517 2.289000 43 33 41
0.429909 0.879721 2.274000 43 33 39
0.427073 0.877872 2.259000 44 34 41
0.758448 -1.544729 3.975000 49 36 40
0.758448 -1.537771 3.975000 50 39 43
0.758448 -1.530812 3.975000 51 39 42
0.758448 -1.523854 3.975000 50 39 40
0.758448 -1.516896 3.975000 50 39 42
0.758448 -1.509938 3.975000 50 40 43
0.758448 -1.502979 3.975000 51 40 43
0.758448 -1.496021 3.975000 52 39 44
0.733071 1.150047 3.842000 21 20 18
0.733071 1.156773 3.842000 21 19 21
0.725057 1.150779 3.800000 25 19 25
0.717234 1.144943 3.759000 30 20 26
0.701970 1.127016 3.679000 32 21 27
0.687278 1.109733 3.602000 34 23 28
0.687278 1.116038 3.602000 37 24 29
0.659802 1.077475 3.458000 40 27 29
0.653124 1.072561 3.423000 39 32 29
0.646827 1.068155 3.390000 38 30 33
