ply
format ascii 1.0
element vertex 1269
property float x
property float y
property float z
property uchar red
property uchar green
property uchar blue
end_header
1.297431 -0.742699 2.619000 118 70 28
1.287523 -0.732478 2.599000 117 69 33
1.287523 -0.727928 2.599000 117 69 29
1.297431 -0.728945 2.619000 121 71 26
1.287523 -0.718829 2.599000 125 72 23
1.287523 -0.714279 2.599000 123 73 20
1.278110 -0.704541 2.580000 121 72 25
1.278110 -0.700025 2.580000 121 73 31
1.287523 -0.700631 2.599000 121 72 32
1.287523 -0.696081 2.599000 122 71 34
1.287523 -0.691532 2.599000 124 72 31
1.287523 -0.686982 2.599000 123 75 29
1.287523 -0.682432 2.599000 122 77 30
1.297431 -0.683099 2.619000 121 78 31
1.297431 -0.678515 2.619000 120 76 24
1.297431 -0.673930 2.619000 119 73 17
1.297431 -0.669346 2.619000 119 76 22
1.297431 -0.664761 2.619000 117 79 28
1.297431 -0.660177 2.619000 116 78 26
1.297431 -0.655592 2.619000 112 79 25
1.307338 -0.655979 2.639000 109 76 33
1.307338 -0.651359 2.639000 114 71 41
1.297431 -0.641838 2.619000 120 71 31
1.297431 -0.637254 2.619000 121 73 22
1.297431 -0.632669 2.619000 122 75 23
1.297431 -0.628085 2.619000 122 76 25
1.287523 -0.618739 2.599000 123 77 27
1.287523 -0.614189 2.599000 123 79 29
1.287523 -0.609640 2.599000 123 78 24
1.297431 -0.609747 2.619000 124 79 20
1.297431 -0.605162 2.619000 125 78 25
1.287523 -0.595991 2.599000 125 78 30
1.287523 -0.591441 2.599000 126 75 34
1.297431 -0.591408 2.619000 125 74 39
1.297431 -0.586824 2.619000 125 77 36
1.297431 -0.582239 2.619000 123 79 34
1.287523 -0.573243 2.599000 121 79 37
1.297431 -0.573070 2.619000 120 78 39
1.297431 -0.568485 2.619000 120 77 39
1.297431 -0.563901 2.619000 126 79 39
1.297431 -0.559316 2.619000 132 78 36
1.297431 -0.554732 2.619000 128 78 34
1.297431 -0.550147 2.619000 124 78 40
1.297431 -0.545563 2.619000 123 78 46
1.307338 -0.545109 2.639000 123 77 41
1.307338 -0.540490 2.639000 126 78 37
1.297431 -0.531809 2.619000 130 78 38
1.297431 -0.527224 2.619000 129 78 40
1.297431 -0.522640 2.619000 129 80 38
1.307338 -0.522011 2.639000 128 83 36
1.297431 -0.513471 2.619000 127 83 34
1.287523 -0.505000 2.599000 125 83 33
1.287523 -0.500450 2.599000 123 82 36
1.278110 -0.492276 2.580000 127 83 39
1.278110 -0.487759 2.580000 132 82 37
1.278110 -0.483243 2.580000 129 83 35
1.278110 -0.478727 2.580000 127 80 30
1.278110 -0.474211 2.580000 129 79 25
1.278110 -0.469694 2.580000 131 79 30
1.278110 -0.465178 2.580000 130 78 36
1.287523 -0.464054 2.599000 129 79 37
1.287523 -0.459504 2.599000 127 78 38
1.278110 -0.451629 2.580000 125 78 41
1.278110 -0.447113 2.580000 127 79 43
1.278110 -0.442596 2.580000 129 78 46
1.278110 -0.438080 2.580000 127 80 48
1.287523 -0.436757 2.599000 126 80 43
1.287523 -0.432207 2.599000 126 82 38
1.297431 -0.430949 2.619000 126 82 36
1.297431 -0.426364 2.619000 126 83 34
1.297431 -0.421780 2.619000 126 83 35
1.297431 -0.417195 2.619000 126 83 36
1.297431 -0.412610 2.619000 127 82 39
1.297431 -0.408026 2.619000 129 82 42
1.297431 -0.403441 2.619000 131 80 46
1.287523 -0.395811 2.599000 136 79 50
1.287523 -0.391261 2.599000 142 80 43
1.297431 -0.389688 2.619000 136 83 37
1.297431 -0.385103 2.619000 131 81 40
1.297431 -0.380518 2.619000 129 79 43
1.287523 -0.373063 2.599000 127 80 44
1.287523 -0.368513 2.599000 128 81 45
1.287523 -0.363964 2.599000 129 79 45
1.297431 -0.362180 2.619000 128 78 46
1.297431 -0.357596 2.619000 128 80 49
1.287523 -0.350315 2.599000 126 81 53
1.297431 -0.348426 2.619000 125 81 47
1.297431 -0.343842 2.619000 124 77 41
1.297431 -0.339257 2.619000 124 79 39
1.297431 -0.334673 2.619000 124 82 38
1.287523 -0.327568 2.599000 125 83 38
1.297431 -0.325504 2.619000 125 84 38
1.297431 -0.320919 2.619000 125 82 37
1.297431 -0.316335 2.619000 122 81 37
1.307338 -0.314131 2.639000 120 82 34
1.307338 -0.309511 2.639000 121 85 32
1.307338 -0.304892 2.639000 122 84 35
1.307338 -0.300272 2.639000 122 83 38
1.297431 -0.293412 2.619000 123 83 39
1.297431 -0.288827 2.619000 118 84 40
1.297431 -0.284243 2.619000 114 82 35
1.297431 -0.279658 2.619000 127 82 30
1.297431 -0.275074 2.619000 141 81 37
1.287523 -0.268423 2.599000 135 82 44
1.297431 -0.265904 2.619000 130 81 43
1.297431 -0.261320 2.619000 130 82 43
1.297431 -0.256735 2.619000 131 82 39
1.297431 -0.252151 2.619000 130 81 35
1.287523 -0.245676 2.599000 129 82 37
1.287523 -0.241126 2.599000 128 81 40
1.287523 -0.236577 2.599000 128 83 34
1.287523 -0.232027 2.599000 127 85 28
1.287523 -0.227477 2.599000 126 85 22
1.287523 -0.222928 2.599000 126 86 17
1.287523 -0.218378 2.599000 126 84 27
1.287523 -0.213829 2.599000 126 84 37
1.287523 -0.209279 2.599000 127 83 30
1.287523 -0.204730 2.599000 128 83 22
1.287523 -0.200180 2.599000 129 82 28
1.287523 -0.195631 2.599000 128 82 33
1.287523 -0.191081 2.599000 127 82 35
1.287523 -0.186531 2.599000 129 82 36
1.287523 -0.181982 2.599000 131 81 39
1.287523 -0.177432 2.599000 131 80 42
1.287523 -0.172883 2.599000 131 79 45
1.287523 -0.168333 2.599000 130 78 48
1.287523 -0.163784 2.599000 129 78 36
1.287523 -0.159234 2.599000 127 79 25
1.287523 -0.154685 2.599000 126 83 30
1.287523 -0.150135 2.599000 124 85 36
1.287523 -0.145586 2.599000 122 84 34
1.287523 -0.141036 2.599000 126 84 33
1.287523 -0.136486 2.599000 130 82 29
1.287523 -0.131937 2.599000 128 80 24
1.287523 -0.127387 2.599000 127 82 30
1.287523 -0.122838 2.599000 126 83 36
1.287523 -0.118288 2.599000 125 83 30
1.287523 -0.113739 2.599000 126 87 25
1.287523 -0.109189 2.599000 128 85 31
1.278110 -0.103875 2.580000 132 84 38
1.278110 -0.099358 2.580000 137 83 38
1.287523 -0.095541 2.599000 133 83 39
1.287523 -0.090991 2.599000 130 83 37
1.287523 -0.086441 2.599000 129 84 36
1.287523 -0.081892 2.599000 128 84 33
1.297431 -0.077937 2.619000 127 82 30
1.297431 -0.073353 2.619000 127 83 35
1.297431 -0.068768 2.619000 127 83 41
1.287523 -0.063694 2.599000 127 83 36
1.287523 -0.059144 2.599000 124 84 30
1.287523 -0.054595 2.599000 122 84 36
1.287523 -0.050045 2.599000 125 87 42
1.287523 -0.045495 2.599000 128 86 39
1.287523 -0.040946 2.599000 127 85 36
1.287523 -0.036396 2.599000 127 84 34
1.287523 -0.031847 2.599000 124 84 33
1.287523 -0.027297 2.599000 122 85 34
1.287523 -0.022748 2.599000 125 86 36
1.278110 -0.018065 2.580000 129 85 40
1.278110 -0.013549 2.580000 128 85 44
1.278110 -0.009033 2.580000 128 85 36
1.278110 -0.004516 2.580000 124 87 29
1.278110 -0.000000 2.580000 121 88 34
1.278110 0.004516 2.580000 123 88 39
1.287523 0.009099 2.599000 126 87 40
1.287523 0.013649 2.599000 123 88 42
1.287523 0.018198 2.599000 121 86 35
1.287523 0.022748 2.599000 125 85 28
1.278110 0.027098 2.580000 130 85 36
1.278110 0.031614 2.580000 127 84 44
1.278110 0.036130 2.580000 125 84 49
1.278110 0.040647 2.580000 129 84 53
1.278110 0.045163 2.580000 133 85 48
1.278110 0.049679 2.580000 134 85 44
1.278110 0.054196 2.580000 136 86 41
1.278110 0.058712 2.580000 137 86 38
1.278110 0.063228 2.580000 138 86 39
1.278110 0.067744 2.580000 134 89 40
1.278110 0.072261 2.580000 130 87 42
1.278110 0.076777 2.580000 132 87 45
1.287523 0.081892 2.599000 134 86 45
1.287523 0.086442 2.599000 139 85 45
1.287523 0.090991 2.599000 145 84 43
1.287523 0.095541 2.599000 140 82 42
1.287523 0.100090 2.599000 135 83 45
1.287523 0.104640 2.599000 134 84 47
1.287523 0.109189 2.599000 133 85 38
1.287523 0.113739 2.599000 133 85 28
1.287523 0.118288 2.599000 134 86 34
1.287523 0.122838 2.599000 133 88 39
1.287523 0.127387 2.599000 133 88 41
1.287523 0.131937 2.599000 133 87 43
1.287523 0.136487 2.599000 133 86 43
1.287523 0.141036 2.599000 131 88 42
1.278110 0.144521 2.580000 130 87 40
1.278110 0.149038 2.580000 126 87 38
1.278110 0.153554 2.580000 122 88 36
1.287523 0.159234 2.599000 127 87 34
1.287523 0.163784 2.599000 132 86 41
1.287523 0.168333 2.599000 131 85 48
1.287523 0.172883 2.599000 131 85 46
1.278110 0.176135 2.580000 129 86 44
1.287523 0.181982 2.599000 128 85 41
1.287523 0.186532 2.599000 128 87 38
1.278110 0.189684 2.580000 129 83 40
1.278110 0.194201 2.580000 128 82 43
1.278110 0.198717 2.580000 128 83 43
1.278110 0.203233 2.580000 127 84 44
1.278110 0.207749 2.580000 127 84 43
1.278110 0.212266 2.580000 129 82 43
1.278110 0.216782 2.580000 131 82 40
1.278110 0.221298 2.580000 131 84 38
1.278110 0.225815 2.580000 132 85 44
1.278110 0.230331 2.580000 133 84 50
1.278110 0.234847 2.580000 134 85 47
1.278110 0.239363 2.580000 133 86 44
1.278110 0.243880 2.580000 133 86 46
1.278110 0.248396 2.580000 133 84 47
1.278110 0.252912 2.580000 133 85 52
1.278110 0.257429 2.580000 134 87 57
1.278110 0.261945 2.580000 135 86 50
1.278110 0.266461 2.580000 136 86 44
1.278110 0.270978 2.580000 137 87 43
1.287523 0.277523 2.599000 135 89 43
1.287523 0.282072 2.599000 134 89 43
1.287523 0.286622 2.599000 135 91 44
1.287523 0.291171 2.599000 136 90 38
1.287523 0.295721 2.599000 132 90 32
1.287523 0.300270 2.599000 129 90 40
1.287523 0.304820 2.599000 133 90 48
1.278110 0.307108 2.580000 137 89 48
1.278110 0.311624 2.580000 137 89 48
1.278110 0.316140 2.580000 138 88 53
1.278110 0.320657 2.580000 134 87 58
1.278110 0.325173 2.580000 131 87 49
1.287523 0.332117 2.599000 135 88 39
1.287523 0.336667 2.599000 140 88 43
1.287523 0.341216 2.599000 138 88 47
1.287523 0.345766 2.599000 137 87 47
1.287523 0.350315 2.599000 136 89 46
1.287523 0.354865 2.599000 136 91 43
1.287523 0.359415 2.599000 135 91 39
1.287523 0.363964 2.599000 134 90 45
1.287523 0.368514 2.599000 133 91 52
1.287523 0.373063 2.599000 132 91 50
1.287523 0.377613 2.599000 134 92 48
1.287523 0.382162 2.599000 136 92 46
1.287523 0.386712 2.599000 134 92 45
1.287523 0.391261 2.599000 133 89 44
1.287523 0.395811 2.599000 133 86 43
1.287523 0.400361 2.599000 133 87 45
1.287523 0.404910 2.599000 134 88 48
1.287523 0.409460 2.599000 135 88 46
1.287523 0.414009 2.599000 136 86 44
1.287523 0.418559 2.599000 137 86 48
1.287523 0.423108 2.599000 140 86 51
1.287523 0.427658 2.599000 144 85 40
1.278110 0.429048 2.580000 141 84 30
1.278110 0.433564 2.580000 138 87 36
1.278110 0.438080 2.580000 140 87 43
1.278110 0.442597 2.580000 142 88 40
1.278110 0.447113 2.580000 139 88 37
1.278110 0.451629 2.580000 136 89 42
1.278110 0.456145 2.580000 135 88 48
1.278110 0.460662 2.580000 134 86 49
1.278110 0.465178 2.580000 134 85 51
1.278110 0.469694 2.580000 134 86 54
1.278110 0.474211 2.580000 133 87 57
1.278110 0.478727 2.580000 132 87 51
1.278110 0.483243 2.580000 133 89 45
1.278110 0.487759 2.580000 134 88 44
1.278110 0.492276 2.580000 134 89 43
1.278110 0.496792 2.580000 134 88 44
1.278110 0.501308 2.580000 134 87 46
1.278110 0.505825 2.580000 135 88 47
1.278110 0.510341 2.580000 138 87 48
1.278110 0.514857 2.580000 142 87 47
1.278110 0.519374 2.580000 137 88 46
1.278110 0.523890 2.580000 133 87 47
1.278110 0.528406 2.580000 134 86 49
1.278110 0.532922 2.580000 135 88 41
1.278110 0.537439 2.580000 137 91 34
1.278110 0.541955 2.580000 140 89 37
1.278110 0.546471 2.580000 138 88 41
1.268202 0.546716 2.560000 136 89 43
1.278110 0.555504 2.580000 136 90 46
1.268202 0.555679 2.560000 137 89 45
1.268202 0.560160 2.560000 128 92 45
1.268202 0.564641 2.560000 120 91 44
1.268202 0.569123 2.560000 126 91 42
1.278110 0.578085 2.580000 132 90 43
1.278110 0.582601 2.580000 132 90 44
1.278110 0.587118 2.580000 133 89 44
1.278110 0.591634 2.580000 131 88 44
1.278110 0.596150 2.580000 130 88 45
1.278110 0.600667 2.580000 132 88 45
1.278110 0.605183 2.580000 134 88 48
1.278110 0.609699 2.580000 87 88 51
1.268202 0.609454 2.560000 41 44 35
1.268202 0.613936 2.560000 38 2 19
1.268202 0.618417 2.560000 36 8 14
1.268202 0.622898 2.560000 49 18 9
1.268202 0.627379 2.560000 63 26 19
1.268202 0.631861 2.560000 53 35 29
1.278110 0.641313 2.580000 43 32 24
1.278110 0.645830 2.580000 37 28 20
1.287523 0.655135 2.599000 31 26 16
1.297431 0.664761 2.619000 28 25 12
1.297431 0.669346 2.619000 26 20 10
1.297431 0.673930 2.619000 20 15 9
1.307338 0.683696 2.639000 14 12 7
1.307338 0.688316 2.639000 13 9 5
1.307338 0.692936 2.639000 13 9 4
0.989297 0.681671 1.997000 129 109 95
0.972949 0.673845 1.964000 127 108 97
0.967004 0.673144 1.952000 129 109 100
0.961555 0.672749 1.941000 131 111 102
0.956601 0.672663 1.931000 128 112 104
0.945702 0.668341 1.909000 125 109 102
0.945702 0.671683 1.909000 130 108 100
0.935299 0.667599 1.888000 135 108 99
0.930345 0.667350 1.878000 134 109 99
0.925391 0.667067 1.868000 133 110 104
0.925391 0.670337 1.868000 134 110 110
0.920437 0.670000 1.858000 135 110 106
0.915484 0.669629 1.848000 134 111 101
0.905576 0.665582 1.828000 133 115 101
0.896163 0.661831 1.809000 132 119 101
0.886751 0.658013 1.790000 131 116 98
0.886751 0.661146 1.790000 133 116 95
0.877834 0.657600 1.772000 135 115 98
0.877834 0.660702 1.772000 135 115 101
0.868917 0.657061 1.754000 135 113 103
0.864458 0.656744 1.745000 133 111 105
0.864458 0.659799 1.745000 132 110 106
0.864458 0.662853 1.745000 135 113 108
0.860000 0.662473 1.736000 139 114 110
0.856037 0.662445 1.728000 145 111 113
0.851578 0.662004 1.719000 152 111 109
0.843156 0.658437 1.702000 145 112 106
0.835230 0.655198 1.686000 139 112 103
0.830772 0.654636 1.677000 142 112 101
0.826808 0.654435 1.669000 145 114 105
0.822845 0.654206 1.661000 143 114 110
0.818882 0.653948 1.653000 141 114 110
0.811451 0.650882 1.638000 140 116 110
0.811451 0.653749 1.638000 139 113 113
0.803525 0.650202 1.622000 142 110 117
0.796094 0.647002 1.607000 145 110 114
0.796094 0.649815 1.607000 141 111 111
0.792626 0.649786 1.600000 138 112 115
0.792626 0.652586 1.600000 136 112 118
0.788663 0.652110 1.592000 135 113 108
0.785196 0.652018 1.585000 136 116 98
0.778260 0.649009 1.571000 137 115 103
0.770829 0.645536 1.556000 137 113 107
0.770829 0.648259 1.556000 138 114 108
0.768848 0.649310 1.552000 138 115 109
1.311958 -0.942392 2.639000 110 67 20
1.311958 -0.937773 2.639000 110 69 22
1.311958 -0.933153 2.639000 110 68 18
1.311958 -0.928534 2.639000 111 67 14
1.311958 -0.923914 2.639000 112 64 17
1.321901 -0.926261 2.659000 110 69 21
1.311958 -0.914675 2.639000 109 71 23
1.302015 -0.903158 2.619000 107 72 26
1.292072 -0.891712 2.599000 105 77 25
1.292072 -0.887162 2.599000 109 73 25
1.292072 -0.882613 2.599000 113 72 22
1.292072 -0.878063 2.599000 112 74 19
1.302015 -0.880235 2.619000 111 75 19
1.302015 -0.875651 2.619000 112 73 20
1.302015 -0.871066 2.619000 113 74 22
1.302015 -0.866482 2.619000 113 74 25
1.311958 -0.868479 2.639000 113 75 22
1.311958 -0.863860 2.639000 114 74 19
1.311958 -0.859240 2.639000 114 74 19
1.311958 -0.854620 2.639000 114 70 20
1.302015 -0.843559 2.619000 115 67 11
1.302015 -0.838974 2.619000 116 71 2
1.302015 -0.834390 2.619000 117 75 11
1.292072 -0.823469 2.599000 116 75 21
1.292072 -0.818919 2.599000 116 76 24
1.282627 -0.808416 2.580000 113 76 27
1.282627 -0.803900 2.580000 110 77 28
1.282627 -0.799383 2.580000 113 77 30
1.282627 -0.794867 2.580000 115 76 27
1.282627 -0.790351 2.580000 119 75 25
1.282627 -0.785835 2.580000 122 74 28
1.282627 -0.781318 2.580000 120 75 31
1.282627 -0.776802 2.580000 119 79 29
1.282627 -0.772286 2.580000 114 76 28
1.292072 -0.773423 2.599000 109 73 21
1.292072 -0.768874 2.599000 113 76 15
1.292072 -0.764324 2.599000 118 77 18
1.282627 -0.754221 2.580000 117 71 22
1.282627 -0.749704 2.580000 117 69 20
1.292072 -0.750676 2.599000 113 75 18
1.292072 -0.746126 2.599000 109 78 19
1.292072 -0.741577 2.599000 113 74 21
1.292072 -0.737027 2.599000 116 72 29
1.292072 -0.732478 2.599000 116 70 37
1.292072 -0.727928 2.599000 115 71 29
1.292072 -0.723378 2.599000 117 70 22
1.292072 -0.718829 2.599000 118 69 18
1.282627 -0.709058 2.580000 118 70 14
1.282627 -0.704541 2.580000 117 72 24
1.282627 -0.700025 2.580000 116 72 34
1.292072 -0.700631 2.599000 115 73 32
1.292072 -0.696081 2.599000 119 72 30
1.292072 -0.691532 2.599000 122 73 31
1.292072 -0.686982 2.599000 122 75 32
1.292072 -0.682432 2.599000 122 79 31
1.292072 -0.677883 2.599000 121 78 30
1.302015 -0.678515 2.619000 120 80 21
1.302015 -0.673930 2.619000 120 77 13
1.302015 -0.669346 2.619000 120 77 18
1.302015 -0.664761 2.619000 118 78 23
1.302015 -0.660177 2.619000 116 80 22
1.302015 -0.655592 2.619000 115 79 21
1.302015 -0.651007 2.619000 114 79 35
1.302015 -0.646423 2.619000 117 74 49
1.292072 -0.636937 2.599000 121 73 31
1.292072 -0.632387 2.599000 121 76 13
1.292072 -0.627838 2.599000 122 79 18
1.292072 -0.623288 2.599000 122 78 23
1.292072 -0.618739 2.599000 122 78 24
1.292072 -0.614189 2.599000 119 78 26
1.292072 -0.609640 2.599000 117 77 18
1.292072 -0.605090 2.599000 121 77 11
1.292072 -0.600541 2.599000 124 76 19
1.292072 -0.595991 2.599000 124 77 27
1.292072 -0.591441 2.599000 124 77 33
1.292072 -0.586892 2.599000 122 77 39
1.292072 -0.582342 2.599000 120 79 35
1.292072 -0.577793 2.599000 121 78 31
1.292072 -0.573243 2.599000 121 79 36
1.292072 -0.568694 2.599000 117 78 41
1.292072 -0.564144 2.599000 114 77 40
1.302015 -0.563901 2.619000 120 77 39
1.292072 -0.555045 2.599000 127 77 34
1.302015 -0.554732 2.619000 125 77 30
1.292072 -0.545946 2.599000 122 78 34
1.302015 -0.545563 2.619000 123 78 39
1.302015 -0.540978 2.619000 123 77 36
1.302015 -0.536393 2.619000 126 79 34
1.302015 -0.531809 2.619000 129 81 32
1.302015 -0.527224 2.619000 129 80 30
1.302015 -0.522640 2.619000 129 81 34
1.302015 -0.518055 2.619000 130 82 38
1.292072 -0.509550 2.599000 132 83 43
1.292072 -0.505000 2.599000 128 82 49
1.292072 -0.500450 2.599000 123 81 44
1.282627 -0.492276 2.580000 124 81 39
1.282627 -0.487759 2.580000 126 82 37
1.282627 -0.483243 2.580000 125 82 36
1.282627 -0.478727 2.580000 125 81 33
1.292072 -0.477703 2.599000 126 80 30
1.292072 -0.473153 2.599000 126 81 32
1.292072 -0.468604 2.599000 126 81 35
1.292072 -0.464054 2.599000 127 82 28
1.292072 -0.459504 2.599000 123 81 22
1.292072 -0.454955 2.599000 119 80 33
1.282627 -0.447113 2.580000 123 78 45
1.282627 -0.442596 2.580000 126 77 49
1.282627 -0.438080 2.580000 126 79 53
1.292072 -0.436757 2.599000 126 80 45
1.292072 -0.432207 2.599000 126 82 38
1.292072 -0.427658 2.599000 126 83 36
1.292072 -0.423108 2.599000 126 83 35
1.292072 -0.418559 2.599000 126 85 36
1.292072 -0.414009 2.599000 126 83 37
1.292072 -0.409459 2.599000 126 80 40
1.292072 -0.404910 2.599000 128 80 44
1.302015 -0.403441 2.619000 129 79 45
1.292072 -0.395811 2.599000 132 78 46
1.292072 -0.391261 2.599000 135 78 39
1.302015 -0.389688 2.619000 131 81 33
1.302015 -0.385103 2.619000 126 83 38
1.292072 -0.377613 2.599000 126 80 43
1.292072 -0.373063 2.599000 127 80 42
1.292072 -0.368513 2.599000 126 79 42
1.292072 -0.363964 2.599000 126 78 44
1.292072 -0.359414 2.599000 127 78 47
1.292072 -0.354865 2.599000 128 81 46
1.282627 -0.347754 2.580000 126 81 45
1.292072 -0.345766 2.599000 124 82 44
1.292072 -0.341216 2.599000 122 80 44
1.292072 -0.336667 2.599000 120 79 40
1.292072 -0.332117 2.599000 122 82 36
1.292072 -0.327568 2.599000 125 84 35
1.292072 -0.323018 2.599000 124 83 34
1.302015 -0.320919 2.619000 124 83 34
1.302015 -0.316335 2.619000 123 81 35
1.302015 -0.311750 2.619000 121 82 29
1.302015 -0.307166 2.619000 122 84 24
1.302015 -0.302581 2.619000 123 86 30
1.302015 -0.297996 2.619000 123 84 36
1.302015 -0.293412 2.619000 124 84 39
1.292072 -0.286622 2.599000 122 84 42
1.292072 -0.282072 2.599000 120 85 41
1.292072 -0.277522 2.599000 127 83 41
1.292072 -0.272973 2.599000 134 82 42
1.292072 -0.268423 2.599000 131 81 44
1.282627 -0.261945 2.580000 129 80 44
1.282627 -0.257428 2.580000 128 82 44
1.282627 -0.252912 2.580000 128 85 36
1.282627 -0.248396 2.580000 128 83 28
1.282627 -0.243880 2.580000 128 84 35
1.282627 -0.239363 2.580000 129 83 43
1.282627 -0.234847 2.580000 129 82 34
1.282627 -0.230331 2.580000 128 83 26
1.282627 -0.225815 2.580000 126 83 17
1.292072 -0.222928 2.599000 125 83 8
1.292072 -0.218378 2.599000 124 83 23
1.292072 -0.213829 2.599000 125 84 39
1.282627 -0.207749 2.580000 126 86 33
1.292072 -0.204730 2.599000 127 84 28
1.292072 -0.200180 2.599000 128 85 29
1.292072 -0.195631 2.599000 128 83 30
1.292072 -0.191081 2.599000 127 83 33
1.292072 -0.186531 2.599000 128 82 36
1.292072 -0.181982 2.599000 129 83 39
1.292072 -0.177432 2.599000 129 82 43
1.292072 -0.172883 2.599000 129 81 47
1.292072 -0.168333 2.599000 129 80 52
1.282627 -0.162586 2.580000 129 81 33
1.282627 -0.158070 2.580000 129 81 14
1.282627 -0.153554 2.580000 130 84 28
1.282627 -0.149038 2.580000 127 85 42
1.282627 -0.144521 2.580000 125 86 36
1.282627 -0.140005 2.580000 129 83 30
1.282627 -0.135489 2.580000 134 81 24
1.282627 -0.130972 2.580000 130 82 19
1.282627 -0.126456 2.580000 127 84 27
1.282627 -0.121940 2.580000 126 83 36
1.282627 -0.117424 2.580000 125 82 28
1.282627 -0.112907 2.580000 124 84 20
1.282627 -0.108391 2.580000 123 85 28
1.282627 -0.103875 2.580000 127 84 37
1.282627 -0.099358 2.580000 132 85 36
1.282627 -0.094842 2.580000 130 84 35
1.282627 -0.090326 2.580000 128 83 37
1.282627 -0.085809 2.580000 127 84 40
1.282627 -0.081293 2.580000 127 87 37
1.292072 -0.077342 2.599000 125 84 34
1.292072 -0.072793 2.599000 124 85 37
1.292072 -0.068243 2.599000 125 84 41
1.282627 -0.063228 2.580000 127 84 29
1.282627 -0.058712 2.580000 125 83 17
1.292072 -0.054595 2.599000 124 83 26
1.292072 -0.050045 2.599000 125 85 36
1.292072 -0.045495 2.599000 127 87 35
1.282627 -0.040647 2.580000 127 85 34
1.292072 -0.036396 2.599000 127 85 31
1.282627 -0.031614 2.580000 126 85 29
1.282627 -0.027098 2.580000 125 85 34
1.282627 -0.022581 2.580000 127 85 39
1.282627 -0.018065 2.580000 129 86 43
1.282627 -0.013549 2.580000 129 85 47
1.282627 -0.009033 2.580000 130 85 42
1.282627 -0.004516 2.580000 129 86 37
1.282627 -0.000000 2.580000 128 89 36
1.282627 0.004516 2.580000 128 88 36
1.282627 0.009033 2.580000 128 87 39
1.282627 0.013549 2.580000 127 86 42
1.282627 0.018065 2.580000 126 86 33
1.282627 0.022581 2.580000 128 85 25
1.282627 0.027098 2.580000 131 87 35
1.282627 0.031614 2.580000 132 85 45
1.282627 0.036130 2.580000 133 86 54
1.282627 0.040647 2.580000 133 85 63
1.272684 0.044813 2.560000 134 87 53
1.272684 0.049294 2.560000 134 85 43
1.272684 0.053775 2.560000 135 87 39
1.272684 0.058257 2.560000 134 85 35
1.282627 0.063228 2.580000 133 86 37
1.282627 0.067744 2.580000 130 87 39
1.282627 0.072261 2.580000 126 88 40
1.282627 0.076777 2.580000 128 87 42
1.282627 0.081293 2.580000 131 87 43
1.292072 0.086442 2.599000 135 86 45
1.292072 0.090991 2.599000 139 84 44
1.292072 0.095541 2.599000 135 82 43
1.292072 0.100090 2.599000 132 83 47
1.282627 0.103875 2.580000 132 83 51
1.282627 0.108391 2.580000 132 86 34
1.292072 0.113739 2.599000 132 86 18
1.292072 0.118288 2.599000 132 87 30
1.282627 0.121940 2.580000 130 88 42
1.282627 0.126456 2.580000 129 90 42
1.282627 0.130972 2.580000 130 87 42
1.282627 0.135489 2.580000 131 87 41
1.282627 0.140005 2.580000 130 88 41
1.282627 0.144521 2.580000 130 89 39
1.282627 0.149038 2.580000 127 88 38
1.282627 0.153554 2.580000 124 88 40
1.282627 0.158070 2.580000 127 87 43
1.282627 0.162587 2.580000 130 88 45
1.282627 0.167103 2.580000 130 85 47
1.282627 0.171619 2.580000 130 83 45
1.282627 0.176135 2.580000 128 83 44
1.282627 0.180652 2.580000 127 84 43
1.282627 0.185168 2.580000 124 84 43
1.282627 0.189684 2.580000 122 82 42
1.282627 0.194201 2.580000 124 83 42
1.282627 0.198717 2.580000 126 84 42
1.282627 0.203233 2.580000 126 84 42
1.282627 0.207749 2.580000 127 84 40
1.282627 0.212266 2.580000 129 82 39
1.272684 0.215102 2.560000 131 82 38
1.282627 0.221298 2.580000 130 84 37
1.272684 0.224064 2.560000 129 87 46
1.272684 0.228545 2.560000 131 85 55
1.272684 0.233027 2.560000 133 85 50
1.272684 0.237508 2.560000 133 86 45
1.272684 0.241989 2.560000 134 89 46
1.272684 0.246471 2.560000 131 87 47
1.272684 0.250952 2.560000 128 86 55
1.272684 0.255433 2.560000 131 85 64
1.282627 0.261945 2.580000 135 82 48
1.282627 0.266461 2.580000 138 84 32
1.282627 0.270978 2.580000 141 86 36
1.282627 0.275494 2.580000 135 87 41
1.282627 0.280010 2.580000 130 87 41
1.282627 0.284526 2.580000 132 89 41
1.292072 0.291171 2.599000 135 90 30
1.292072 0.295721 2.599000 133 90 19
1.282627 0.298075 2.580000 131 90 32
1.282627 0.302592 2.580000 134 90 45
1.282627 0.307108 2.580000 137 90 44
1.282627 0.311624 2.580000 139 90 44
1.282627 0.316140 2.580000 141 91 43
1.282627 0.320657 2.580000 137 89 43
1.282627 0.325173 2.580000 133 90 36
1.282627 0.329689 2.580000 136 89 29
1.282627 0.334206 2.580000 139 89 36
1.282627 0.338722 2.580000 139 88 44
1.292072 0.345766 2.599000 140 88 45
1.282627 0.347754 2.580000 137 90 46
1.282627 0.352271 2.580000 134 92 40
1.282627 0.356787 2.580000 134 90 35
1.282627 0.361303 2.580000 134 90 43
1.282627 0.365820 2.580000 133 90 51
1.282627 0.370336 2.580000 132 91 54
1.282627 0.374852 2.580000 133 91 58
1.282627 0.379368 2.580000 134 93 51
1.282627 0.383885 2.580000 135 91 44
1.282627 0.388401 2.580000 137 90 42
1.282627 0.392917 2.580000 135 88 41
1.282627 0.397434 2.580000 133 88 44
1.292072 0.404910 2.599000 133 88 47
1.282627 0.406466 2.580000 133 91 47
1.282627 0.410982 2.580000 134 89 48
1.282627 0.415499 2.580000 135 87 51
1.282627 0.420015 2.580000 137 87 55
1.282627 0.424531 2.580000 140 86 48
1.282627 0.429048 2.580000 138 86 41
1.282627 0.433564 2.580000 136 87 43
1.282627 0.438080 2.580000 137 87 46
1.282627 0.442597 2.580000 138 88 39
1.282627 0.447113 2.580000 135 89 32
1.282627 0.451629 2.580000 132 91 40
1.282627 0.456145 2.580000 133 89 48
1.282627 0.460662 2.580000 134 88 50
1.282627 0.465178 2.580000 136 87 53
1.282627 0.469694 2.580000 138 88 58
1.282627 0.474211 2.580000 133 87 64
1.282627 0.478727 2.580000 128 85 55
1.282627 0.483243 2.580000 132 88 47
1.282627 0.487759 2.580000 135 90 43
1.282627 0.492276 2.580000 133 89 39
1.272684 0.492941 2.560000 130 90 42
1.282627 0.501308 2.580000 132 88 46
1.282627 0.505825 2.580000 133 88 49
1.272684 0.506385 2.560000 132 88 53
1.282627 0.514857 2.580000 131 88 48
1.272684 0.515347 2.560000 131 88 44
1.282627 0.523890 2.580000 131 87 45
1.282627 0.528406 2.580000 132 87 47
1.282627 0.532922 2.580000 133 87 38
1.282627 0.537439 2.580000 134 88 30
1.282627 0.541955 2.580000 135 88 35
1.282627 0.546471 2.580000 134 88 41
1.272684 0.546716 2.560000 133 89 43
1.272684 0.551198 2.560000 134 88 46
1.272684 0.555679 2.560000 135 88 45
1.272684 0.560160 2.560000 129 90 44
1.272684 0.564641 2.560000 124 94 41
1.272684 0.569123 2.560000 128 90 39
1.282627 0.578085 2.580000 132 88 42
1.282627 0.582601 2.580000 133 87 46
1.282627 0.587118 2.580000 134 87 46
1.282627 0.591634 2.580000 132 88 47
1.282627 0.596150 2.580000 131 90 44
1.282627 0.600667 2.580000 130 89 41
1.282627 0.605183 2.580000 129 91 41
1.282627 0.609699 2.580000 105 83 42
1.272684 0.609454 2.560000 81 63 37
1.272684 0.613936 2.560000 50 28 32
1.272684 0.618417 2.560000 19 3 16
1.272684 0.622898 2.560000 33 12 1
1.272684 0.627379 2.560000 47 22 11
1.272684 0.631861 2.560000 38 30 21
1.282627 0.641313 2.580000 29 34 19
1.282627 0.645830 2.580000 30 30 17
1.292072 0.655135 2.599000 31 26 14
1.302015 0.664761 2.619000 26 24 12
1.302015 0.669346 2.619000 21 24 11
1.302015 0.673930 2.619000 16 17 10
1.311958 0.683696 2.639000 10 14 7
1.311958 0.688316 2.639000 9 12 5
1.311958 0.692936 2.639000 7 12 5
0.998758 0.685767 2.009000 131 107 93
0.976387 0.673845 1.964000 128 107 96
0.964953 0.669351 1.941000 130 109 99
0.964953 0.672749 1.941000 132 111 103
0.954513 0.668831 1.920000 131 109 107
0.949044 0.668341 1.909000 129 105 104
0.949044 0.671683 1.909000 132 106 101
0.944073 0.671488 1.899000 136 107 101
0.938604 0.670904 1.888000 134 109 101
0.933633 0.670638 1.878000 133 112 108
0.928661 0.670337 1.868000 133 111 116
0.923690 0.670000 1.858000 134 111 109
0.918719 0.669629 1.848000 133 111 102
0.899330 0.658664 1.809000 132 116 101
0.894856 0.658538 1.800000 132 116 101
0.889884 0.658013 1.790000 131 117 96
0.885410 0.657822 1.781000 133 116 92
0.880936 0.657600 1.772000 134 115 96
0.876461 0.657346 1.763000 134 114 101
0.871987 0.657061 1.754000 135 115 103
0.867513 0.656744 1.745000 134 111 105
0.867513 0.659799 1.745000 133 105 106
0.867513 0.662853 1.745000 135 114 107
0.863039 0.662473 1.736000 137 118 107
0.859061 0.662445 1.728000 141 113 108
0.850610 0.658923 1.711000 145 110 106
0.846136 0.658437 1.702000 141 112 105
0.842159 0.658307 1.694000 136 114 105
0.838181 0.658150 1.686000 137 114 105
0.833707 0.657572 1.677000 137 118 107
0.829730 0.657357 1.669000 137 114 109
0.825753 0.657113 1.661000 137 114 108
0.817799 0.653663 1.645000 136 114 107
0.814319 0.653749 1.638000 135 114 110
0.810342 0.653409 1.630000 138 111 113
0.802884 0.650223 1.615000 141 110 111
0.798907 0.649815 1.607000 138 112 110
0.798907 0.652629 1.607000 136 114 116
0.795427 0.652586 1.600000 133 112 123
0.791450 0.652110 1.592000 131 113 107
0.787970 0.652018 1.585000 133 115 92
0.784490 0.651900 1.578000 136 118 99
0.781010 0.651758 1.571000 137 115 106
0.777033 0.651176 1.563000 138 114 106
0.773553 0.650983 1.556000 138 114 107
1.316577 -0.942392 2.639000 110 71 21
1.316577 -0.937773 2.639000 109 75 25
1.316577 -0.933153 2.639000 108 71 23
1.316577 -0.928534 2.639000 106 69 22
1.316577 -0.923914 2.639000 104 70 21
1.306600 -0.912327 2.619000 105 71 21
1.296622 -0.900811 2.599000 107 71 26
1.296622 -0.896261 2.599000 103 72 32
1.296622 -0.891712 2.599000 100 75 28
1.296622 -0.887162 2.599000 107 77 24
1.296622 -0.882613 2.599000 114 74 23
1.296622 -0.878063 2.599000 114 76 22
1.296622 -0.873514 2.599000 115 74 22
1.296622 -0.868964 2.599000 120 74 23
1.296622 -0.864414 2.599000 126 73 23
1.306600 -0.866482 2.619000 121 76 23
1.306600 -0.861897 2.619000 116 75 20
1.316577 -0.863860 2.639000 113 76 17
1.306600 -0.852728 2.619000 111 74 21
1.316577 -0.854620 2.639000 113 73 24
1.306600 -0.843559 2.619000 115 71 19
1.306600 -0.838974 2.619000 115 76 14
1.306600 -0.834390 2.619000 116 74 20
1.287143 -0.817449 2.580000 116 76 26
1.287143 -0.812932 2.580000 116 76 26
1.287143 -0.808416 2.580000 114 76 26
1.287143 -0.803900 2.580000 112 76 27
1.287143 -0.799383 2.580000 114 78 28
1.287143 -0.794867 2.580000 116 77 25
1.287143 -0.790351 2.580000 118 77 22
1.287143 -0.785835 2.580000 120 74 25
1.287143 -0.781318 2.580000 119 73 29
1.287143 -0.776802 2.580000 118 76 29
1.287143 -0.772286 2.580000 115 77 29
1.296622 -0.773423 2.599000 112 76 30
1.296622 -0.768874 2.599000 115 78 31
1.287143 -0.758737 2.580000 118 76 28
1.287143 -0.754221 2.580000 118 72 26
1.287143 -0.749704 2.580000 118 75 22
1.287143 -0.745188 2.580000 116 81 19
1.287143 -0.740672 2.580000 114 78 16
1.287143 -0.736155 2.580000 114 77 14
1.287143 -0.731639 2.580000 115 72 22
1.287143 -0.727123 2.580000 114 69 31
1.287143 -0.722606 2.580000 114 70 27
1.296622 -0.723378 2.599000 113 72 24
1.296622 -0.718829 2.599000 112 71 23
1.287143 -0.709058 2.580000 113 69 22
1.287143 -0.704541 2.580000 114 70 32
1.287143 -0.700025 2.580000 112 73 43
1.287143 -0.695509 2.580000 110 74 39
1.287143 -0.690992 2.580000 115 72 34
1.287143 -0.686476 2.580000 121 72 37
1.287143 -0.681960 2.580000 121 73 40
1.287143 -0.677444 2.580000 122 76 36
1.287143 -0.672927 2.580000 121 77 32
1.287143 -0.668411 2.580000 120 78 29
1.296622 -0.668784 2.599000 120 79 26
1.296622 -0.664234 2.599000 121 78 28
1.306600 -0.664761 2.619000 119 78 30
1.306600 -0.660177 2.619000 117 78 27
1.306600 -0.655592 2.619000 118 78 24
1.296622 -0.646036 2.599000 119 77 30
1.287143 -0.636797 2.580000 120 74 37
1.287143 -0.632281 2.580000 122 76 29
1.296622 -0.632387 2.599000 122 79 22
1.287143 -0.623248 2.580000 123 79 24
1.287143 -0.618732 2.580000 122 79 27
1.287143 -0.614215 2.580000 121 78 28
1.287143 -0.609699 2.580000 116 79 29
1.287143 -0.605183 2.580000 112 77 26
1.296622 -0.605090 2.599000 118 79 23
1.296622 -0.600541 2.599000 124 78 28
1.296622 -0.595991 2.599000 123 79 33
1.296622 -0.591441 2.599000 123 78 35
1.296622 -0.586892 2.599000 119 78 38
1.296622 -0.582342 2.599000 116 79 34
1.296622 -0.577793 2.599000 119 78 31
1.296622 -0.573243 2.599000 122 78 37
1.296622 -0.568694 2.599000 115 78 44
1.296622 -0.564144 2.599000 108 77 42
1.296622 -0.559595 2.599000 115 77 40
1.287143 -0.550987 2.580000 123 76 36
1.296622 -0.550495 2.599000 122 76 32
1.287143 -0.541955 2.580000 121 78 36
1.296622 -0.541396 2.599000 122 79 40
1.296622 -0.536847 2.599000 124 78 39
1.296622 -0.532297 2.599000 126 81 39
1.296622 -0.527748 2.599000 129 81 35
1.306600 -0.527224 2.619000 129 82 32
1.296622 -0.518649 2.599000 129 80 34
1.296622 -0.514099 2.599000 133 81 37
1.296622 -0.509550 2.599000 138 81 42
1.287143 -0.501308 2.580000 131 81 47
1.287143 -0.496792 2.580000 124 81 44
1.287143 -0.492276 2.580000 122 80 41
1.287143 -0.487759 2.580000 120 80 41
1.287143 -0.483243 2.580000 122 82 41
1.287143 -0.478727 2.580000 124 82 36
1.287143 -0.474211 2.580000 123 82 31
1.287143 -0.469694 2.580000 122 81 35
1.287143 -0.465178 2.580000 123 83 39
1.287143 -0.460662 2.580000 125 82 35
1.287143 -0.456145 2.580000 119 84 32
1.287143 -0.451629 2.580000 114 81 38
1.287143 -0.447113 2.580000 119 79 45
1.287143 -0.442596 2.580000 124 78 46
1.287143 -0.438080 2.580000 125 79 47
1.287143 -0.433564 2.580000 126 80 41
1.296622 -0.432207 2.599000 126 83 35
1.296622 -0.427658 2.599000 127 82 33
1.296622 -0.423108 2.599000 126 82 32
1.296622 -0.418559 2.599000 126 83 33
1.296622 -0.414009 2.599000 126 86 35
1.296622 -0.409459 2.599000 126 81 39
1.296622 -0.404910 2.599000 127 79 43
1.296622 -0.400360 2.599000 128 78 45
1.296622 -0.395811 2.599000 128 76 47
1.296622 -0.391261 2.599000 129 79 39
1.296622 -0.386712 2.599000 125 83 30
1.296622 -0.382162 2.599000 122 81 34
1.296622 -0.377613 2.599000 124 80 38
1.296622 -0.373063 2.599000 127 80 37
1.287143 -0.365820 2.580000 125 78 36
1.287143 -0.361303 2.580000 124 78 40
1.287143 -0.356787 2.580000 126 78 44
1.287143 -0.352271 2.580000 128 80 46
1.287143 -0.347754 2.580000 125 81 49
1.287143 -0.343238 2.580000 123 81 46
1.287143 -0.338722 2.580000 120 82 44
1.287143 -0.334205 2.580000 117 82 41
1.287143 -0.329689 2.580000 121 83 38
1.287143 -0.325173 2.580000 125 83 37
1.287143 -0.320657 2.580000 124 84 36
1.296622 -0.318468 2.599000 124 83 41
1.296622 -0.313919 2.599000 123 81 46
1.296622 -0.309369 2.599000 123 82 39
1.296622 -0.304820 2.599000 123 84 32
1.287143 -0.298075 2.580000 124 84 35
1.296622 -0.295721 2.599000 124 85 38
1.296622 -0.291171 2.599000 125 84 42
1.296622 -0.286622 2.599000 125 84 47
1.287143 -0.280010 2.580000 126 84 45
1.287143 -0.275494 2.580000 127 83 44
1.287143 -0.270977 2.580000 128 83 48
1.287143 -0.266461 2.580000 128 83 53
1.287143 -0.261945 2.580000 128 82 49
1.287143 -0.257428 2.580000 126 84 46
1.287143 -0.252912 2.580000 125 84 40
1.287143 -0.248396 2.580000 126 83 35
1.287143 -0.243880 2.580000 128 84 44
1.287143 -0.239363 2.580000 129 85 53
1.287143 -0.234847 2.580000 131 83 44
1.287143 -0.230331 2.580000 129 82 35
1.287143 -0.225815 2.580000 127 82 29
1.287143 -0.221298 2.580000 125 81 23
1.287143 -0.216782 2.580000 123 81 32
1.287143 -0.212266 2.580000 124 84 41
1.287143 -0.207749 2.580000 126 84 35
1.287143 -0.203233 2.580000 127 84 29
1.287143 -0.198717 2.580000 128 84 32
1.296622 -0.195631 2.599000 128 84 36
1.287143 -0.189684 2.580000 128 82 41
1.287143 -0.185168 2.580000 128 80 46
1.296622 -0.181982 2.599000 128 82 38
1.296622 -0.177432 2.599000 128 84 30
1.287143 -0.171619 2.580000 128 82 36
1.287143 -0.167103 2.580000 128 80 42
1.287143 -0.162586 2.580000 129 81 31
1.287143 -0.158070 2.580000 132 83 21
1.287143 -0.153554 2.580000 135 83 30
1.287143 -0.149038 2.580000 131 85 39
1.287143 -0.144521 2.580000 128 84 35
1.287143 -0.140005 2.580000 133 84 30
1.287143 -0.135489 2.580000 138 82 33
1.287143 -0.130972 2.580000 133 83 36
1.287143 -0.126456 2.580000 128 84 37
1.287143 -0.121940 2.580000 126 85 38
1.287143 -0.117424 2.580000 125 82 33
1.287143 -0.112907 2.580000 122 82 29
1.287143 -0.108391 2.580000 119 82 37
1.287143 -0.103875 2.580000 123 82 45
1.287143 -0.099358 2.580000 127 84 41
1.287143 -0.094842 2.580000 127 86 38
1.287143 -0.090326 2.580000 127 83 41
1.287143 -0.085809 2.580000 126 82 44
1.287143 -0.081293 2.580000 126 83 41
1.287143 -0.076777 2.580000 124 85 38
1.287143 -0.072261 2.580000 122 85 42
1.287143 -0.067744 2.580000 124 84 47
1.287143 -0.063228 2.580000 127 83 37
1.287143 -0.058712 2.580000 126 84 27
1.287143 -0.054195 2.580000 126 84 33
1.287143 -0.049679 2.580000 126 86 40
1.287143 -0.045163 2.580000 126 85 39
1.287143 -0.040647 2.580000 126 84 38
1.287143 -0.036130 2.580000 127 84 34
1.287143 -0.031614 2.580000 128 86 31
1.287143 -0.027098 2.580000 129 85 35
1.287143 -0.022581 2.580000 129 85 38
1.287143 -0.018065 2.580000 129 86 39
1.287143 -0.013549 2.580000 130 86 39
1.287143 -0.009033 2.580000 132 86 40
1.287143 -0.004516 2.580000 134 86 41
1.287143 -0.000000 2.580000 136 86 42
1.287143 0.004516 2.580000 133 88 43
1.287143 0.009033 2.580000 130 87 43
1.287143 0.013549 2.580000 130 86 44
1.287143 0.018065 2.580000 131 84 38
1.287143 0.022581 2.580000 131 85 33
1.287143 0.027098 2.580000 132 85 38
1.287143 0.031614 2.580000 137 86 44
1.287143 0.036130 2.580000 142 85 48
1.287143 0.040647 2.580000 138 86 53
1.277165 0.044813 2.560000 135 85 48
1.277165 0.049294 2.560000 134 84 43
1.277165 0.053775 2.560000 134 84 41
1.277165 0.058257 2.560000 131 84 40
1.277165 0.062738 2.560000 129 85 39
1.277165 0.067219 2.560000 126 88 39
1.287143 0.072261 2.580000 123 88 41
1.287143 0.076777 2.580000 125 88 43
1.287143 0.081293 2.580000 128 88 47
1.287143 0.085810 2.580000 130 89 51
1.287143 0.090326 2.580000 133 84 47
1.287143 0.094842 2.580000 131 81 44
1.287143 0.099358 2.580000 130 82 46
1.287143 0.103875 2.580000 131 82 49
1.287143 0.108391 2.580000 132 85 40
1.287143 0.112907 2.580000 131 86 32
1.287143 0.117424 2.580000 130 87 39
1.287143 0.121940 2.580000 127 89 47
1.277165 0.125476 2.560000 125 88 47
1.277165 0.129957 2.560000 127 87 47
1.287143 0.135489 2.580000 129 87 47
1.277165 0.138920 2.560000 130 89 47
1.277165 0.143401 2.560000 131 88 43
1.277165 0.147882 2.560000 129 89 39
1.277165 0.152364 2.560000 127 88 42
1.277165 0.156845 2.560000 128 87 44
1.277165 0.161326 2.560000 129 85 45
1.287143 0.167103 2.580000 129 84 46
1.287143 0.171619 2.580000 129 83 44
1.287143 0.176135 2.580000 127 81 43
1.287143 0.180652 2.580000 126 82 43
1.287143 0.185168 2.580000 121 84 43
1.287143 0.189684 2.580000 116 84 42
1.287143 0.194201 2.580000 120 85 41
1.287143 0.198717 2.580000 124 85 41
1.287143 0.203233 2.580000 125 84 42
1.287143 0.207749 2.580000 127 84 40
1.287143 0.212266 2.580000 129 83 39
1.277165 0.215102 2.560000 132 83 38
1.287143 0.221298 2.580000 129 85 37
1.287143 0.225815 2.580000 127 85 38
1.287143 0.230331 2.580000 129 87 38
1.287143 0.234847 2.580000 132 85 39
1.277165 0.237508 2.560000 133 86 41
1.277165 0.241989 2.560000 135 87 42
1.277165 0.246471 2.560000 129 89 44
1.277165 0.250952 2.560000 124 88 50
1.277165 0.255433 2.560000 129 88 56
1.277165 0.259914 2.560000 135 86 48
1.277165 0.264396 2.560000 140 84 39
1.287143 0.270978 2.580000 145 85 41
1.287143 0.275494 2.580000 136 86 44
1.287143 0.280010 2.580000 127 87 43
1.287143 0.284526 2.580000 130 88 43
1.287143 0.289043 2.580000 134 89 36
1.287143 0.293559 2.580000 134 90 29
1.287143 0.298075 2.580000 134 90 36
1.287143 0.302592 2.580000 135 91 43
1.287143 0.307108 2.580000 137 89 45
1.287143 0.311624 2.580000 141 91 46
1.287143 0.316140 2.580000 145 90 45
1.287143 0.320657 2.580000 140 91 45
1.287143 0.325173 2.580000 135 91 40
1.277165 0.327134 2.560000 137 92 36
1.277165 0.331615 2.560000 139 90 39
1.277165 0.336096 2.560000 141 89 42
1.287143 0.343238 2.580000 143 89 43
1.287143 0.347754 2.580000 138 91 44
1.287143 0.352271 2.580000 133 90 42
1.287143 0.356787 2.580000 133 89 41
1.287143 0.361303 2.580000 134 88 45
1.287143 0.365820 2.580000 133 88 50
1.287143 0.370336 2.580000 133 89 51
1.287143 0.374852 2.580000 133 91 53
1.287143 0.379368 2.580000 133 91 48
1.287143 0.383885 2.580000 137 92 43
1.287143 0.388401 2.580000 141 90 43
1.287143 0.392917 2.580000 137 88 42
1.287143 0.397434 2.580000 134 88 49
1.287143 0.401950 2.580000 132 87 55
1.287143 0.406466 2.580000 131 90 44
1.287143 0.410982 2.580000 132 92 32
1.287143 0.415499 2.580000 133 89 41
1.287143 0.420015 2.580000 134 89 49
1.287143 0.424531 2.580000 136 88 47
1.287143 0.429048 2.580000 135 89 45
1.287143 0.433564 2.580000 135 88 48
1.287143 0.438080 2.580000 134 87 52
1.287143 0.442597 2.580000 134 88 47
1.287143 0.447113 2.580000 131 91 42
1.287143 0.451629 2.580000 129 91 45
1.287143 0.456145 2.580000 131 90 48
1.287143 0.460662 2.580000 134 89 48
1.287143 0.465178 2.580000 138 90 48
1.287143 0.469694 2.580000 142 89 47
1.277165 0.470535 2.560000 133 89 46
1.287143 0.478727 2.580000 125 87 46
1.287143 0.483243 2.580000 131 89 47
1.287143 0.487759 2.580000 137 89 41
1.277165 0.488460 2.560000 132 89 35
1.277165 0.492941 2.560000 127 88 40
1.277165 0.497422 2.560000 129 89 45
1.277165 0.501903 2.560000 132 88 48
1.277165 0.506385 2.560000 126 91 52
1.277165 0.510866 2.560000 120 90 48
1.277165 0.515347 2.560000 124 92 45
1.277165 0.519829 2.560000 129 89 46
1.277165 0.524310 2.560000 130 88 47
1.277165 0.528791 2.560000 131 89 44
1.287143 0.537439 2.580000 131 88 41
1.287143 0.541955 2.580000 131 88 42
1.277165 0.542235 2.560000 131 90 44
1.277165 0.546716 2.560000 131 89 44
1.277165 0.551198 2.560000 132 87 45
1.277165 0.555679 2.560000 133 87 45
1.277165 0.560160 2.560000 130 89 46
1.277165 0.564641 2.560000 128 91 46
1.268185 0.565121 2.542000 130 90 47
1.277165 0.573604 2.560000 133 88 47
1.277165 0.578085 2.560000 134 86 48
1.277165 0.582567 2.560000 135 87 50
1.277165 0.587048 2.560000 133 88 53
1.277165 0.591529 2.560000 132 88 48
1.277165 0.596011 2.560000 128 89 43
1.277165 0.600492 2.560000 125 90 43
1.277165 0.604973 2.560000 123 92 42
1.277165 0.609454 2.560000 121 73 37
1.277165 0.613936 2.560000 62 45 33
1.277165 0.618417 2.560000 3 14 17
1.277165 0.622898 2.560000 17 7 1
1.277165 0.627379 2.560000 32 18 11
1.277165 0.631861 2.560000 24 29 21
1.277165 0.636342 2.560000 16 33 24
1.287143 0.645830 2.580000 23 35 28
1.296622 0.655135 2.599000 31 28 20
1.306600 0.664761 2.619000 24 22 13
1.306600 0.669346 2.619000 17 22 10
1.306600 0.673930 2.619000 12 17 8
1.306600 0.678515 2.619000 7 14 6
1.306600 0.683100 2.619000 4 13 5
1.306600 0.687684 2.619000 2 12 4
0.968350 0.669351 1.941000 132 110 98
0.963362 0.669283 1.931000 134 110 99
0.957874 0.668831 1.920000 134 110 101
0.952386 0.668341 1.909000 134 107 100
0.947397 0.668164 1.899000 135 106 99
0.947397 0.671488 1.899000 137 108 98
0.941909 0.670904 1.888000 135 111 98
0.936920 0.670638 1.878000 133 111 99
0.931931 0.670337 1.868000 133 111 101
0.926942 0.670000 1.858000 133 109 100
0.926942 0.673253 1.858000 132 109 99
0.921953 0.672864 1.848000 132 111 101
0.898007 0.658538 1.800000 132 112 104
0.893018 0.658013 1.790000 132 115 100
0.888528 0.657822 1.781000 133 118 96
0.884038 0.657600 1.772000 134 116 99
0.879548 0.657346 1.763000 134 114 102
0.875058 0.657061 1.754000 135 114 105
0.870568 0.656744 1.745000 134 115 109
0.870568 0.659799 1.745000 134 114 107
0.870568 0.662853 1.745000 134 122 106
0.866077 0.662473 1.736000 135 117 107
0.862086 0.662445 1.728000 137 114 108
0.857596 0.662004 1.719000 139 112 110
0.853605 0.661918 1.711000 136 114 112
0.849115 0.661416 1.702000 134 113 109
0.849115 0.664395 1.702000 132 115 106
0.841133 0.661101 1.686000 130 115 109
0.828661 0.654206 1.661000 132 113 113
0.824669 0.653948 1.653000 134 112 110
0.820678 0.653663 1.645000 132 112 107
0.817186 0.653749 1.638000 131 111 108
0.817186 0.656616 1.638000 134 110 108
0.813195 0.656263 1.630000 137 112 105
0.805712 0.653050 1.615000 136 115 102
0.801720 0.652629 1.607000 135 113 109
0.798228 0.652586 1.600000 131 111 117
0.794237 0.652110 1.592000 127 113 107
0.790745 0.652018 1.585000 131 116 98
0.787252 0.651900 1.578000 136 116 101
0.783760 0.651758 1.571000 137 116 104
0.779769 0.651176 1.563000 138 115 105
0.776277 0.650983 1.556000 138 113 106
1.321197 -0.947012 2.639000 111 70 17
1.321197 -0.942392 2.639000 106 74 23
1.311184 -0.930666 2.619000 108 73 29
1.311184 -0.926081 2.619000 110 72 29
1.311184 -0.921497 2.619000 108 72 30
1.311184 -0.916912 2.619000 107 76 26
1.301171 -0.905360 2.599000 108 73 22
1.301171 -0.900811 2.599000 109 72 30
1.301171 -0.896261 2.599000 107 75 38
1.301171 -0.891712 2.599000 105 76 31
1.301171 -0.887162 2.599000 111 75 24
1.291659 -0.876160 2.580000 117 74 25
1.291659 -0.871644 2.580000 116 73 26
1.301171 -0.873514 2.599000 114 73 26
1.301171 -0.868964 2.599000 117 72 26
1.301171 -0.864414 2.599000 121 70 23
1.301171 -0.859865 2.599000 117 74 21
1.311184 -0.861897 2.619000 114 76 18
1.311184 -0.857313 2.619000 109 75 16
1.311184 -0.852728 2.619000 105 74 22
1.311184 -0.848144 2.619000 109 73 29
1.301171 -0.837117 2.599000 113 70 27
1.301171 -0.832568 2.599000 115 71 26
1.301171 -0.828018 2.599000 116 72 28
1.281646 -0.811112 2.560000 115 74 31
1.281646 -0.806631 2.560000 115 77 28
1.281646 -0.802149 2.560000 114 75 26
1.281646 -0.797668 2.560000 113 75 26
1.291659 -0.799383 2.580000 115 77 26
1.291659 -0.794867 2.580000 117 77 22
1.291659 -0.790351 2.580000 120 75 19
1.291659 -0.785835 2.580000 123 73 23
1.291659 -0.781318 2.580000 121 75 28
1.291659 -0.776802 2.580000 119 77 29
1.291659 -0.772286 2.580000 116 75 30
1.291659 -0.767769 2.580000 114 76 38
1.291659 -0.763253 2.580000 116 76 47
1.291659 -0.758737 2.580000 118 77 39
1.291659 -0.754221 2.580000 117 75 31
1.291659 -0.749704 2.580000 117 78 25
1.291659 -0.745188 2.580000 115 78 20
1.291659 -0.740672 2.580000 114 79 13
1.291659 -0.736155 2.580000 115 75 7
1.291659 -0.731639 2.580000 117 73 16
1.291659 -0.727123 2.580000 115 71 26
1.291659 -0.722606 2.580000 114 71 26
1.291659 -0.718090 2.580000 114 73 26
1.291659 -0.713574 2.580000 114 74 28
1.291659 -0.709058 2.580000 115 70 30
1.281646 -0.699080 2.560000 116 69 41
1.291659 -0.700025 2.580000 115 77 53
1.291659 -0.695509 2.580000 114 80 46
1.291659 -0.690992 2.580000 117 75 39
1.291659 -0.686476 2.580000 120 72 43
1.291659 -0.681960 2.580000 121 74 48
1.291659 -0.677444 2.580000 123 77 41
1.291659 -0.672927 2.580000 121 77 34
1.291659 -0.668411 2.580000 120 77 37
1.291659 -0.663895 2.580000 120 79 40
1.291659 -0.659378 2.580000 120 81 39
1.291659 -0.654862 2.580000 119 77 38
1.291659 -0.650346 2.580000 118 76 32
1.291659 -0.645829 2.580000 119 77 27
1.291659 -0.641313 2.580000 119 78 26
1.291659 -0.636797 2.580000 120 77 26
1.291659 -0.632281 2.580000 121 78 28
1.291659 -0.627764 2.580000 122 78 31
1.291659 -0.623248 2.580000 123 79 31
1.291659 -0.618732 2.580000 124 78 31
1.291659 -0.614215 2.580000 125 79 31
1.281646 -0.604973 2.560000 120 77 32
1.291659 -0.605183 2.580000 116 76 34
1.291659 -0.600667 2.580000 120 77 36
1.291659 -0.596150 2.580000 124 80 37
1.291659 -0.591634 2.580000 124 79 39
1.291659 -0.587118 2.580000 124 80 38
1.301171 -0.586892 2.599000 124 80 37
1.301171 -0.582342 2.599000 124 82 34
1.301171 -0.577793 2.599000 124 79 31
1.291659 -0.569053 2.580000 124 77 39
1.291659 -0.564536 2.580000 120 77 48
1.291659 -0.560020 2.580000 116 77 45
1.291659 -0.555504 2.580000 121 77 42
1.291659 -0.550987 2.580000 127 77 38
1.291659 -0.546471 2.580000 125 78 34
1.291659 -0.541955 2.580000 123 82 37
1.291659 -0.537439 2.580000 124 79 41
1.291659 -0.532922 2.580000 124 77 42
1.291659 -0.528406 2.580000 126 79 44
1.291659 -0.523890 2.580000 129 82 39
1.291659 -0.519373 2.580000 127 81 34
1.291659 -0.514857 2.580000 126 79 35
1.291659 -0.510341 2.580000 127 81 36
1.291659 -0.505825 2.580000 129 81 41
1.291659 -0.501308 2.580000 126 81 46
1.291659 -0.496792 2.580000 124 83 45
1.291659 -0.492276 2.580000 123 79 44
1.291659 -0.487759 2.580000 122 78 45
1.291659 -0.483243 2.580000 123 80 46
1.291659 -0.478727 2.580000 124 83 39
1.291659 -0.474211 2.580000 126 80 33
1.291659 -0.469694 2.580000 129 80 38
1.291659 -0.465178 2.580000 127 81 43
1.291659 -0.460662 2.580000 126 82 42
1.291659 -0.456145 2.580000 122 82 42
1.291659 -0.451629 2.580000 118 83 43
1.301171 -0.450405 2.599000 121 80 45
1.291659 -0.442596 2.580000 124 78 43
1.291659 -0.438080 2.580000 124 78 41
1.291659 -0.433564 2.580000 124 79 37
1.301171 -0.432207 2.599000 127 80 33
1.301171 -0.427658 2.599000 131 81 31
1.301171 -0.423108 2.599000 128 79 29
