ply
format ascii 1.0
element vertex 1195
property float x
property float y
property float z
property uchar red
property uchar green
property uchar blue
end_header
-0.296038 0.909880 2.487000 115 113 118
-0.293895 0.907617 2.469000 114 119 115
-0.291752 0.905290 2.451000 110 108 112
-0.287705 0.896963 2.417000 106 103 115
-0.285682 0.894856 2.400000 102 102 119
-0.283777 0.893063 2.384000 98 97 115
-0.281753 0.890838 2.367000 102 99 112
-0.279849 0.888932 2.351000 106 108 108
-0.277944 0.886970 2.335000 105 103 105
-0.276159 0.885333 2.320000 104 111 105
-0.274254 0.883261 2.304000 105 104 105
-0.272469 0.881517 2.289000 106 112 109
-0.268898 0.873918 2.259000 107 104 114
-0.321709 0.955523 2.743000 106 98 113
-0.319246 0.952972 2.722000 112 106 111
-0.319246 0.957737 2.722000 118 104 109
-0.316783 0.955077 2.701000 125 114 116
-0.298135 0.916653 2.542000 125 119 123
-0.295906 0.914218 2.523000 125 122 119
-0.293795 0.912081 2.505000 126 121 122
-0.291684 0.909880 2.487000 124 121 124
-0.289573 0.907617 2.469000 122 120 124
-0.287462 0.905290 2.451000 118 120 124
-0.283474 0.896963 2.417000 115 114 124
-0.279604 0.888890 2.384000 109 115 124
-0.277610 0.886695 2.367000 103 108 119
-0.277610 0.890838 2.367000 108 101 114
-0.275734 0.888932 2.351000 113 111 113
-0.273857 0.886970 2.335000 116 116 113
-0.272098 0.885333 2.320000 120 114 113
-0.270221 0.883261 2.304000 121 115 114
-0.268462 0.881517 2.289000 122 116 117
-0.264943 0.873918 2.259000 124 109 121
-0.314481 0.948207 2.722000 118 115 119
-0.314481 0.952972 2.722000 120 125 123
-0.312055 0.950348 2.701000 124 120 128
-0.312055 0.955077 2.701000 128 125 127
-0.291490 0.909802 2.523000 129 124 127
-0.289410 0.907696 2.505000 129 124 126
-0.289410 0.912081 2.505000 129 124 128
-0.287331 0.909880 2.487000 128 123 131
-0.287331 0.914234 2.487000 127 123 133
-0.283172 0.905290 2.451000 124 121 136
-0.279243 0.896963 2.417000 122 120 133
-0.277279 0.894856 2.400000 120 119 130
-0.273467 0.886695 2.367000 119 121 123
-0.273467 0.890838 2.367000 120 116 116
-0.271618 0.888932 2.351000 121 120 119
-0.268037 0.881272 2.320000 123 117 122
-0.266188 0.879227 2.304000 125 114 122
-0.266188 0.883261 2.304000 128 120 123
-0.264455 0.881517 2.289000 132 128 125
-0.259256 0.868115 2.244000 131 122 128
-0.312105 0.950721 2.743000 132 121 122
-0.309716 0.948207 2.722000 130 124 122
-0.309716 0.952972 2.722000 128 125 124
-0.307327 0.950348 2.701000 130 127 127
-0.307327 0.955077 2.701000 132 127 128
-0.285025 0.903311 2.505000 133 126 130
-0.285025 0.907696 2.505000 132 126 130
-0.282977 0.905527 2.487000 132 126 131
-0.282977 0.909880 2.487000 132 126 133
-0.280929 0.907617 2.469000 133 125 135
-0.278881 0.905290 2.451000 131 124 137
-0.275012 0.896963 2.417000 129 123 135
-0.273078 0.894856 2.400000 132 122 133
-0.269323 0.886695 2.367000 135 125 131
-0.267503 0.884817 2.351000 132 123 129
-0.265682 0.882882 2.335000 129 122 129
-0.263975 0.881272 2.320000 130 119 129
-0.262155 0.879227 2.304000 131 122 129
-0.260448 0.877510 2.289000 136 124 129
-0.260448 0.881517 2.289000 142 129 131
-0.255328 0.868115 2.244000 139 129 134
-0.307304 0.950721 2.743000 132 124 126
-0.304951 0.948207 2.722000 132 125 126
-0.304951 0.952972 2.722000 132 127 126
-0.304951 0.957737 2.722000 133 128 126
-0.302599 0.955077 2.701000 135 130 129
-0.282657 0.909802 2.523000 136 130 134
-0.280640 0.907696 2.505000 136 128 134
-0.280640 0.912081 2.505000 136 128 135
-0.278624 0.909880 2.487000 136 128 136
-0.276607 0.907617 2.469000 136 130 137
-0.274591 0.905290 2.451000 135 129 138
-0.270781 0.896963 2.417000 135 129 137
-0.268877 0.894856 2.400000 136 130 137
-0.265180 0.886695 2.367000 138 135 140
-0.263387 0.884817 2.351000 136 130 143
-0.261595 0.882882 2.335000 133 127 139
-0.259914 0.881272 2.320000 134 127 136
-0.258122 0.879227 2.304000 136 131 136
-0.256441 0.877510 2.289000 140 132 136
-0.256441 0.881517 2.289000 144 136 138
-0.251400 0.868115 2.244000 143 134 140
-0.302502 0.950721 2.743000 132 126 129
-0.300186 0.948207 2.722000 134 127 129
-0.300186 0.952972 2.722000 136 128 129
-0.297870 0.950348 2.701000 137 131 130
-0.297870 0.955077 2.701000 139 131 132
-0.295554 0.952342 2.680000 137 129 134
-0.278240 0.900969 2.523000 136 129 135
-0.278240 0.905385 2.523000 138 130 136
-0.278240 0.909802 2.523000 140 130 136
-0.278240 0.914218 2.523000 140 129 136
-0.276255 0.912081 2.505000 140 130 136
-0.274270 0.909880 2.487000 139 131 137
-0.272285 0.907617 2.469000 139 132 138
-0.270300 0.905290 2.451000 140 134 138
-0.268425 0.903272 2.434000 141 134 139
-0.264676 0.894856 2.400000 141 135 139
-0.261036 0.886695 2.367000 142 136 142
-0.259272 0.884817 2.351000 140 137 144
-0.257507 0.882882 2.335000 138 132 141
-0.255853 0.881272 2.320000 139 132 138
-0.254089 0.879227 2.304000 141 134 140
-0.252434 0.877510 2.289000 144 137 141
-0.249126 0.869964 2.259000 147 137 142
-0.247472 0.868115 2.244000 147 137 144
-0.317996 0.984761 2.930000 132 127 128
-0.315283 0.981444 2.905000 137 130 126
-0.312678 0.978379 2.881000 141 132 130
-0.310073 0.975230 2.857000 138 130 135
-0.304972 0.964105 2.810000 136 130 133
-0.304972 0.969024 2.810000 135 129 132
-0.302584 0.966318 2.788000 134 129 132
-0.297701 0.955523 2.743000 136 128 133
-0.295421 0.952972 2.722000 138 129 133
-0.293142 0.950348 2.701000 139 131 134
-0.293142 0.955077 2.701000 140 134 134
-0.293142 0.959805 2.701000 139 132 135
-0.286413 0.942392 2.639000 139 132 136
-0.273824 0.905385 2.523000 140 132 138
-0.273824 0.909802 2.523000 142 133 138
-0.271870 0.907696 2.505000 142 132 138
-0.269917 0.905527 2.487000 142 133 138
-0.267963 0.903295 2.469000 142 134 139
-0.267963 0.907617 2.469000 143 136 139
-0.264164 0.899011 2.434000 144 138 139
-0.264164 0.903272 2.434000 145 140 140
-0.262319 0.901194 2.417000 146 139 142
-0.258738 0.893063 2.384000 146 139 144
-0.255156 0.884817 2.351000 144 138 146
-0.251792 0.877211 2.320000 142 135 143
-0.250055 0.875194 2.304000 144 136 141
-0.250055 0.879227 2.304000 146 138 144
-0.248428 0.877510 2.289000 148 139 147
-0.246800 0.875740 2.274000 150 141 147
-0.243544 0.868115 2.244000 149 140 148
-0.338708 1.032781 3.172000 127 120 124
-0.335611 1.028841 3.143000 126 120 125
-0.312867 0.984761 2.930000 135 127 129
-0.310198 0.981444 2.905000 141 133 130
-0.307635 0.978379 2.881000 147 133 133
-0.305072 0.975230 2.857000 143 133 136
-0.302616 0.972340 2.834000 139 131 133
-0.300053 0.969024 2.810000 138 130 130
-0.297704 0.966318 2.788000 137 129 132
-0.295248 0.963187 2.765000 138 129 134
-0.290657 0.952972 2.722000 140 130 135
-0.288414 0.950348 2.701000 141 133 136
-0.286172 0.947651 2.680000 142 134 136
-0.286172 0.952342 2.680000 142 135 136
-0.281794 0.942392 2.639000 142 134 138
-0.275494 0.925840 2.580000 143 134 140
-0.269407 0.909802 2.523000 144 135 140
-0.267485 0.907696 2.505000 144 135 140
-0.265563 0.905527 2.487000 144 135 141
-0.265563 0.909880 2.487000 145 138 142
-0.263641 0.907617 2.469000 147 139 142
-0.261719 0.905290 2.451000 148 142 141
-0.259904 0.903272 2.434000 150 142 143
-0.258089 0.901194 2.417000 150 143 146
-0.256273 0.899057 2.400000 151 141 147
-0.251041 0.884817 2.351000 149 141 148
-0.247731 0.877211 2.320000 147 139 146
-0.246022 0.875194 2.304000 149 141 144
-0.246022 0.879227 2.304000 152 142 149
-0.244421 0.877510 2.289000 152 143 155
-0.242819 0.875740 2.274000 153 142 151
-0.239616 0.868115 2.244000 152 142 148
-0.333155 1.032781 3.172000 129 122 127
-0.330109 1.028841 3.143000 128 121 128
-0.307738 0.984761 2.930000 135 126 131
-0.305112 0.981444 2.905000 140 132 134
-0.302591 0.978379 2.881000 145 137 135
-0.302591 0.983422 2.881000 142 134 137
-0.300071 0.980231 2.857000 140 131 132
-0.297655 0.977301 2.834000 139 130 128
-0.297655 0.982262 2.834000 138 129 132
-0.290408 0.963187 2.765000 140 130 136
-0.285892 0.952972 2.722000 142 132 137
-0.283686 0.950348 2.701000 143 134 138
-0.281480 0.947651 2.680000 144 136 138
-0.281480 0.952342 2.680000 144 136 138
-0.277174 0.942392 2.639000 144 137 140
-0.270977 0.925840 2.580000 145 137 142
-0.266986 0.916653 2.542000 146 138 142
-0.264991 0.914218 2.523000 146 137 142
-0.263100 0.912081 2.505000 146 136 144
-0.261210 0.909880 2.487000 147 137 146
-0.259319 0.907617 2.469000 149 140 145
-0.257429 0.905290 2.451000 151 142 144
-0.255643 0.903272 2.434000 153 145 147
-0.253858 0.901194 2.417000 153 144 150
-0.252072 0.899057 2.400000 153 144 150
-0.248606 0.890838 2.367000 152 142 151
-0.243670 0.877211 2.320000 150 140 149
-0.241989 0.875194 2.304000 152 143 147
-0.241989 0.879227 2.304000 154 146 155
-0.240414 0.877510 2.289000 154 145 163
-0.238838 0.875740 2.274000 154 145 156
-0.235687 0.868115 2.244000 154 143 149
-0.327603 1.032781 3.172000 131 122 130
-0.324608 1.028841 3.143000 130 123 133
-0.321716 1.025128 3.115000 129 121 129
-0.302609 0.984761 2.930000 135 126 127
-0.300027 0.981444 2.905000 139 133 132
-0.297548 0.978379 2.881000 143 136 138
-0.297548 0.983422 2.881000 142 135 145
-0.295070 0.980231 2.857000 141 132 139
-0.292694 0.977301 2.834000 140 131 134
-0.292694 0.982262 2.834000 139 131 136
-0.287943 0.971199 2.788000 141 132 138
-0.283296 0.960324 2.743000 144 134 139
-0.281127 0.957737 2.722000 145 137 140
-0.276789 0.947651 2.680000 146 137 140
-0.276789 0.952342 2.680000 146 137 141
-0.272555 0.942392 2.639000 146 138 143
-0.266461 0.925840 2.580000 147 139 144
-0.262537 0.916653 2.542000 149 139 144
-0.260574 0.914218 2.523000 148 139 144
-0.258715 0.912081 2.505000 148 138 145
-0.256856 0.909880 2.487000 150 137 147
-0.254997 0.907617 2.469000 152 139 147
-0.253138 0.905290 2.451000 154 144 148
-0.251382 0.903272 2.434000 156 146 152
-0.249627 0.901194 2.417000 156 147 157
-0.247871 0.899057 2.400000 156 145 154
-0.244463 0.890838 2.367000 155 143 152
-0.239609 0.877211 2.320000 154 143 151
-0.237956 0.875194 2.304000 155 146 150
-0.237956 0.879227 2.304000 157 147 155
-0.236407 0.877510 2.289000 156 149 160
-0.234858 0.875740 2.274000 156 146 155
-0.231759 0.868115 2.244000 155 145 151
-0.322050 1.032781 3.172000 135 125 134
-0.319106 1.028841 3.143000 133 124 138
-0.316263 1.025128 3.115000 131 123 132
-0.313420 1.021317 3.087000 130 122 127
-0.307937 1.008761 3.033000 130 123 121
-0.302556 0.996350 2.980000 133 124 115
-0.297480 0.984761 2.930000 136 124 122
-0.294942 0.981444 2.905000 141 133 130
-0.292505 0.978379 2.881000 146 139 142
-0.292505 0.983422 2.881000 144 135 154
-0.290068 0.980231 2.857000 142 133 147
-0.287733 0.977301 2.834000 141 131 140
-0.285296 0.973943 2.810000 141 132 140
-0.283063 0.971199 2.788000 143 133 140
-0.278494 0.960324 2.743000 145 135 141
-0.276362 0.957737 2.722000 146 137 142
-0.272098 0.947651 2.680000 147 139 143
-0.272098 0.952342 2.680000 148 138 145
-0.267935 0.942392 2.639000 148 139 146
-0.261945 0.925840 2.580000 150 140 147
-0.259914 0.923144 2.560000 151 141 147
-0.256158 0.914218 2.523000 150 139 147
-0.254330 0.912081 2.505000 149 140 147
-0.252503 0.909880 2.487000 151 138 148
-0.250675 0.907617 2.469000 153 138 150
-0.248848 0.905290 2.451000 154 145 153
-0.247122 0.903272 2.434000 156 149 158
-0.245396 0.901194 2.417000 157 148 164
-0.242045 0.893063 2.384000 157 147 159
-0.238695 0.884817 2.351000 156 145 154
-0.235547 0.877211 2.320000 155 145 153
-0.233923 0.875194 2.304000 156 146 153
-0.233923 0.879227 2.304000 158 148 155
-0.233923 0.883261 2.304000 158 148 157
-0.230877 0.875740 2.274000 158 146 155
-0.227831 0.868115 2.244000 157 147 154
-0.313604 1.023339 3.143000 140 124 132
-0.313604 1.028841 3.143000 136 125 135
-0.310810 1.025128 3.115000 133 124 132
-0.308016 1.021317 3.087000 132 124 130
-0.305223 1.017408 3.059000 132 123 126
-0.297340 0.996350 2.980000 135 126 122
-0.294846 0.993164 2.955000 138 129 127
-0.292351 0.989890 2.930000 144 137 132
-0.287462 0.978379 2.881000 150 137 141
-0.287462 0.983422 2.881000 147 135 149
-0.282772 0.972340 2.834000 144 133 145
-0.280378 0.969024 2.810000 143 131 142
-0.278183 0.966318 2.788000 143 132 141
-0.275888 0.963187 2.765000 145 134 141
-0.273692 0.960324 2.743000 147 136 142
-0.271597 0.957737 2.722000 148 139 143
-0.269502 0.955077 2.701000 149 139 145
-0.267406 0.952342 2.680000 150 138 147
-0.263316 0.942392 2.639000 151 140 147
-0.257429 0.925840 2.580000 152 141 148
-0.253637 0.916653 2.542000 154 140 147
-0.251741 0.914218 2.523000 152 139 147
-0.249945 0.912081 2.505000 151 139 145
-0.248149 0.909880 2.487000 152 140 144
-0.246353 0.907617 2.469000 154 143 147
-0.244557 0.905290 2.451000 155 149 150
-0.242861 0.903272 2.434000 157 150 154
-0.241165 0.901194 2.417000 158 151 158
-0.239468 0.899057 2.400000 159 149 155
-0.236176 0.890838 2.367000 158 148 153
-0.232983 0.882882 2.335000 157 147 153
-0.231486 0.881272 2.320000 158 148 153
-0.229890 0.879227 2.304000 159 149 156
-0.228393 0.877510 2.289000 159 149 158
-0.226896 0.875740 2.274000 160 149 157
-0.223903 0.868115 2.244000 159 149 156
-0.308102 1.023339 3.143000 137 126 131
-0.305357 1.019675 3.115000 135 125 133
-0.302613 1.015913 3.087000 133 124 133
-0.302613 1.021317 3.087000 133 123 133
-0.299868 1.017408 3.059000 132 122 131
-0.292124 0.996350 2.980000 135 126 129
-0.289673 0.993164 2.955000 139 131 132
-0.287222 0.989890 2.930000 143 135 135
-0.282419 0.978379 2.881000 147 138 140
-0.282419 0.983422 2.881000 146 136 145
-0.280066 0.980231 2.857000 144 135 144
-0.277811 0.977301 2.834000 144 133 144
-0.273302 0.966318 2.788000 144 134 143
-0.271048 0.963187 2.765000 146 135 142
-0.268891 0.960324 2.743000 148 137 143
-0.266832 0.957737 2.722000 149 139 144
-0.264774 0.955077 2.701000 150 141 147
-0.262715 0.952342 2.680000 150 140 150
-0.260657 0.949534 2.659000 151 142 149
-0.252912 0.925840 2.580000 151 142 149
-0.249187 0.916653 2.542000 152 141 148
-0.247325 0.914218 2.523000 151 140 147
-0.245560 0.912081 2.505000 150 140 144
-0.243796 0.909880 2.487000 152 142 141
-0.242031 0.907617 2.469000 154 146 144
-0.240267 0.905290 2.451000 156 149 148
-0.238600 0.903272 2.434000 158 152 150
-0.236934 0.901194 2.417000 158 152 152
-0.233699 0.893063 2.384000 159 153 152
-0.232032 0.890838 2.367000 157 150 153
-0.228895 0.882882 2.335000 155 149 153
-0.227425 0.881272 2.320000 158 150 154
-0.225857 0.879227 2.304000 161 153 157
-0.225857 0.883261 2.304000 161 152 160
-0.222916 0.875740 2.274000 162 152 159
-0.219975 0.868115 2.244000 162 153 158
-0.302600 1.023339 3.143000 135 125 132
-0.299904 1.019675 3.115000 134 126 134
-0.299904 1.025128 3.115000 134 125 134
-0.297209 1.021317 3.087000 133 125 134
-0.294513 1.017408 3.059000 133 125 130
-0.289410 1.005043 3.006000 136 127 126
-0.284500 0.993164 2.955000 140 131 131
-0.282093 0.989890 2.930000 142 135 135
-0.277376 0.978379 2.881000 145 136 140
-0.277376 0.983422 2.881000 145 137 144
-0.272850 0.972340 2.834000 145 136 144
-0.270540 0.969024 2.810000 145 135 145
-0.268422 0.966318 2.788000 146 136 144
-0.266207 0.963187 2.765000 147 138 143
-0.264089 0.960324 2.743000 149 139 144
-0.262067 0.957737 2.722000 150 140 146
-0.260046 0.955077 2.701000 151 141 148
-0.258024 0.952342 2.680000 151 142 151
-0.256002 0.949534 2.659000 151 143 150
-0.248396 0.925840 2.580000 150 144 149
-0.244737 0.916653 2.542000 150 143 149
-0.242908 0.914218 2.523000 149 141 149
-0.241175 0.912081 2.505000 149 141 147
-0.239442 0.909880 2.487000 152 143 146
-0.237709 0.907617 2.469000 155 147 147
-0.235976 0.905290 2.451000 157 151 149
-0.232703 0.896963 2.417000 159 152 151
-0.231066 0.894856 2.400000 159 154 153
-0.229526 0.893063 2.384000 160 153 154
-0.227889 0.890838 2.367000 157 152 154
-0.224808 0.882882 2.335000 154 151 152
-0.223364 0.881272 2.320000 158 153 151
-0.221823 0.879227 2.304000 163 154 155
-0.220379 0.877510 2.289000 164 156 159
-0.218935 0.875740 2.274000 165 156 160
-0.216047 0.868115 2.244000 164 159 162
-0.299840 1.021676 3.172000 130 122 128
-0.297098 1.017837 3.143000 133 124 130
-0.297098 1.023339 3.143000 136 127 133
-0.297098 1.028841 3.143000 135 126 136
-0.294452 1.025128 3.115000 134 126 135
-0.291805 1.021317 3.087000 134 125 135
-0.289158 1.017408 3.059000 135 126 129
-0.284148 1.005043 3.006000 138 128 124
-0.279327 0.993164 2.955000 141 132 130
-0.276964 0.989890 2.930000 143 134 136
-0.272332 0.978379 2.881000 145 137 140
-0.272332 0.983422 2.881000 146 137 144
-0.270064 0.980231 2.857000 147 138 145
-0.265621 0.969024 2.810000 147 138 146
-0.263541 0.966318 2.788000 147 138 145
-0.259288 0.955523 2.743000 148 140 144
-0.259288 0.960324 2.743000 150 141 146
-0.257303 0.957737 2.722000 150 141 149
-0.255318 0.955077 2.701000 151 142 150
-0.253332 0.952342 2.680000 151 143 152
-0.251347 0.949534 2.659000 152 145 151
-0.243880 0.925840 2.580000 151 145 150
-0.240288 0.916653 2.542000 151 146 150
-0.238492 0.914218 2.523000 151 143 151
-0.236790 0.912081 2.505000 151 142 151
-0.235089 0.909880 2.487000 153 144 151
-0.233387 0.907617 2.469000 156 148 151
-0.233387 0.911939 2.469000 159 151 151
-0.230079 0.903272 2.434000 163 154 153
-0.228472 0.901194 2.417000 162 154 155
-0.225352 0.893063 2.384000 161 154 155
-0.223745 0.890838 2.367000 159 153 156
-0.222233 0.888932 2.351000 157 152 152
-0.219303 0.881272 2.320000 160 153 148
-0.217790 0.879227 2.304000 164 156 153
-0.216372 0.877510 2.289000 166 157 158
-0.214954 0.875740 2.274000 168 159 162
-0.212119 0.868115 2.244000 167 158 167
-0.291597 1.017837 3.143000 133 125 130
-0.291597 1.023339 3.143000 137 127 133
-0.288999 1.019675 3.115000 136 127 136
-0.288999 1.025128 3.115000 135 126 136
-0.286401 1.021317 3.087000 136 125 135
-0.283803 1.017408 3.059000 137 127 132
-0.278886 1.005043 3.006000 139 129 129
-0.276474 1.001566 2.980000 142 132 133
-0.271835 0.989890 2.930000 144 135 138
-0.269516 0.986529 2.905000 146 136 142
-0.267289 0.983422 2.881000 147 137 146
-0.265062 0.980231 2.857000 149 138 147
-0.260702 0.969024 2.810000 149 141 147
-0.258661 0.966318 2.788000 149 141 147
-0.256527 0.963187 2.765000 150 143 148
-0.254486 0.960324 2.743000 151 142 148
-0.252538 0.957737 2.722000 151 144 149
-0.250589 0.955077 2.701000 152 144 150
-0.248641 0.952342 2.680000 152 145 152
-0.246693 0.949534 2.659000 153 145 152
-0.239363 0.925840 2.580000 153 145 152
-0.237508 0.923144 2.560000 153 145 152
-0.234075 0.914218 2.523000 153 144 152
-0.232405 0.912081 2.505000 153 143 151
-0.230735 0.909880 2.487000 155 145 150
-0.229065 0.907617 2.469000 158 148 151
-0.227395 0.905290 2.451000 162 153 152
-0.224241 0.896963 2.417000 167 154 156
-0.222664 0.894856 2.400000 164 155 159
-0.221179 0.893063 2.384000 162 154 158
-0.219602 0.890838 2.367000 161 154 158
-0.218118 0.888932 2.351000 160 153 155
-0.215241 0.881272 2.320000 162 153 153
-0.213757 0.879227 2.304000 165 156 156
-0.212365 0.877510 2.289000 168 159 159
-0.208190 0.864187 2.244000 171 158 162
-0.206892 0.862699 2.230000 169 158 165
-0.286095 1.017837 3.143000 135 126 130
-0.283546 1.014223 3.115000 138 129 133
-0.283546 1.019675 3.115000 137 127 137
-0.280997 1.015913 3.087000 135 128 136
-0.278449 1.012054 3.059000 136 127 136
-0.276082 1.008761 3.033000 137 128 135
-0.273624 1.005043 3.006000 139 129 134
-0.271258 1.001566 2.980000 141 132 137
-0.268982 0.998337 2.955000 143 135 141
-0.264431 0.986529 2.905000 146 138 145
-0.260061 0.975230 2.857000 148 138 149
-0.257968 0.972340 2.834000 150 138 149
-0.255783 0.969024 2.810000 150 140 149
-0.251687 0.958346 2.765000 150 142 150
-0.251687 0.963187 2.765000 151 142 152
-0.249684 0.960324 2.743000 152 143 151
-0.247773 0.957737 2.722000 152 144 150
-0.245861 0.955077 2.701000 153 146 151
-0.243950 0.952342 2.680000 154 147 152
-0.242038 0.949534 2.659000 154 148 153
-0.234847 0.925840 2.580000 154 146 154
-0.231388 0.916653 2.542000 154 146 153
-0.229659 0.914218 2.523000 154 143 153
-0.228020 0.912081 2.505000 154 142 151
-0.226382 0.909880 2.487000 156 145 150
-0.224743 0.907617 2.469000 158 148 152
-0.223105 0.905290 2.451000 162 152 154
-0.221557 0.903272 2.434000 166 156 159
-0.218462 0.894856 2.400000 164 154 164
-0.217006 0.893063 2.384000 163 154 162
-0.215459 0.890838 2.367000 162 154 160
-0.214002 0.888932 2.351000 161 154 159
-0.211180 0.881272 2.320000 163 154 159
-0.209724 0.879227 2.304000 166 156 160
-0.208359 0.877510 2.289000 168 158 161
-0.205628 0.869964 2.259000 170 159 162
-0.202988 0.862699 2.230000 169 158 163
-0.278093 1.014223 3.115000 140 128 135
-0.278093 1.019675 3.115000 138 127 139
-0.275594 1.015913 3.087000 136 128 137
-0.273094 1.012054 3.059000 137 129 136
-0.270773 1.008761 3.033000 138 129 136
-0.268362 1.005043 3.006000 139 130 136
-0.266041 1.001566 2.980000 141 133 138
-0.261577 0.989890 2.930000 143 136 140
-0.257203 0.978379 2.881000 146 138 143
-0.255060 0.975230 2.857000 148 140 146
-0.253007 0.972340 2.834000 151 140 148
-0.248900 0.961438 2.788000 151 141 150
-0.246847 0.958346 2.765000 152 142 151
-0.244883 0.955523 2.743000 152 142 152
-0.244883 0.960324 2.743000 153 143 151
-0.243008 0.957737 2.722000 154 145 150
-0.241133 0.955077 2.701000 155 147 151
-0.239258 0.952342 2.680000 155 149 153
-0.237384 0.949534 2.659000 156 149 153
-0.230331 0.925840 2.580000 155 148 153
-0.225242 0.909802 2.523000 155 146 153
-0.223635 0.907696 2.505000 155 143 153
-0.223635 0.912081 2.505000 155 143 152
-0.222028 0.909880 2.487000 156 145 151
-0.220421 0.907617 2.469000 158 148 152
-0.220421 0.911939 2.469000 161 153 153
-0.217297 0.903272 2.434000 165 154 157
-0.215779 0.901194 2.417000 164 154 161
-0.212833 0.893063 2.384000 164 154 160
-0.211315 0.890838 2.367000 163 154 159
-0.208458 0.882882 2.335000 163 154 159
-0.205691 0.875194 2.304000 165 156 159
-0.204352 0.873503 2.289000 167 157 160
-0.203013 0.871760 2.274000 168 158 162
-0.200334 0.864187 2.244000 169 158 162
-0.197745 0.856896 2.215000 169 159 163
-0.267739 1.006699 3.059000 135 128 139
-0.265463 1.003452 3.033000 136 129 136
-0.265463 1.008761 3.033000 138 131 137
-0.263100 1.005043 3.006000 140 132 138
-0.260825 1.001566 2.980000 141 135 139
-0.258636 0.998337 2.955000 144 137 140
-0.250059 0.970229 2.857000 146 140 142
-0.250059 0.975230 2.857000 148 142 144
-0.248046 0.972340 2.834000 151 143 147
-0.245945 0.969024 2.810000 152 142 151
-0.244020 0.966318 2.788000 153 144 152
-0.242007 0.963187 2.765000 153 143 153
-0.240081 0.960324 2.743000 154 144 152
-0.238243 0.957737 2.722000 155 146 151
-0.236405 0.955077 2.701000 156 150 152
-0.234567 0.952342 2.680000 157 150 154
-0.232729 0.949534 2.659000 159 152 153
-0.225815 0.925840 2.580000 157 149 152
-0.222489 0.916653 2.542000 155 149 153
-0.220826 0.914218 2.523000 155 145 154
-0.219250 0.912081 2.505000 155 145 153
-0.217675 0.909880 2.487000 157 146 153
-0.217675 0.914234 2.487000 158 147 153
-0.216099 0.911939 2.469000 161 152 153
-0.214524 0.909581 2.451000 165 155 156
-0.213036 0.907533 2.434000 164 155 159
-0.208660 0.893063 2.384000 164 155 158
-0.205771 0.884817 2.351000 164 154 158
-0.203058 0.877211 2.320000 164 154 158
-0.201658 0.875194 2.304000 165 156 159
-0.200345 0.873503 2.289000 167 158 161
-0.197719 0.866009 2.259000 168 157 163
-0.196406 0.864187 2.244000 169 158 163
-0.193868 0.856896 2.215000 169 158 163
-0.260154 1.008761 3.033000 139 131 138
-0.257838 1.005043 3.006000 140 133 140
-0.255608 1.001566 2.980000 142 136 141
-0.251319 0.989890 2.930000 144 139 142
-0.247116 0.978379 2.881000 147 140 143
-0.245058 0.975230 2.857000 149 145 145
-0.243085 0.972340 2.834000 151 144 148
-0.241026 0.969024 2.810000 152 143 151
-0.239139 0.966318 2.788000 154 144 152
-0.237167 0.963187 2.765000 154 145 153
-0.235280 0.960324 2.743000 155 146 152
-0.233478 0.957737 2.722000 156 148 151
-0.231677 0.955077 2.701000 157 149 154
-0.229876 0.952342 2.680000 160 149 156
-0.228074 0.949534 2.659000 163 149 154
-0.221298 0.925840 2.580000 159 148 152
-0.219583 0.923144 2.560000 156 147 150
-0.216409 0.914218 2.523000 156 146 148
-0.214865 0.912081 2.505000 156 146 150
-0.214865 0.916466 2.505000 157 148 153
-0.213321 0.914234 2.487000 159 149 153
-0.211777 0.911939 2.469000 162 153 153
-0.210233 0.909581 2.451000 165 154 156
-0.208775 0.907533 2.434000 164 156 158
-0.205859 0.899057 2.400000 164 155 158
-0.200284 0.878795 2.335000 164 154 159
-0.198997 0.877211 2.320000 165 154 159
-0.197625 0.875194 2.304000 166 157 159
-0.196338 0.873503 2.289000 168 157 161
-0.193765 0.866009 2.259000 168 157 163
-0.192478 0.864187 2.244000 169 157 164
-0.189991 0.856896 2.215000 168 158 165
-0.254845 1.008761 3.033000 140 131 140
-0.252576 1.005043 3.006000 141 134 142
-0.250391 1.001566 2.980000 143 137 143
-0.248291 0.998337 2.955000 145 138 144
-0.244090 0.986529 2.905000 148 139 145
-0.242073 0.983422 2.881000 150 143 146
-0.240057 0.980231 2.857000 153 145 148
-0.236107 0.969024 2.810000 154 144 151
-0.234259 0.966318 2.788000 156 144 152
-0.232326 0.963187 2.765000 156 145 154
-0.230478 0.960324 2.743000 155 147 153
-0.228713 0.957737 2.722000 156 148 152
-0.226949 0.955077 2.701000 157 150 155
-0.223420 0.949534 2.659000 160 149 155
-0.216782 0.925840 2.580000 158 147 152
-0.213589 0.916653 2.542000 156 147 147
-0.211993 0.914218 2.523000 156 146 142
-0.210480 0.912081 2.505000 156 146 147
-0.210480 0.916466 2.505000 157 148 153
-0.208968 0.914234 2.487000 158 150 153
-0.205943 0.905290 2.451000 161 152 154
-0.205943 0.909581 2.451000 164 154 156
-0.204514 0.907533 2.434000 165 154 158
-0.201658 0.899057 2.400000 166 155 159
-0.197540 0.884817 2.351000 165 154 160
-0.194936 0.877211 2.320000 164 154 159
-0.193591 0.875194 2.304000 166 156 159
-0.192331 0.873503 2.289000 168 157 161
-0.189810 0.866009 2.259000 169 157 164
-0.187373 0.858795 2.230000 170 157 165
-0.186113 0.856896 2.215000 170 160 167
-0.245175 0.996350 2.980000 143 135 143
-0.245175 1.001566 2.980000 145 137 145
-0.239005 0.986529 2.905000 149 139 147
-0.231189 0.969024 2.810000 157 146 151
-0.227486 0.958346 2.765000 159 146 151
-0.225676 0.955523 2.743000 157 147 152
-0.225676 0.960324 2.743000 156 147 150
-0.223949 0.957737 2.722000 157 149 149
-0.206095 0.907696 2.505000 156 147 147
-0.206095 0.912081 2.505000 156 147 150
-0.204614 0.909880 2.487000 156 148 153
-0.201652 0.901000 2.451000 157 149 154
-0.201652 0.905290 2.451000 160 151 155
-0.200254 0.903272 2.434000 163 153 156
-0.198855 0.901194 2.417000 166 153 157
-0.193425 0.880701 2.351000 169 155 160
-0.193425 0.884817 2.351000 166 156 164
-0.190875 0.877211 2.320000 164 155 162
-0.189558 0.875194 2.304000 166 156 160
-0.188324 0.873503 2.289000 169 157 162
-0.187090 0.871760 2.274000 170 160 164
-0.184622 0.864187 2.244000 171 161 164
-0.182236 0.856896 2.215000 171 166 165
-0.226270 0.969024 2.810000 156 146 151
-0.222646 0.958346 2.765000 157 147 150
-0.220875 0.955523 2.743000 156 146 150
-0.201710 0.907696 2.505000 156 148 153
-0.201710 0.912081 2.505000 156 149 153
-0.200261 0.909880 2.487000 157 149 154
-0.198811 0.907617 2.469000 158 150 155
-0.197362 0.905290 2.451000 160 152 157
-0.195993 0.903272 2.434000 163 155 156
-0.194624 0.901194 2.417000 166 156 156
-0.189310 0.880701 2.351000 169 159 162
-0.189310 0.884817 2.351000 167 158 169
-0.186813 0.877211 2.320000 165 157 165
-0.185525 0.875194 2.304000 167 157 161
-0.184317 0.873503 2.289000 169 158 162
-0.183109 0.871760 2.274000 170 160 164
-0.180694 0.864187 2.244000 172 163 164
-0.179566 0.862699 2.230000 172 163 164
-0.197325 0.907696 2.505000 157 150 154
-0.197325 0.912081 2.505000 157 150 154
-0.195907 0.909880 2.487000 158 151 155
-0.194489 0.907617 2.469000 159 151 156
-0.193071 0.905290 2.451000 161 152 156
-0.191732 0.903272 2.434000 164 154 156
-0.190393 0.901194 2.417000 166 160 156
-0.189054 0.899057 2.400000 169 159 161
-0.186455 0.890838 2.367000 167 160 166
-0.183934 0.882882 2.335000 166 158 164
-0.181492 0.875194 2.304000 168 158 161
-0.180310 0.873503 2.289000 170 159 163
-0.179129 0.871760 2.274000 171 162 164
-0.176766 0.864187 2.244000 173 163 165
-0.175663 0.862699 2.230000 174 163 166
-0.192940 0.907696 2.505000 158 150 155
-0.191554 0.905527 2.487000 157 151 156
-0.190167 0.903295 2.469000 158 151 157
-0.188781 0.901000 2.451000 159 151 156
-0.187472 0.899011 2.434000 161 151 156
-0.187472 0.903272 2.434000 164 150 156
-0.186162 0.901194 2.417000 167 157 157
-0.184853 0.899057 2.400000 170 160 160
-0.182311 0.890838 2.367000 168 159 164
-0.179846 0.882882 2.335000 167 159 163
-0.177459 0.875194 2.304000 168 159 162
-0.176303 0.873503 2.289000 170 160 163
-0.175148 0.871760 2.274000 171 162 165
-0.172837 0.864187 2.244000 173 164 166
-0.171759 0.862699 2.230000 174 164 168
-0.188555 0.907696 2.505000 159 151 155
-0.187200 0.905527 2.487000 158 151 156
-0.185845 0.903295 2.469000 158 152 157
-0.184490 0.901000 2.451000 159 151 157
-0.183211 0.899011 2.434000 161 153 156
-0.183211 0.903272 2.434000 164 154 157
-0.181931 0.901194 2.417000 167 158 158
-0.180652 0.899057 2.400000 171 158 161
-0.179447 0.897236 2.384000 169 158 164
-0.175759 0.882882 2.335000 168 158 163
-0.173426 0.875194 2.304000 169 160 162
-0.172296 0.873503 2.289000 170 161 163
-0.171167 0.871760 2.274000 172 163 164
-0.168909 0.864187 2.244000 174 164 165
-0.167855 0.862699 2.230000 175 166 166
-0.184170 0.907696 2.505000 158 151 155
-0.182847 0.905527 2.487000 157 152 156
-0.181523 0.903295 2.469000 158 151 158
-0.180200 0.901000 2.451000 159 150 157
-0.178950 0.899011 2.434000 161 153 157
-0.178950 0.903272 2.434000 164 157 158
-0.177700 0.901194 2.417000 166 158 160
-0.176450 0.899057 2.400000 169 159 162
-0.175274 0.897236 2.384000 168 158 165
-0.172848 0.888932 2.351000 168 158 164
-0.169392 0.875194 2.304000 169 160 163
-0.168290 0.873503 2.289000 170 162 163
-0.167187 0.871760 2.274000 172 163 163
-0.164981 0.864187 2.244000 173 165 164
-0.163952 0.862699 2.230000 174 165 165
-0.181077 0.909802 2.523000 159 150 154
-0.179785 0.907696 2.505000 157 151 155
-0.178493 0.905527 2.487000 156 150 157
-0.177201 0.903295 2.469000 158 150 158
-0.175910 0.901000 2.451000 160 151 158
-0.175910 0.905290 2.451000 162 154 157
-0.174690 0.903272 2.434000 164 156 159
-0.173469 0.901194 2.417000 165 158 160
-0.172249 0.899057 2.400000 167 159 162
-0.171101 0.897236 2.384000 167 159 164
-0.169881 0.894982 2.367000 168 158 162
-0.166508 0.881272 2.320000 169 160 160
-0.164283 0.873503 2.289000 171 161 162
-0.163206 0.871760 2.274000 172 164 165
-0.161053 0.864187 2.244000 173 164 165
-0.161053 0.868115 2.244000 174 164 166
-0.212371 1.008761 3.033000 147 140 142
-0.177991 0.916653 2.542000 160 150 154
-0.176660 0.914218 2.523000 158 150 156
-0.175400 0.912081 2.505000 157 150 157
-0.174140 0.909880 2.487000 158 151 159
-0.172879 0.907617 2.469000 160 152 158
-0.171619 0.905290 2.451000 162 153 158
-0.170429 0.903272 2.434000 164 156 159
-0.169238 0.901194 2.417000 165 158 161
-0.168048 0.899057 2.400000 166 160 162
-0.166928 0.897236 2.384000 166 158 163
-0.165737 0.894982 2.367000 165 157 160
-0.162446 0.881272 2.320000 167 158 158
-0.161326 0.879227 2.304000 170 161 162
-0.159225 0.871760 2.274000 171 162 167
-0.157125 0.864187 2.244000 173 163 167
-0.157125 0.868115 2.244000 174 164 168
-0.207061 0.998142 3.033000 142 136 143
-0.207061 1.003452 3.033000 144 137 144
-0.205218 0.999781 3.006000 147 139 144
-0.203443 0.996350 2.980000 149 142 144
-0.201736 0.993164 2.955000 152 143 148
-0.193476 0.972340 2.834000 154 146 151
-0.177433 0.928108 2.599000 157 148 154
-0.174770 0.918663 2.560000 159 148 154
-0.172244 0.909802 2.523000 161 149 157
-0.172244 0.914218 2.523000 160 149 161
-0.171015 0.912081 2.505000 159 150 159
-0.169786 0.909880 2.487000 159 152 157
-0.168557 0.907617 2.469000 160 152 157
-0.168557 0.911939 2.469000 162 153 157
-0.167329 0.909581 2.451000 164 155 158
-0.165007 0.901194 2.417000 165 158 160
-0.163847 0.899057 2.400000 166 159 161
-0.162755 0.897236 2.384000 164 158 162
-0.161594 0.894982 2.367000 163 157 161
-0.158385 0.881272 2.320000 166 157 160
-0.156269 0.873503 2.289000 169 159 163
-0.155245 0.871760 2.274000 171 161 166
-0.153197 0.864187 2.244000 174 162 166
-0.153197 0.868115 2.244000 175 164 167
-0.201752 0.998142 3.033000 142 137 144
-0.201752 1.003452 3.033000 145 137 146
-0.199956 0.999781 3.006000 148 138 145
-0.198227 0.996350 2.980000 151 142 145
-0.194901 0.984761 2.930000 154 146 151
-0.193238 0.981444 2.905000 152 143 158
-0.188515 0.972340 2.834000 153 147 151
-0.182462 0.955523 2.743000 156 147 152
-0.181065 0.952972 2.722000 155 149 155
-0.179668 0.950348 2.701000 155 148 159
-0.178271 0.947651 2.680000 156 149 157
-0.176874 0.944880 2.659000 156 147 155
-0.174213 0.935250 2.619000 156 146 155
-0.171619 0.925840 2.580000 157 147 156
-0.169091 0.916653 2.542000 159 152 161
-0.167827 0.914218 2.523000 159 151 166
-0.166630 0.912081 2.505000 159 152 161
-0.165433 0.909880 2.487000 159 152 156
-0.164235 0.907617 2.469000 160 153 156
-0.163038 0.905290 2.451000 162 154 157
-0.161907 0.903272 2.434000 164 154 158
-0.160776 0.901194 2.417000 165 159 159
-0.159646 0.899057 2.400000 166 162 160
-0.158581 0.897236 2.384000 165 159 161
-0.157450 0.894982 2.367000 165 157 162
-0.154324 0.881272 2.320000 166 157 163
-0.152262 0.873503 2.289000 168 159 164
-0.151264 0.871760 2.274000 170 160 165
-0.150266 0.869964 2.259000 173 163 165
-0.149269 0.868115 2.244000 173 164 166
-0.196443 0.998142 3.033000 143 137 146
-0.196443 1.003452 3.033000 146 136 145
-0.194694 0.999781 3.006000 149 138 145
-0.191391 0.987991 2.955000 153 142 145
-0.189772 0.984761 2.930000 157 144 150
-0.188153 0.981444 2.905000 154 144 155
-0.186598 0.978379 2.881000 152 143 152
-0.186598 0.983422 2.881000 152 144 149
-0.183554 0.972340 2.834000 153 145 150
-0.182000 0.969024 2.810000 153 146 151
-0.180575 0.966318 2.788000 154 146 149
-0.177660 0.955523 2.743000 154 147 148
-0.177660 0.960324 2.743000 155 148 151
-0.176300 0.957737 2.722000 155 148 155
-0.173580 0.947651 2.680000 156 147 154
-0.173580 0.952342 2.680000 155 146 153
-0.169629 0.935250 2.619000 155 145 152
-0.167103 0.925840 2.580000 156 145 151
-0.164642 0.916653 2.542000 158 149 156
-0.163411 0.914218 2.523000 158 152 161
-0.162245 0.912081 2.505000 159 151 157
-0.161079 0.909880 2.487000 160 152 152
-0.159913 0.907617 2.469000 161 153 154
-0.158748 0.905290 2.451000 163 156 156
-0.157647 0.903272 2.434000 165 158 159
-0.156546 0.901194 2.417000 166 163 162
-0.155444 0.899057 2.400000 167 162 160
-0.154408 0.897236 2.384000 167 161 159
-0.153307 0.894982 2.367000 167 159 161
-0.149227 0.875194 2.304000 167 156 163
-0.148255 0.873503 2.289000 167 158 162
-0.146312 0.866009 2.259000 169 160 161
-0.145341 0.864187 2.244000 172 162 162
-0.145341 0.868115 2.244000 172 164 162
-0.192772 1.006699 3.059000 143 140 148
-0.191134 1.003452 3.033000 146 138 144
-0.189432 0.999781 3.006000 148 139 144
-0.186218 0.987991 2.955000 151 142 145
-0.184643 0.984761 2.930000 155 145 148
-0.183067 0.981444 2.905000 153 144 152
-0.183067 0.986529 2.905000 151 143 150
-0.181555 0.983422 2.881000 152 144 148
-0.178593 0.972340 2.834000 153 146 149
-0.177081 0.969024 2.810000 153 145 150
-0.175694 0.966318 2.788000 153 145 147
-0.172859 0.955523 2.743000 154 146 144
-0.172859 0.960324 2.743000 155 149 148
-0.171535 0.957737 2.722000 155 147 152
-0.168888 0.947651 2.680000 155 147 151
-0.167565 0.944880 2.659000 155 146 151
-0.163784 0.928108 2.599000 155 146 148
-0.162587 0.925840 2.580000 156 147 146
-0.161326 0.923144 2.560000 158 149 151
-0.160192 0.921103 2.542000 158 150 157
-0.157860 0.912081 2.505000 158 150 153
-0.156726 0.909880 2.487000 159 151 149
-0.154457 0.901000 2.451000 161 153 152
-0.153386 0.899011 2.434000 162 155 155
-0.153386 0.903272 2.434000 164 159 160
-0.152315 0.901194 2.417000 166 161 165
-0.151243 0.899057 2.400000 168 163 161
-0.150235 0.897236 2.384000 167 161 158
-0.149164 0.894982 2.367000 166 162 160
-0.146202 0.881272 2.320000 165 159 163
-0.144248 0.873503 2.289000 165 159 160
-0.143303 0.871760 2.274000 167 160 158
-0.142358 0.869964 2.259000 169 162 158
-0.141412 0.868115 2.244000 168 160 159
-0.187417 1.006699 3.059000 144 139 146
-0.185824 1.003452 3.033000 146 139 144
-0.182577 0.991133 2.980000 148 139 144
-0.181045 0.987991 2.955000 150 142 144
-0.179514 0.984761 2.930000 153 144 147
-0.179514 0.989890 2.930000 151 145 150
-0.177982 0.986529 2.905000 150 143 149
-0.176512 0.983422 2.881000 152 144 148
-0.173632 0.972340 2.834000 154 145 150
-0.172162 0.969024 2.810000 153 146 152
-0.170814 0.966318 2.788000 153 145 149
-0.168057 0.955523 2.743000 154 146 147
-0.168057 0.960324 2.743000 155 148 150
-0.166770 0.957737 2.722000 154 147 154
-0.164197 0.947651 2.680000 154 146 153
-0.162910 0.944880 2.659000 154 146 151
-0.159234 0.928108 2.599000 155 147 151
-0.156845 0.918663 2.560000 156 148 151
-0.155742 0.916653 2.542000 158 149 154
-0.155742 0.921103 2.542000 158 151 157
-0.154578 0.918635 2.523000 158 151 156
-0.152372 0.909880 2.487000 159 152 156
-0.151269 0.907617 2.469000 161 153 156
-0.150167 0.905290 2.451000 162 154 155
-0.149125 0.903272 2.434000 164 157 157
-0.148084 0.901194 2.417000 167 159 160
-0.146062 0.893063 2.384000 170 157 158
-0.146062 0.897236 2.384000 167 159 156
-0.144040 0.888932 2.351000 165 153 150
-0.142141 0.881272 2.320000 164 160 144
-0.140241 0.873503 2.289000 163 155 150
-0.139322 0.871760 2.274000 164 161 156
-0.138403 0.869964 2.259000 166 156 153
-0.137484 0.868115 2.244000 163 153 150
-0.182063 1.006699 3.059000 145 140 144
-0.180515 1.003452 3.033000 145 138 144
-0.175873 0.982818 2.955000 145 138 143
-0.174385 0.979632 2.930000 149 141 143
-0.174385 0.984761 2.930000 153 144 145
-0.172897 0.981444 2.905000 152 143 148
-0.172897 0.986529 2.905000 151 143 148
-0.171469 0.983422 2.881000 153 144 149
-0.170040 0.980231 2.857000 155 147 152
-0.168671 0.977301 2.834000 154 145 155
-0.165933 0.966318 2.788000 153 144 152
-0.164565 0.963187 2.765000 154 146 150
-0.163255 0.960324 2.743000 155 150 153
-0.162005 0.957737 2.722000 154 148 157
-0.159506 0.947651 2.680000 154 146 154
-0.158256 0.944880 2.659000 154 146 152
-0.154685 0.928108 2.599000 155 148 154
-0.152364 0.918663 2.560000 156 149 156
-0.151292 0.916653 2.542000 157 150 156
-0.150161 0.914218 2.523000 157 151 157
-0.149090 0.912081 2.505000 158 153 160
-0.148019 0.909880 2.487000 159 152 164
-0.146948 0.907617 2.469000 161 153 160
-0.144864 0.899011 2.434000 162 154 156
-0.144864 0.903272 2.434000 164 156 155
-0.142841 0.894856 2.400000 165 155 155
-0.141889 0.893063 2.384000 166 149 154
-0.140877 0.890838 2.367000 161 147 154
-0.139925 0.888932 2.351000 157 132 140
-0.137127 0.875194 2.304000 159 143 126
-0.136234 0.873503 2.289000 160 142 140
-0.135342 0.871760 2.274000 163 152 155
-0.134449 0.869964 2.259000 166 149 148
-0.133556 0.868115 2.244000 165 153 141
-0.178325 1.015913 3.087000 146 139 142
-0.175206 1.003452 3.033000 144 136 137
-0.170700 0.982818 2.955000 143 139 139
-0.169256 0.979632 2.930000 148 143 141
-0.169256 0.984761 2.930000 154 144 143
-0.167812 0.981444 2.905000 153 143 146
-0.167812 0.986529 2.905000 152 142 146
-0.166425 0.983422 2.881000 154 143 146
-0.165039 0.980231 2.857000 156 145 148
-0.163710 0.977301 2.834000 154 146 151
-0.161053 0.966318 2.788000 153 143 149
-0.158453 0.955523 2.743000 154 145 148
-0.158453 0.960324 2.743000 155 149 150
-0.156027 0.950348 2.701000 154 152 153
-0.154814 0.947651 2.680000 154 146 152
-0.153601 0.944880 2.659000 154 144 152
-0.150135 0.928108 2.599000 155 147 153
-0.145745 0.905385 2.523000 155 150 155
-0.145745 0.909802 2.523000 156 151 155
-0.144705 0.907696 2.505000 157 152 155
-0.144705 0.912081 2.505000 159 151 157
-0.142625 0.903295 2.469000 160 152 160
-0.141586 0.901000 2.451000 161 152 157
-0.140604 0.899011 2.434000 162 154 154
-0.140604 0.903272 2.434000 164 155 155
-0.139622 0.901194 2.417000 163 157 156
-0.137715 0.893063 2.384000 162 153 156
-0.136733 0.890838 2.367000 156 150 157
-0.134885 0.882882 2.335000 150 144 150
-0.133094 0.875194 2.304000 154 141 142
-0.132227 0.873503 2.289000 158 148 149
-0.131361 0.871760 2.274000 162 156 155
-0.130495 0.869964 2.259000 166 157 153
-0.130495 0.873918 2.259000 167 161 152
-0.177683 1.027229 3.172000 143 131 136
-0.177683 1.032781 3.172000 149 136 144
-0.177683 1.038334 3.172000 147 139 152
-0.176058 1.034343 3.143000 146 140 141
-0.174490 1.030581 3.115000 145 137 131
-0.165527 0.982818 2.955000 144 139 135
-0.164127 0.979632 2.930000 148 142 139
-0.164127 0.984761 2.930000 151 147 141
-0.162727 0.981444 2.905000 151 143 144
-0.161382 0.978379 2.881000 151 141 143
-0.160038 0.975230 2.857000 152 143 143
-0.158749 0.972340 2.834000 153 145 145
-0.157405 0.969024 2.810000 152 142 147
-0.156173 0.966318 2.788000 152 140 146
-0.153652 0.955523 2.743000 154 144 146
-0.153652 0.960324 2.743000 157 149 147
-0.151299 0.950348 2.701000 155 148 149
-0.150123 0.947651 2.680000 153 143 150
-0.148947 0.944880 2.659000 154 144 152
-0.144521 0.921323 2.580000 154 149 153
-0.143401 0.918663 2.560000 155 150 154
-0.142393 0.916653 2.542000 156 152 154
-0.141328 0.914218 2.523000 157 151 154
-0.140320 0.912081 2.505000 158 150 155
-0.139312 0.909880 2.487000 159 150 156
-0.138304 0.907617 2.469000 161 152 154
-0.137295 0.905290 2.451000 162 153 153
-0.136343 0.903272 2.434000 163 155 155
-0.135391 0.901194 2.417000 163 156 157
-0.133542 0.893063 2.384000 163 157 159
-0.132590 0.890838 2.367000 160 153 161
-0.129957 0.877211 2.320000 156 154 160
-0.129061 0.875194 2.304000 158 150 159
-0.128221 0.873503 2.289000 161 153 157
-0.127380 0.871760 2.274000 164 158 156
-0.126540 0.869964 2.259000 168 163 159
-0.126540 0.873918 2.259000 169 163 163
-0.172130 1.027229 3.172000 142 129 136
-0.172130 1.032781 3.172000 146 133 140
-0.170557 1.028841 3.143000 146 141 145
-0.170557 1.034343 3.143000 147 138 140
-0.169037 1.030581 3.115000 146 136 135
-0.158998 0.979632 2.930000 147 142 139
-0.157641 0.976359 2.905000 149 143 142
-0.157641 0.981444 2.905000 149 143 146
-0.156339 0.978379 2.881000 150 142 147
-0.155037 0.975230 2.857000 150 144 149
-0.153789 0.972340 2.834000 151 142 148
-0.152486 0.969024 2.810000 151 139 147
-0.151292 0.966318 2.788000 151 140 146
-0.150044 0.963187 2.765000 155 144 145
-0.148850 0.960324 2.743000 159 147 147
-0.147711 0.957737 2.722000 156 149 150
-0.144292 0.940225 2.659000 153 145 148
-0.143207 0.937773 2.639000 153 142 146
-0.140005 0.921323 2.580000 154 146 149
-0.138920 0.918663 2.560000 155 152 152
-0.137943 0.916653 2.542000 157 150 152
-0.136912 0.914218 2.523000 157 150 152
-0.135935 0.912081 2.505000 158 148 152
-0.134958 0.909880 2.487000 159 149 152
-0.133982 0.907617 2.469000 161 151 153
-0.132082 0.899011 2.434000 161 154 154
-0.132082 0.903272 2.434000 162 155 158
-0.131160 0.901194 2.417000 163 157 162
-0.129369 0.893063 2.384000 165 156 161
-0.128447 0.890838 2.367000 164 154 160
-0.126710 0.882882 2.335000 163 154 160
-0.125896 0.881272 2.320000 163 155 161
-0.124214 0.873503 2.289000 164 156 159
-0.123400 0.871760 2.274000 167 163 157
-0.122586 0.869964 2.259000 171 163 161
-0.122586 0.873918 2.259000 171 163 165
-0.166578 1.027229 3.172000 140 128 136
-0.166578 1.032781 3.172000 144 128 137
-0.165055 1.028841 3.143000 144 137 139
-0.165055 1.034343 3.143000 145 138 139
-0.163584 1.030581 3.115000 144 135 140
-0.153869 0.984761 2.930000 148 143 143
-0.152556 0.981444 2.905000 149 142 148
-0.151296 0.978379 2.881000 149 143 152
-0.150035 0.975230 2.857000 149 142 156
-0.150035 0.980231 2.857000 149 143 151
-0.147567 0.969024 2.810000 149 139 147
-0.146412 0.966318 2.788000 149 137 145
-0.145204 0.963187 2.765000 152 142 144
-0.144049 0.960324 2.743000 155 148 148
-0.142946 0.957737 2.722000 154 147 152
-0.140740 0.947651 2.680000 152 146 146
-0.139637 0.944880 2.659000 152 144 141
-0.135489 0.921323 2.580000 153 143 145
-0.133493 0.912203 2.542000 153 147 150
-0.132495 0.909802 2.523000 154 149 150
-0.132495 0.914218 2.523000 155 148 151
-0.131550 0.912081 2.505000 157 146 150
-0.130605 0.909880 2.487000 158 148 149
-0.129660 0.907617 2.469000 160 151 152
-0.128714 0.905290 2.451000 161 153 156
-0.127822 0.903272 2.434000 162 154 162
-0.126929 0.901194 2.417000 164 155 168
-0.125196 0.893063 2.384000 167 156 164
-0.124303 0.890838 2.367000 165 154 160
-0.123463 0.888932 2.351000 163 155 161
-0.121835 0.881272 2.320000 164 154 163
-0.120207 0.873503 2.289000 165 155 161
-0.119419 0.871760 2.274000 167 160 159
-0.118631 0.869964 2.259000 170 165 163
-0.117844 0.868115 2.244000 171 163 167
-0.159553 1.017837 3.143000 139 127 133
-0.161025 1.032781 3.172000 142 131 136
-0.159553 1.028841 3.143000 142 141 138
-0.159553 1.034343 3.143000 143 137 138
-0.146253 0.978379 2.881000 149 141 149
-0.145034 0.975230 2.857000 148 141 151
-0.143867 0.972340 2.834000 148 140 147
-0.142648 0.969024 2.810000 147 137 144
-0.141532 0.966318 2.788000 147 137 142
-0.140364 0.963187 2.765000 149 140 140
-0.139247 0.960324 2.743000 152 144 146
-0.138181 0.957737 2.722000 152 145 152
-0.136049 0.947651 2.680000 152 145 150
-0.134983 0.944880 2.659000 152 145 148
-0.130972 0.921323 2.580000 152 144 148
-0.129957 0.918663 2.560000 152 145 148
-0.128079 0.909802 2.523000 152 146 149
-0.127165 0.907696 2.505000 154 147 150
-0.127165 0.912081 2.505000 156 146 150
-0.126251 0.909880 2.487000 158 148 150
-0.125338 0.907617 2.469000 160 151 153
-0.124424 0.905290 2.451000 161 153 155
-0.123561 0.903272 2.434000 162 153 159
-0.122698 0.901194 2.417000 165 154 162
-0.121023 0.893063 2.384000 169 154 161
-0.120160 0.890838 2.367000 166 154 159
-0.119347 0.888932 2.351000 163 153 160
-0.118535 0.886970 2.335000 164 154 161
-0.116961 0.879227 2.304000 166 155 159
-0.115439 0.871760 2.274000 168 158 158
-0.113916 0.864187 2.244000 170 161 161
-0.113916 0.868115 2.244000 171 161 165
-0.154051 1.017837 3.143000 138 127 131
-0.154051 1.023339 3.143000 141 128 134
-0.141209 0.978379 2.881000 147 140 146
-0.140033 0.975230 2.857000 146 140 146
-0.138906 0.972340 2.834000 146 140 144
-0.136651 0.961438 2.788000 145 137 142
-0.136651 0.966318 2.788000 143 136 139
-0.135524 0.963187 2.765000 147 140 137
-0.134445 0.960324 2.743000 151 145 144
-0.132387 0.950348 2.701000 151 144 152
-0.131357 0.947651 2.680000 151 144 153
-0.130328 0.944880 2.659000 151 145 155
-0.127387 0.928108 2.599000 152 146 150
-0.126456 0.925840 2.580000 150 145 146
-0.124594 0.916653 2.542000 149 145 147
-0.123662 0.914218 2.523000 152 145 149
-0.122780 0.912081 2.505000 154 146 150
-0.121898 0.909880 2.487000 156 148 152
-0.121016 0.907617 2.469000 159 152 153
-0.120133 0.905290 2.451000 160 152 155
-0.119300 0.903272 2.434000 161 152 156
-0.118467 0.901194 2.417000 163 153 157
-0.116849 0.893063 2.384000 165 154 158
-0.116016 0.890838 2.367000 163 153 159
-0.115232 0.888932 2.351000 162 152 159
-0.114448 0.886970 2.335000 163 153 159
-0.112193 0.873503 2.289000 164 154 158
-0.111458 0.871760 2.274000 167 158 157
-0.110723 0.869964 2.259000 170 163 160
-0.109987 0.868115 2.244000 171 162 164
-0.135788 0.975662 2.873000 145 139 144
-0.135032 0.975230 2.857000 145 139 142
-0.133945 0.972340 2.834000 145 139 142
-0.131771 0.961438 2.788000 142 138 142
-0.131771 0.966318 2.788000 140 138 141
-0.130684 0.963187 2.765000 145 139 140
-0.129644 0.960324 2.743000 150 142 145
-0.127659 0.950348 2.701000 150 144 150
-0.126666 0.947651 2.680000 151 144 150
-0.125674 0.944880 2.659000 151 146 150
-0.123783 0.935250 2.619000 152 146 147
-0.122838 0.932658 2.599000 149 145 144
-0.120995 0.923144 2.560000 147 144 146
-0.119246 0.914218 2.523000 150 144 148
-0.118395 0.912081 2.505000 153 145 149
-0.117544 0.909880 2.487000 155 147 151
-0.116694 0.907617 2.469000 158 150 152
-0.115843 0.905290 2.451000 159 152 154
-0.115039 0.903272 2.434000 160 152 155
-0.114236 0.901194 2.417000 160 152 156
-0.112676 0.893063 2.384000 161 152 156
-0.111873 0.890838 2.367000 161 152 156
-0.111117 0.888932 2.351000 161 152 156
-0.110360 0.886970 2.335000 161 153 157
-0.108186 0.873503 2.289000 162 153 156
-0.107477 0.871760 2.274000 166 158 156
-0.106768 0.869964 2.259000 170 159 159
-0.106059 0.868115 2.244000 171 163 163
-0.130395 0.972946 2.865000 145 137 142
-0.128984 0.967379 2.834000 145 138 138
-0.128984 0.972340 2.834000 146 139 140
-0.127892 0.969024 2.810000 144 138 142
