ply
format ascii 1.0
element vertex 1222
property float x
property float y
property float z
property uchar red
property uchar green
property uchar blue
end_header
-1.071306 0.907459 2.400000 90 84 105
-1.064164 0.905583 2.384000 89 82 107
-1.049434 0.897163 2.351000 89 82 107
-1.049434 0.901278 2.351000 90 84 108
-1.042292 0.899232 2.335000 91 86 109
-1.028454 0.891327 2.304000 89 88 111
-1.015063 0.883702 2.274000 88 86 106
-1.015063 0.887682 2.274000 88 84 101
-1.260073 0.982262 2.834000 86 81 91
-1.249402 0.978862 2.810000 85 81 95
-1.239620 0.976079 2.788000 85 81 97
-1.239620 0.980959 2.788000 85 80 100
-1.229394 0.977707 2.765000 85 82 100
-1.219612 0.974729 2.743000 85 80 100
-1.210275 0.972032 2.722000 86 80 99
-1.173371 0.947012 2.639000 86 81 99
-1.164478 0.944420 2.619000 86 82 94
-1.155586 0.941757 2.599000 85 81 89
-1.138245 0.932106 2.560000 84 81 95
-1.130242 0.930002 2.542000 84 81 101
-1.130242 0.934452 2.542000 84 82 100
-1.121794 0.931884 2.523000 85 83 99
-1.105788 0.922941 2.487000 86 84 98
-1.097784 0.920583 2.469000 86 80 97
-1.089781 0.918162 2.451000 86 80 100
-1.074664 0.909656 2.417000 88 82 103
-1.067105 0.907459 2.400000 90 84 104
-1.059991 0.905583 2.384000 89 82 106
-1.059991 0.909756 2.384000 89 82 106
-1.045318 0.901278 2.351000 90 83 107
-1.038204 0.899232 2.335000 91 85 106
-1.031535 0.897517 2.320000 90 86 105
-1.011082 0.883702 2.274000 89 86 103
-1.004413 0.881827 2.259000 89 84 101
-1.255112 0.982262 2.834000 84 80 93
-1.255112 0.987223 2.834000 84 81 95
-1.244483 0.983781 2.810000 84 80 97
-1.234740 0.980959 2.788000 83 80 100
-1.224554 0.977707 2.765000 83 80 100
-1.214810 0.974729 2.743000 83 81 100
-1.186909 0.957034 2.680000 84 80 99
-1.159894 0.939835 2.619000 85 80 98
-1.151036 0.937207 2.599000 86 80 95
-1.142622 0.934872 2.580000 85 80 93
-1.133764 0.932106 2.560000 84 81 97
-1.125792 0.930002 2.542000 84 82 101
-1.117377 0.927468 2.523000 85 82 100
-1.109406 0.925236 2.505000 85 83 100
-1.101434 0.922941 2.487000 86 82 99
-1.093462 0.920583 2.469000 86 80 98
-1.093462 0.924905 2.469000 86 80 99
-1.077961 0.916054 2.434000 88 82 100
-1.070433 0.913887 2.417000 91 83 102
-1.055818 0.905583 2.384000 90 83 103
-1.055818 0.909756 2.384000 89 82 104
-1.041203 0.901278 2.351000 90 82 105
-1.034117 0.899232 2.335000 91 83 105
-1.020388 0.891327 2.304000 91 85 105
-1.007101 0.883702 2.274000 91 84 102
-1.000458 0.881827 2.259000 90 83 100
-1.250151 0.982262 2.834000 83 80 96
-1.260297 0.995235 2.857000 82 79 95
-1.239564 0.983781 2.810000 81 79 98
-1.239564 0.988700 2.810000 82 79 101
-1.219713 0.977707 2.765000 82 79 101
-1.219713 0.982547 2.765000 83 79 101
-1.164132 0.942392 2.639000 83 80 99
-1.155309 0.939835 2.619000 84 80 97
-1.146487 0.937207 2.599000 85 80 97
-1.138105 0.934872 2.580000 84 80 97
-1.129283 0.932106 2.560000 84 82 99
-1.121342 0.930002 2.542000 84 81 101
-1.112961 0.927468 2.523000 85 81 101
-1.105021 0.925236 2.505000 86 81 101
-1.097080 0.922941 2.487000 87 81 100
-1.089140 0.920583 2.469000 86 79 100
-1.089140 0.924905 2.469000 86 80 99
-1.073701 0.916054 2.434000 87 81 98
-1.066202 0.913887 2.417000 89 83 99
-1.058703 0.911661 2.400000 88 82 101
-1.051644 0.909756 2.384000 88 82 102
-1.037087 0.901278 2.351000 89 81 103
-1.030029 0.899232 2.335000 90 81 104
-1.023412 0.897517 2.320000 90 83 105
-1.003121 0.883702 2.274000 91 85 102
-0.996504 0.881827 2.259000 90 84 99
-1.255296 0.990233 2.857000 83 78 94
-1.255296 0.995235 2.857000 81 79 92
-1.245190 0.992184 2.834000 79 78 97
-1.234645 0.988700 2.810000 80 78 102
-1.224979 0.985840 2.788000 82 78 101
-1.214873 0.982547 2.765000 82 78 100
-1.150725 0.935250 2.619000 83 79 97
-1.150725 0.939835 2.619000 83 81 95
-1.141937 0.937207 2.599000 84 80 95
-1.133589 0.934872 2.580000 84 79 95
-1.124802 0.932106 2.560000 84 80 97
-1.116893 0.930002 2.542000 85 80 99
-1.108545 0.927468 2.523000 86 79 100
-1.100636 0.925236 2.505000 87 79 100
-1.092727 0.922941 2.487000 89 79 99
-1.084818 0.920583 2.469000 87 78 97
-1.076910 0.918162 2.451000 86 79 97
-1.069440 0.916054 2.434000 87 81 97
-1.061971 0.913887 2.417000 88 81 98
-1.061971 0.918118 2.417000 87 81 99
-1.054501 0.915862 2.400000 87 81 101
-1.047471 0.913929 2.384000 88 82 103
-1.032972 0.905394 2.351000 89 82 106
-1.005731 0.885524 2.289000 90 83 110
-0.999140 0.883702 2.274000 91 83 106
-0.992549 0.881827 2.259000 90 84 102
-1.250295 0.990233 2.857000 84 78 93
-1.250295 0.995235 2.857000 82 78 89
-1.240229 0.992184 2.834000 81 79 96
-1.229726 0.988700 2.810000 81 78 103
-1.220099 0.985840 2.788000 82 78 101
-1.220099 0.990720 2.788000 82 78 100
-1.146140 0.935250 2.619000 81 78 96
-1.137388 0.932658 2.599000 82 80 93
-1.137388 0.937207 2.599000 84 82 93
-1.129073 0.934872 2.580000 84 80 94
-1.120320 0.932106 2.560000 84 81 96
-1.104128 0.923051 2.523000 84 80 98
-1.104128 0.927468 2.523000 85 79 99
-1.096251 0.925236 2.505000 86 79 100
-1.088374 0.922941 2.487000 87 80 97
-1.080496 0.920583 2.469000 86 79 95
-1.072619 0.918162 2.451000 85 80 95
-1.065179 0.916054 2.434000 87 81 96
-1.057740 0.913887 2.417000 89 82 97
-1.057740 0.918118 2.417000 87 81 98
-1.050300 0.915862 2.400000 85 81 100
-1.043298 0.913929 2.384000 87 82 103
-1.028857 0.905394 2.351000 89 83 109
-1.001724 0.885524 2.289000 89 83 116
-0.995159 0.883702 2.274000 90 82 111
-0.988595 0.881827 2.259000 90 83 106
-1.245294 0.985232 2.857000 84 77 98
-1.255755 0.998552 2.881000 85 78 95
-1.245294 0.995235 2.857000 84 79 92
-1.235268 0.992184 2.834000 83 78 96
-1.224808 0.988700 2.810000 83 77 100
-1.205193 0.977707 2.765000 83 77 98
-1.215218 0.990720 2.788000 81 78 97
-1.150273 0.942392 2.639000 80 78 96
-1.141556 0.939835 2.619000 82 81 95
-1.132838 0.937207 2.599000 84 81 94
-1.115839 0.927625 2.560000 84 81 94
-1.107993 0.925553 2.542000 84 81 97
-1.099712 0.923051 2.523000 84 82 99
-1.099712 0.927468 2.523000 84 80 99
-1.091866 0.925236 2.505000 85 80 100
-1.084020 0.922941 2.487000 86 80 96
-1.084020 0.927294 2.487000 85 79 93
-1.068329 0.918162 2.451000 85 80 94
-1.060919 0.916054 2.434000 87 83 95
-1.053509 0.913887 2.417000 90 83 99
-1.046099 0.911661 2.400000 87 81 103
-1.039125 0.909756 2.384000 84 81 102
-1.017767 0.895145 2.335000 86 84 101
-1.017767 0.899232 2.335000 89 84 105
-0.997717 0.885524 2.289000 89 84 109
-0.997717 0.889531 2.289000 90 84 105
-0.991179 0.887682 2.274000 90 84 101
-1.250711 1.003595 2.881000 84 79 96
-1.219888 0.988700 2.810000 83 77 97
-1.145653 0.942392 2.639000 82 78 96
-1.136971 0.939835 2.619000 83 80 97
-1.128288 0.937207 2.599000 84 83 96
-1.120040 0.934872 2.580000 85 82 95
-1.111358 0.932106 2.560000 85 82 98
-1.095295 0.923051 2.523000 84 81 101
-1.095295 0.927468 2.523000 83 80 100
-1.095295 0.931884 2.523000 84 81 100
-1.079666 0.922941 2.487000 85 82 95
-1.079666 0.927294 2.487000 85 80 91
-1.071852 0.924905 2.469000 86 81 93
-1.056658 0.916054 2.434000 87 83 95
-1.049278 0.913887 2.417000 89 86 101
-1.041898 0.911661 2.400000 86 82 108
-1.034952 0.909756 2.384000 84 81 104
-1.020626 0.901278 2.351000 87 83 100
-1.000222 0.887294 2.304000 90 86 101
-0.993710 0.885524 2.289000 90 85 103
-0.987198 0.883702 2.274000 90 86 100
-0.987198 0.887682 2.274000 90 85 97
-1.149681 0.949534 2.659000 85 79 94
-1.141034 0.947012 2.639000 85 81 96
-1.123739 0.937207 2.599000 85 82 96
-1.115524 0.934872 2.580000 86 83 96
-1.106876 0.932106 2.560000 87 81 98
-1.099094 0.930002 2.542000 85 81 101
-1.090878 0.927468 2.523000 83 81 101
-1.090878 0.931884 2.523000 84 82 102
-1.083096 0.929621 2.505000 85 82 98
-1.075313 0.927294 2.487000 86 81 94
-1.067530 0.924905 2.469000 87 81 94
-1.052397 0.916054 2.434000 87 85 95
-1.045047 0.913887 2.417000 88 84 99
-1.037696 0.911661 2.400000 86 83 103
-1.030779 0.909756 2.384000 85 82 102
-1.016510 0.901278 2.351000 88 84 102
-0.989703 0.881517 2.289000 91 85 101
-0.983217 0.879721 2.274000 90 86 100
-0.983217 0.883702 2.274000 90 85 95
-0.983217 0.887682 2.274000 90 85 89
-1.145027 0.949534 2.659000 85 82 93
-1.136414 0.947012 2.639000 86 81 96
-1.127802 0.944420 2.619000 86 81 97
-1.119189 0.941757 2.599000 87 81 98
-1.111008 0.939389 2.580000 87 81 99
-1.094644 0.930002 2.542000 86 81 101
-1.094644 0.934452 2.542000 85 83 103
-1.086462 0.931884 2.523000 85 83 105
-1.070960 0.922941 2.487000 86 84 101
-1.070960 0.927294 2.487000 87 82 98
-1.048136 0.911794 2.434000 87 80 96
-1.040816 0.909656 2.417000 88 83 95
-1.040816 0.913887 2.417000 89 85 96
-1.033495 0.911661 2.400000 88 83 98
-1.026605 0.909756 2.384000 87 82 101
-1.019285 0.907412 2.367000 89 84 104
-0.985696 0.881517 2.289000 91 86 101
-0.979237 0.879721 2.274000 91 85 98
-0.979237 0.883702 2.274000 91 84 90
-0.979237 0.887682 2.274000 91 85 82
-1.149378 0.957034 2.680000 86 81 97
-1.140372 0.954189 2.659000 87 83 101
-1.131795 0.951632 2.639000 88 82 100
-1.114640 0.941757 2.599000 88 82 100
-1.106491 0.939389 2.580000 88 81 101
-1.097914 0.936588 2.560000 87 82 103
-1.090194 0.934452 2.542000 87 83 104
-1.082045 0.931884 2.523000 87 84 104
-1.074326 0.929621 2.505000 88 83 102
-1.066606 0.927294 2.487000 88 83 100
-1.051167 0.918162 2.451000 88 83 98
-1.036585 0.909656 2.417000 89 85 96
-1.036585 0.913887 2.417000 90 85 97
-1.029294 0.911661 2.400000 89 84 98
-1.022432 0.909756 2.384000 89 84 100
-1.015141 0.907412 2.367000 90 84 102
-0.981689 0.881517 2.289000 92 85 102
-0.975256 0.879721 2.274000 92 86 103
-0.975256 0.883702 2.274000 92 85 97
-0.975256 0.887682 2.274000 93 86 91
-1.153657 0.964533 2.701000 87 80 102
-1.127175 0.947012 2.639000 90 81 106
-1.118633 0.944420 2.619000 93 82 104
-1.118633 0.949004 2.619000 90 81 102
-1.093433 0.932106 2.560000 87 81 104
-1.085744 0.930002 2.542000 87 82 106
-1.085744 0.934452 2.542000 87 84 105
-1.077629 0.931884 2.523000 88 84 104
-1.069941 0.929621 2.505000 89 84 103
-1.062253 0.927294 2.487000 89 84 102
-1.039615 0.911794 2.434000 89 85 99
-1.025093 0.903258 2.400000 90 85 97
-1.025093 0.907459 2.400000 91 87 98
-1.025093 0.911661 2.400000 91 86 99
-1.025093 0.915862 2.400000 91 86 99
-0.984089 0.883261 2.304000 92 85 100
-0.977682 0.881517 2.289000 93 86 104
-0.971276 0.879721 2.274000 93 86 108
-0.971276 0.883702 2.274000 93 86 104
-0.971276 0.887682 2.274000 93 87 100
-1.148929 0.964533 2.701000 89 81 101
-1.122555 0.947012 2.639000 94 82 103
-1.114048 0.944420 2.619000 99 81 102
-1.114048 0.949004 2.619000 93 80 101
-1.097458 0.939389 2.580000 87 81 103
-1.088951 0.936588 2.560000 87 83 105
-1.081294 0.934452 2.542000 88 84 104
-1.081294 0.938902 2.542000 89 85 104
-1.065556 0.929621 2.505000 91 85 103
-1.035354 0.907533 2.434000 90 84 103
-1.020892 0.899057 2.400000 90 85 102
-1.020892 0.903258 2.400000 91 86 102
-1.020892 0.907459 2.400000 93 87 101
-1.014086 0.905583 2.384000 93 88 101
-1.006854 0.903269 2.367000 93 87 102
-0.980056 0.883261 2.304000 93 87 104
-0.973675 0.881517 2.289000 94 87 106
-0.967295 0.879721 2.274000 94 87 109
-0.967295 0.883702 2.274000 94 87 106
-0.967295 0.887682 2.274000 94 89 103
-1.144200 0.964533 2.701000 89 83 101
-1.117936 0.947012 2.639000 92 83 101
-1.117936 0.951632 2.639000 96 82 101
-1.100991 0.941757 2.599000 92 82 101
-1.092942 0.939389 2.580000 88 82 103
-1.084470 0.936588 2.560000 89 84 105
-1.084470 0.941069 2.560000 90 85 104
-1.076845 0.938902 2.542000 91 86 104
-1.068796 0.936301 2.523000 92 88 104
-1.053546 0.927294 2.487000 92 86 105
-1.009913 0.893063 2.384000 92 86 106
-1.009913 0.897236 2.384000 92 87 107
-1.016690 0.907459 2.400000 93 88 105
-1.009913 0.905583 2.384000 93 88 103
-1.009913 0.909756 2.384000 93 87 105
-0.976023 0.883261 2.304000 94 87 108
-0.969669 0.881517 2.289000 94 88 109
-0.963314 0.879721 2.274000 95 88 111
-0.963314 0.883702 2.274000 96 89 108
-0.963314 0.887682 2.274000 95 89 106
-1.130613 0.957034 2.680000 89 85 100
-1.113317 0.947012 2.639000 91 86 101
-1.104879 0.944420 2.619000 93 85 102
-1.088426 0.934872 2.580000 91 84 102
-1.079989 0.932106 2.560000 90 85 104
-1.079989 0.936588 2.560000 91 87 106
-1.072395 0.934452 2.542000 92 87 105
-1.064379 0.931884 2.523000 92 88 105
-1.064379 0.936301 2.523000 93 89 105
-1.049192 0.927294 2.487000 93 89 105
-1.005739 0.893063 2.384000 94 88 106
-1.005739 0.897236 2.384000 94 88 107
-1.005739 0.901410 2.384000 94 88 107
-1.005739 0.905583 2.384000 94 89 108
-0.985068 0.891057 2.335000 94 88 107
-0.971990 0.883261 2.304000 94 89 107
-0.965662 0.881517 2.289000 95 89 109
-0.959334 0.879721 2.274000 96 89 112
-0.959334 0.883702 2.274000 98 90 110
-0.953006 0.881827 2.259000 97 90 109
-1.200283 0.985232 2.857000 87 83 101
-1.190620 0.982262 2.834000 87 84 100
-1.190620 0.987223 2.834000 88 84 100
-1.180537 0.983781 2.810000 88 84 100
-1.171295 0.980959 2.788000 89 84 101
-1.134744 0.959805 2.701000 90 87 98
-1.125922 0.957034 2.680000 91 88 100
-1.108697 0.947012 2.639000 92 87 102
-1.100294 0.944420 2.619000 94 88 103
-1.091892 0.941757 2.599000 93 87 104
-1.083910 0.939389 2.580000 92 89 106
-1.075507 0.936588 2.560000 93 90 108
-1.067945 0.934452 2.542000 93 91 107
-1.059963 0.931884 2.523000 94 91 106
-1.052401 0.929621 2.505000 95 92 105
-1.044839 0.927294 2.487000 95 90 105
-1.008288 0.907459 2.400000 95 90 110
-1.001566 0.905583 2.384000 95 89 113
-0.980980 0.891057 2.335000 96 90 110
-0.974679 0.889394 2.320000 96 90 107
-0.967957 0.887294 2.304000 97 91 110
-0.961655 0.885524 2.289000 98 91 113
-0.955353 0.883702 2.274000 100 92 112
-0.955353 0.887682 2.274000 99 92 112
-1.205323 0.988465 2.881000 87 83 103
-1.195282 0.985232 2.857000 88 82 102
-1.185659 0.982262 2.834000 89 83 101
-1.175618 0.978862 2.810000 89 85 101
-1.175618 0.983781 2.810000 89 85 103
-1.156792 0.972867 2.765000 90 85 106
-1.147588 0.969928 2.743000 91 86 103
-1.130016 0.959805 2.701000 92 89 100
-1.121230 0.957034 2.680000 93 89 102
-1.104077 0.947012 2.639000 94 89 103
-1.095710 0.944420 2.619000 96 89 103
-1.087343 0.941757 2.599000 95 90 103
-1.079394 0.939389 2.580000 95 91 106
-1.071026 0.936588 2.560000 95 93 108
-1.063495 0.934452 2.542000 95 94 107
-1.048016 0.925236 2.505000 96 96 106
-1.048016 0.929621 2.505000 97 93 106
-1.040485 0.927294 2.487000 98 91 106
-0.990281 0.899125 2.367000 97 89 112
-0.976893 0.891057 2.335000 98 91 111
-0.970617 0.889394 2.320000 98 93 110
-0.963923 0.887294 2.304000 99 93 111
-0.957648 0.885524 2.289000 100 92 113
-0.951372 0.883702 2.274000 102 93 113
-0.945097 0.881827 2.259000 101 93 113
-1.210278 0.996700 2.905000 88 84 104
-1.200279 0.993509 2.881000 89 84 103
-1.180698 0.982262 2.834000 90 83 103
-1.170699 0.978862 2.810000 90 85 103
-1.170699 0.983781 2.810000 91 86 107
-1.151952 0.972867 2.765000 91 85 111
-1.142786 0.969928 2.743000 92 85 107
-1.125288 0.959805 2.701000 94 88 103
-1.116539 0.957034 2.680000 95 90 104
-1.107790 0.954189 2.659000 96 90 105
-1.091125 0.944420 2.619000 98 92 104
-1.082793 0.941757 2.599000 97 92 103
-1.074877 0.939389 2.580000 97 93 106
-1.066545 0.936588 2.560000 98 95 109
-1.059046 0.934452 2.542000 98 97 108
-1.051130 0.931884 2.523000 98 96 107
-1.043631 0.929621 2.505000 98 94 107
-0.979471 0.893048 2.351000 99 91 111
-0.966556 0.885333 2.320000 100 92 112
-0.966556 0.889394 2.320000 100 94 113
-0.959890 0.887294 2.304000 101 96 113
-0.953641 0.885524 2.289000 101 95 114
-0.947392 0.883702 2.274000 101 95 114
-0.947392 0.887682 2.274000 102 95 115
-1.236308 1.011999 2.980000 95 88 106
-1.225937 1.008682 2.955000 92 88 108
-1.205193 0.996700 2.905000 89 86 105
-1.195236 0.993509 2.881000 90 87 103
-1.165781 0.973943 2.810000 92 86 103
-1.165781 0.978862 2.810000 92 87 104
-1.156653 0.976079 2.788000 93 87 108
-1.137984 0.965126 2.743000 93 86 112
-1.129272 0.962502 2.722000 94 86 109
-1.120560 0.959805 2.701000 96 89 105
-1.111848 0.957034 2.680000 98 89 107
-1.103135 0.954189 2.659000 99 92 108
-1.094838 0.951632 2.639000 100 93 108
-1.086541 0.949004 2.619000 100 95 107
-1.078243 0.946306 2.599000 100 95 110
-1.062064 0.936588 2.560000 101 97 113
-1.062064 0.941069 2.560000 102 98 110
-0.968718 0.886970 2.335000 101 94 112
-0.968718 0.891057 2.335000 102 95 113
-0.962495 0.889394 2.320000 102 97 114
-0.955857 0.887294 2.304000 103 98 115
-0.949634 0.885524 2.289000 102 98 117
-0.943411 0.883702 2.274000 101 97 117
-0.943411 0.887682 2.274000 103 97 118
-1.241833 1.010305 3.006000 94 90 108
-1.241833 1.015567 3.006000 94 89 107
-1.231092 1.011999 2.980000 95 90 109
-1.220764 1.008682 2.955000 93 89 111
-1.210436 1.005277 2.930000 91 88 107
-1.190193 0.993509 2.881000 93 88 103
-1.160862 0.973943 2.810000 95 90 104
-1.151773 0.971199 2.788000 95 90 106
-1.151773 0.976079 2.788000 96 90 110
-1.133183 0.965126 2.743000 96 88 114
-1.124507 0.962502 2.722000 96 87 111
-1.107157 0.952342 2.680000 98 88 108
-1.107157 0.957034 2.680000 101 88 110
-1.098481 0.954189 2.659000 102 93 112
-1.090219 0.951632 2.639000 103 96 112
-1.081956 0.949004 2.619000 104 97 112
-1.073694 0.946306 2.599000 105 97 114
-1.057582 0.936588 2.560000 105 99 117
-0.971241 0.893048 2.351000 103 97 114
-0.964631 0.891057 2.335000 104 98 114
-0.958434 0.889394 2.320000 104 99 115
-0.951824 0.887294 2.304000 105 101 118
-0.945627 0.885524 2.289000 105 100 121
-0.945627 0.889531 2.289000 105 99 121
-0.939431 0.887682 2.274000 107 100 121
-1.236571 1.010305 3.006000 95 91 112
-1.225875 1.006783 2.980000 95 91 110
-1.225875 1.011999 2.980000 96 91 111
-1.215591 1.008682 2.955000 95 91 112
-1.205307 1.005277 2.930000 94 90 109
-1.195023 1.001785 2.905000 96 89 105
-1.185150 0.998552 2.881000 98 91 105
-1.155943 0.978862 2.810000 98 94 105
-1.137431 0.968027 2.765000 99 93 110
-1.119743 0.957737 2.722000 99 92 116
-1.111104 0.955077 2.701000 99 90 112
-1.102465 0.952342 2.680000 101 89 108
-1.093826 0.949534 2.659000 104 94 110
-1.093826 0.954189 2.659000 105 97 111
-1.085599 0.951632 2.639000 107 100 113
-1.077372 0.949004 2.619000 108 102 115
-1.069144 0.946306 2.599000 110 102 117
-1.053101 0.936588 2.560000 109 103 119
-0.967125 0.893048 2.351000 105 98 118
-0.960543 0.891057 2.335000 106 99 119
-0.954373 0.889394 2.320000 107 103 120
-0.947791 0.887294 2.304000 108 102 120
-0.941620 0.885524 2.289000 109 102 121
-0.935450 0.883702 2.274000 110 102 122
-0.935450 0.887682 2.274000 111 103 124
-1.231309 1.005043 3.006000 96 92 118
-1.220659 1.001566 2.980000 97 92 115
-1.220659 1.006783 2.980000 98 93 113
-1.220659 1.011999 2.980000 99 94 113
-1.210418 1.008682 2.955000 98 93 114
-1.200178 1.005277 2.930000 97 93 111
-1.189937 1.001785 2.905000 99 93 108
-1.180107 0.998552 2.881000 100 94 106
-1.160855 0.987223 2.834000 101 96 104
-1.142012 0.976079 2.788000 102 98 111
-1.123580 0.965126 2.743000 101 95 118
-1.114978 0.962502 2.722000 101 94 113
-1.097774 0.952342 2.680000 104 97 109
-1.097774 0.957034 2.680000 107 102 110
-1.089172 0.954189 2.659000 109 104 111
-1.080979 0.951632 2.639000 110 108 114
-1.072787 0.949004 2.619000 112 107 118
-0.963010 0.893048 2.351000 110 97 123
-0.956456 0.891057 2.335000 112 99 124
-0.950312 0.889394 2.320000 112 103 125
-0.943758 0.887294 2.304000 113 104 123
-0.937613 0.885524 2.289000 114 104 121
-0.931469 0.883702 2.274000 115 106 124
-0.925325 0.881827 2.259000 116 105 127
-1.226047 1.005043 3.006000 99 95 116
-1.226047 1.010305 3.006000 100 95 115
-1.215442 1.006783 2.980000 101 95 114
-1.215442 1.011999 2.980000 102 96 115
-1.205246 1.008682 2.955000 101 97 117
-1.195049 1.005277 2.930000 101 95 114
-1.184852 1.001785 2.905000 102 96 112
-1.184852 1.006870 2.905000 103 97 109
-1.165275 0.995235 2.857000 104 100 107
-1.137132 0.976079 2.788000 105 100 113
-1.127751 0.972867 2.765000 104 99 119
-1.118778 0.969928 2.743000 104 100 117
-1.101647 0.959805 2.701000 107 104 115
-1.093082 0.957034 2.680000 111 105 116
-1.084517 0.954189 2.659000 112 109 118
-1.076360 0.951632 2.639000 114 110 119
-0.965420 0.899125 2.367000 116 94 123
-0.958894 0.897163 2.351000 118 104 125
-0.946250 0.889394 2.320000 118 108 127
-0.939725 0.887294 2.304000 118 107 125
-0.933607 0.885524 2.289000 119 105 124
-0.927489 0.883702 2.274000 120 110 127
-0.921370 0.881827 2.259000 122 108 131
-1.220785 1.005043 3.006000 102 97 114
-1.220785 1.010305 3.006000 102 98 114
-1.220785 1.015567 3.006000 103 98 115
-1.210226 1.011999 2.980000 103 100 117
-1.210226 1.017216 2.980000 103 98 120
-1.200073 1.013855 2.955000 103 96 118
-1.200073 1.019027 2.955000 105 97 116
-1.179767 1.006870 2.905000 107 98 113
-1.150933 0.987223 2.834000 107 102 110
-1.132252 0.976079 2.788000 108 104 115
-1.122911 0.972867 2.765000 109 103 120
-1.113976 0.969928 2.743000 111 103 120
-1.096920 0.959805 2.701000 113 106 121
-1.079863 0.949534 2.659000 116 108 123
-1.079863 0.954189 2.659000 117 110 126
-1.071740 0.951632 2.639000 119 111 124
-0.968181 0.901410 2.384000 119 113 125
-0.961277 0.899125 2.367000 120 109 124
-0.954779 0.897163 2.351000 122 116 126
-0.948281 0.895145 2.335000 122 113 129
-0.935691 0.887294 2.304000 123 111 128
-0.929600 0.885524 2.289000 124 114 128
-0.923508 0.883702 2.274000 126 121 131
-0.911325 0.875971 2.244000 127 114 135
-1.215523 1.005043 3.006000 106 101 117
-1.215523 1.010305 3.006000 105 100 117
-1.215523 1.015567 3.006000 105 100 117
-1.215523 1.020829 3.006000 105 101 119
-1.205009 1.017216 2.980000 105 100 121
-1.194900 1.013855 2.955000 106 99 120
-1.194900 1.019027 2.955000 108 99 119
-1.174682 1.006870 2.905000 111 101 117
-1.155272 0.995235 2.857000 111 106 116
-1.127371 0.976079 2.788000 112 105 120
-1.118071 0.972867 2.765000 115 107 124
-1.118071 0.977707 2.765000 118 107 125
-1.075208 0.944880 2.659000 119 112 126
-1.075208 0.949534 2.659000 121 112 128
-1.075208 0.954189 2.659000 122 115 131
-1.067121 0.951632 2.639000 124 115 129
-0.984226 0.911794 2.434000 123 114 132
-0.977352 0.909656 2.417000 123 116 133
-0.970477 0.907459 2.400000 124 115 131
-0.970477 0.911661 2.400000 125 116 129
-0.964007 0.909756 2.384000 127 119 131
-0.950663 0.901278 2.351000 127 120 133
-0.925593 0.881517 2.289000 128 119 132
-0.919527 0.879721 2.274000 130 119 132
-0.919527 0.883702 2.274000 132 121 135
-0.913462 0.881827 2.259000 133 116 139
-1.210261 1.010305 3.006000 108 102 119
-1.210261 1.015567 3.006000 108 102 119
-1.199793 1.011999 2.980000 108 104 121
-1.199793 1.017216 2.980000 108 104 123
-1.179662 1.005277 2.930000 109 104 122
-1.169597 1.001785 2.905000 111 102 122
-1.159934 0.998552 2.881000 112 102 122
-1.131348 0.978862 2.810000 115 104 123
-1.122491 0.976079 2.788000 118 106 126
-1.113230 0.972867 2.765000 120 107 129
-1.113230 0.977707 2.765000 123 109 130
-1.070553 0.944880 2.659000 124 113 131
-1.070553 0.949534 2.659000 126 116 133
-1.062501 0.947012 2.639000 128 117 136
-1.062501 0.951632 2.639000 129 119 134
-1.054449 0.949004 2.619000 130 122 133
-0.979965 0.907533 2.434000 127 118 135
-0.979965 0.911794 2.434000 125 117 137
-0.973121 0.909656 2.417000 127 116 140
-0.966276 0.907459 2.400000 130 116 137
-0.959834 0.905583 2.384000 130 120 135
-0.959834 0.909756 2.384000 130 125 136
-0.946548 0.901278 2.351000 132 125 138
-0.927625 0.887294 2.304000 133 126 137
-0.915547 0.879721 2.274000 135 126 136
-0.915547 0.883702 2.274000 137 131 140
-0.903468 0.875971 2.244000 137 126 144
-1.204999 1.010305 3.006000 112 103 121
-1.204999 1.015567 3.006000 111 104 121
-1.204999 1.020829 3.006000 111 105 123
-1.194576 1.017216 2.980000 112 108 125
-1.184555 1.013855 2.955000 113 107 124
-1.164512 1.001785 2.905000 113 106 124
-1.154891 0.998552 2.881000 114 105 124
-1.126429 0.978862 2.810000 119 105 125
-1.126429 0.983781 2.810000 124 112 128
-1.117610 0.980959 2.788000 126 109 131
-1.108390 0.977707 2.765000 128 114 131
-1.065899 0.944880 2.659000 130 117 132
-1.065899 0.949534 2.659000 132 120 135
-1.057882 0.947012 2.639000 133 120 138
-1.049864 0.944420 2.619000 135 125 138
-1.049864 0.949004 2.619000 135 128 138
-1.049864 0.953589 2.619000 136 127 138
-0.982519 0.913871 2.451000 131 121 136
-0.982519 0.918162 2.451000 128 121 139
-0.968890 0.909656 2.417000 132 117 142
-0.962075 0.907459 2.400000 136 121 141
-0.962075 0.911661 2.400000 135 123 141
-0.955661 0.909756 2.384000 134 128 142
-0.948846 0.907412 2.367000 136 132 143
-0.923592 0.887294 2.304000 139 130 143
-0.911566 0.879721 2.274000 140 128 143
-0.905553 0.877872 2.259000 142 132 146
-0.899540 0.875971 2.244000 141 133 149
-1.210513 1.019379 3.033000 116 103 124
-1.199737 1.015567 3.006000 115 103 123
-1.199737 1.020829 3.006000 115 106 125
-1.189360 1.017216 2.980000 116 110 127
-1.179382 1.013855 2.955000 118 111 126
-1.159426 1.001785 2.905000 119 110 126
-1.140269 0.990233 2.857000 120 108 126
-1.121510 0.978862 2.810000 125 116 127
-1.112730 0.976079 2.788000 130 128 130
-1.103550 0.972867 2.765000 131 121 133
-1.103550 0.977707 2.765000 133 123 133
-1.078007 0.959805 2.701000 135 124 134
-1.053262 0.942392 2.639000 138 130 137
-1.053262 0.947012 2.639000 139 130 140
-1.045280 0.944420 2.619000 141 135 142
-1.045280 0.949004 2.619000 141 134 144
-1.045280 0.953589 2.619000 141 137 141
-0.978229 0.913871 2.451000 141 132 138
-0.978229 0.918162 2.451000 141 131 141
-0.964659 0.909656 2.417000 142 127 144
-0.964659 0.913887 2.417000 144 128 145
-0.957874 0.911661 2.400000 145 129 147
-0.957874 0.915862 2.400000 146 135 148
-0.951488 0.913929 2.384000 146 135 149
-0.938317 0.905394 2.351000 145 135 149
-0.913572 0.885524 2.289000 144 134 150
-0.901599 0.877872 2.259000 143 136 152
-0.895612 0.875971 2.244000 150 137 155
-1.208383 1.022068 3.041000 120 109 126
-1.204806 1.024351 3.032000 119 102 124
-1.194475 1.020829 3.006000 119 109 127
-1.184143 1.017216 2.980000 121 115 130
-1.194475 1.031353 3.006000 123 115 130
-1.126128 0.977301 2.834000 125 116 129
-1.126128 0.982262 2.834000 127 119 129
-1.107850 0.971199 2.788000 132 126 128
-1.107850 0.976079 2.788000 137 130 133
-1.098710 0.972867 2.765000 137 127 138
-1.098710 0.977707 2.765000 138 127 138
-1.073279 0.959805 2.701000 141 128 139
-1.056590 0.949534 2.659000 144 133 140
-1.056590 0.954189 2.659000 146 137 142
-1.048642 0.951632 2.639000 148 138 144
-1.040695 0.949004 2.619000 147 138 146
-1.040695 0.953589 2.619000 146 137 146
-1.032748 0.950856 2.599000 144 137 145
-0.988243 0.914234 2.487000 142 131 144
-0.988243 0.918587 2.487000 145 132 144
-0.981091 0.920583 2.469000 151 138 145
-0.973938 0.918162 2.451000 154 136 145
-0.967183 0.916054 2.434000 153 132 146
-0.960428 0.913887 2.417000 153 135 147
-0.960428 0.918118 2.417000 156 130 149
-0.953673 0.915862 2.400000 159 139 149
-0.953673 0.920063 2.400000 155 141 149
-0.947315 0.918102 2.384000 152 140 152
-0.909565 0.885524 2.289000 148 139 154
-0.897644 0.877872 2.259000 144 138 156
-0.891684 0.875971 2.244000 159 139 158
-1.206620 1.025093 3.050000 123 121 128
-1.210180 1.033473 3.059000 123 114 126
-1.199894 1.029998 3.033000 123 115 130
-1.178927 1.017216 2.980000 125 118 134
-1.159146 1.005277 2.930000 127 121 133
-1.130267 0.985232 2.857000 130 122 133
-1.121167 0.982262 2.834000 132 129 131
-1.102969 0.971199 2.788000 137 133 130
-1.102969 0.976079 2.788000 141 140 137
-1.093870 0.972867 2.765000 142 135 144
-1.085167 0.969928 2.743000 143 133 144
-1.068551 0.959805 2.701000 146 135 144
-1.051935 0.949534 2.659000 148 140 144
-1.051935 0.954189 2.659000 150 141 144
-1.044023 0.951632 2.639000 151 144 146
-1.036111 0.949004 2.619000 150 142 149
-1.036111 0.953589 2.619000 149 137 150
-1.028198 0.950856 2.599000 148 135 152
-0.991011 0.920851 2.505000 147 132 150
-0.983890 0.918587 2.487000 151 140 148
-0.976769 0.916261 2.469000 154 152 150
-0.976769 0.920583 2.469000 155 147 153
-0.969648 0.918162 2.451000 156 146 150
-0.962922 0.916054 2.434000 157 145 148
-0.956197 0.913887 2.417000 158 152 149
-0.949471 0.911661 2.400000 160 147 151
-0.943142 0.909756 2.384000 163 153 150
-0.936416 0.907412 2.367000 160 149 150
-0.930086 0.905394 2.351000 158 148 154
-0.923756 0.903319 2.335000 158 143 159
-0.899624 0.883702 2.274000 158 140 160
-0.893690 0.881827 2.259000 165 145 161
-1.204826 1.028118 3.059000 127 122 131
-1.204826 1.033473 3.059000 127 120 127
-1.183951 1.020829 3.006000 128 120 130
-1.163864 1.008682 2.955000 130 124 134
-1.134718 0.988465 2.881000 132 124 135
-1.125265 0.985232 2.857000 135 125 137
-1.106754 0.973943 2.810000 138 131 136
-1.098089 0.971199 2.788000 142 137 135
-1.098089 0.976079 2.788000 146 140 140
-1.089030 0.972867 2.765000 147 142 145
-1.072094 0.962502 2.722000 149 139 146
-1.063823 0.959805 2.701000 151 140 147
-1.047280 0.949534 2.659000 153 141 148
-1.047280 0.954189 2.659000 154 143 148
-1.039403 0.951632 2.639000 155 146 150
-1.031526 0.949004 2.619000 154 149 153
-1.031526 0.953589 2.619000 153 140 152
-1.001199 0.930002 2.542000 153 134 151
-0.986626 0.920851 2.505000 153 139 151
-0.979536 0.918587 2.487000 156 146 152
-0.972447 0.916261 2.469000 160 151 154
-0.972447 0.920583 2.469000 159 152 157
-0.965357 0.918162 2.451000 159 150 154
-0.958661 0.916054 2.434000 161 152 152
-0.951966 0.913887 2.417000 163 155 154
-0.945270 0.911661 2.400000 165 154 155
-0.938968 0.909756 2.384000 167 155 155
-0.932273 0.907412 2.367000 166 154 155
-0.925971 0.905394 2.351000 165 151 158
-0.919669 0.903319 2.335000 168 148 162
-0.919669 0.907407 2.335000 172 148 164
-0.895643 0.887682 2.274000 171 147 165
-1.199471 1.033473 3.059000 131 123 129
-1.168494 1.011999 2.980000 131 124 131
-1.139086 0.991615 2.905000 133 126 134
-1.120264 0.980231 2.857000 136 127 137
-1.111246 0.977301 2.834000 139 129 141
-1.101835 0.973943 2.810000 143 135 140
-1.101835 0.978862 2.810000 146 138 140
-1.093208 0.976079 2.788000 150 142 143
-1.075563 0.965126 2.743000 150 143 146
-1.067329 0.962502 2.722000 151 143 148
-1.059095 0.959805 2.701000 153 142 151
-1.050860 0.957034 2.680000 154 143 152
-1.042626 0.954189 2.659000 155 145 153
-1.034784 0.951632 2.639000 156 148 155
-1.019099 0.941757 2.599000 156 146 157
-0.996749 0.925553 2.542000 155 143 154
-0.996749 0.930002 2.542000 155 142 151
-0.982241 0.920851 2.505000 156 147 153
-0.975183 0.918587 2.487000 159 150 156
-0.968125 0.916261 2.469000 163 155 158
-0.968125 0.920583 2.469000 162 153 161
-0.961067 0.918162 2.451000 162 152 159
-0.947735 0.909656 2.417000 165 155 157
-0.941069 0.907459 2.400000 167 163 158
-0.934795 0.905583 2.384000 168 160 160
-0.928129 0.903269 2.367000 170 161 160
-0.921856 0.901278 2.351000 170 157 160
-0.921856 0.905394 2.351000 170 155 163
-0.915582 0.903319 2.335000 173 155 166
-0.903426 0.895360 2.304000 176 159 168
-0.891663 0.887682 2.274000 178 165 170
-1.143759 1.000148 2.930000 137 131 137
-1.115263 0.980231 2.857000 140 129 140
-1.106285 0.977301 2.834000 144 130 143
-1.096916 0.973943 2.810000 148 136 143
-1.096916 0.978862 2.810000 151 140 143
-1.088328 0.976079 2.788000 154 143 146
-1.070762 0.965126 2.743000 154 148 149
-1.062564 0.962502 2.722000 154 145 150
-1.046169 0.952342 2.680000 155 143 152
-1.037971 0.949534 2.659000 156 143 153
-1.030164 0.947012 2.639000 157 146 153
-1.030164 0.951632 2.639000 158 146 152
-1.007133 0.934872 2.580000 158 145 151
-0.992299 0.925553 2.542000 158 144 152
-0.984882 0.923051 2.523000 158 147 153
-0.977856 0.920851 2.505000 159 149 156
-0.970829 0.918587 2.487000 162 152 159
-0.970829 0.922941 2.487000 166 154 162
-0.963803 0.920583 2.469000 166 155 165
-0.956776 0.918162 2.451000 166 154 164
-0.950140 0.916054 2.434000 169 156 163
-0.943504 0.913887 2.417000 172 162 163
-0.930622 0.905583 2.384000 172 164 164
-0.923986 0.903269 2.367000 173 162 163
-0.917740 0.901278 2.351000 174 161 162
-0.917740 0.905394 2.351000 176 159 166
-0.911494 0.903319 2.335000 178 158 170
-0.905639 0.901578 2.320000 180 165 172
-0.893537 0.893538 2.289000 186 176 173
-1.128915 0.991615 2.905000 140 131 141
-1.110262 0.980231 2.857000 141 130 143
-1.110262 0.985232 2.857000 146 133 145
-1.091997 0.973943 2.810000 150 139 145
-1.091997 0.978862 2.810000 153 142 146
-1.083448 0.976079 2.788000 157 145 149
-1.074510 0.972867 2.765000 158 147 152
-1.049639 0.955077 2.701000 159 148 153
-1.041478 0.952342 2.680000 158 143 154
-1.025545 0.942392 2.639000 157 142 154
-1.025545 0.947012 2.639000 158 144 154
-0.994844 0.923144 2.560000 160 146 150
-0.994844 0.927625 2.560000 159 145 146
-0.980466 0.918635 2.523000 159 143 150
-0.980466 0.923051 2.523000 160 146 155
-0.973471 0.920851 2.505000 161 150 159
-0.966476 0.918587 2.487000 165 153 163
-0.959481 0.916261 2.469000 168 156 166
-0.959481 0.920583 2.469000 168 156 169
-0.945879 0.911794 2.434000 168 155 169
-0.939273 0.909656 2.417000 171 159 169
-0.932667 0.907459 2.400000 174 166 168
-0.926449 0.905583 2.384000 174 165 168
-0.913625 0.897163 2.351000 175 162 166
-0.913625 0.901278 2.351000 177 161 165
-0.907407 0.899232 2.335000 179 163 170
-0.907407 0.903319 2.335000 181 163 175
-1.123830 0.991615 2.905000 142 134 144
-1.114545 0.988465 2.881000 143 132 146
-1.105261 0.985232 2.857000 148 134 149
-1.087078 0.973943 2.810000 153 140 149
-1.087078 0.978862 2.810000 156 144 149
-1.078567 0.976079 2.788000 160 145 151
-1.069669 0.972867 2.765000 162 147 153
-1.053035 0.962502 2.722000 164 145 154
-1.028662 0.944880 2.659000 161 142 155
-1.028662 0.949534 2.659000 159 142 155
-1.020925 0.947012 2.639000 160 145 154
-0.990363 0.923144 2.560000 162 147 152
-0.990363 0.927625 2.560000 161 146 150
-0.983400 0.925553 2.542000 161 146 153
-0.976049 0.923051 2.523000 162 147 157
-0.969086 0.920851 2.505000 164 151 159
-0.969086 0.925236 2.505000 167 154 161
-0.962122 0.922941 2.487000 171 158 164
-0.955159 0.920583 2.469000 171 158 167
-0.941619 0.911794 2.434000 171 157 168
-0.935042 0.909656 2.417000 173 159 169
-0.928465 0.907459 2.400000 176 165 169
-0.909509 0.893048 2.351000 176 169 168
-0.909509 0.897163 2.351000 177 163 168
-0.903319 0.895145 2.335000 179 161 168
-0.903319 0.899232 2.335000 182 165 170
-0.903319 0.903319 2.335000 184 166 173
-1.128372 1.000148 2.930000 145 135 147
-1.109502 0.988465 2.881000 145 132 150
-1.100259 0.985232 2.857000 150 136 153
-1.091402 0.982262 2.834000 155 146 152
-1.091402 0.987223 2.834000 157 146 152
-1.082159 0.983781 2.810000 160 147 153
-1.064829 0.972867 2.765000 162 147 154
-1.048270 0.962502 2.722000 163 145 155
-1.024008 0.944880 2.659000 162 143 157
-1.024008 0.949534 2.659000 160 141 156
-1.016305 0.947012 2.639000 164 146 155
-0.985882 0.923144 2.560000 168 151 154
-0.985882 0.927625 2.560000 163 150 154
-0.971633 0.918635 2.523000 159 148 156
-0.964701 0.916466 2.505000 162 150 159
-0.957769 0.914234 2.487000 166 155 159
-0.957769 0.918587 2.487000 170 158 159
-0.950837 0.916261 2.469000 174 164 162
-0.943905 0.913871 2.451000 174 160 165
-0.937358 0.911794 2.434000 173 159 167
-0.927345 0.906269 2.408000 175 162 170
-0.921183 0.904435 2.392000 178 168 169
-0.905394 0.893048 2.351000 178 166 169
-0.905394 0.897163 2.351000 179 163 170
-0.899232 0.895145 2.335000 181 165 171
-0.899232 0.899232 2.335000 184 170 171
-0.899232 0.903319 2.335000 186 173 172
-1.123243 1.000148 2.930000 147 138 147
-1.113660 0.996700 2.905000 148 134 150
-1.095258 0.985232 2.857000 152 133 154
-1.086441 0.982262 2.834000 157 144 153
-1.086441 0.987223 2.834000 159 150 153
-1.077240 0.983781 2.810000 161 149 154
-1.068806 0.980959 2.788000 162 149 155
-1.043505 0.962502 2.722000 163 147 156
-1.019353 0.944880 2.659000 162 145 158
-1.019353 0.949534 2.659000 162 145 158
-1.011686 0.947012 2.639000 168 148 158
-1.004019 0.944420 2.619000 174 151 159
-0.981401 0.927625 2.560000 166 156 161
-0.960316 0.912081 2.505000 158 150 160
-0.960316 0.916466 2.505000 163 151 160
-0.953415 0.914234 2.487000 168 154 160
-0.953415 0.918587 2.487000 173 161 160
-0.946515 0.916261 2.469000 178 163 163
-0.939614 0.913871 2.451000 177 162 166
-0.926580 0.905425 2.417000 176 161 167
-0.920063 0.903258 2.400000 178 163 169
-0.913929 0.901410 2.384000 180 166 170
-0.907412 0.899125 2.367000 180 167 171
-0.901278 0.897163 2.351000 181 166 172
-0.895145 0.895145 2.335000 184 166 173
-0.895145 0.899232 2.335000 187 173 174
-0.895145 0.903319 2.335000 189 178 174
-1.118114 1.000148 2.930000 149 138 148
-1.108574 0.996700 2.905000 149 135 151
-1.090257 0.985232 2.857000 153 139 155
-1.090257 0.990233 2.857000 158 147 155
-1.090257 0.995235 2.857000 159 149 155
-1.081480 0.992184 2.834000 161 150 156
-1.046753 0.965126 2.743000 162 150 157
-1.022712 0.947651 2.680000 164 150 158
-1.014698 0.944880 2.659000 164 148 159
-1.014698 0.949534 2.659000 164 148 160
-1.007066 0.947012 2.639000 167 149 161
-0.999434 0.944420 2.619000 170 152 164
-0.976919 0.927625 2.560000 165 149 168
-0.962800 0.918635 2.523000 161 145 164
-0.955931 0.916466 2.505000 165 149 161
-0.955931 0.920851 2.505000 170 152 161
-0.949062 0.918587 2.487000 175 161 161
-0.942193 0.916261 2.469000 180 167 164
-0.928836 0.907533 2.434000 179 163 167
-0.922349 0.905425 2.417000 178 162 167
-0.915862 0.903258 2.400000 179 163 168
-0.909756 0.901410 2.384000 181 166 170
-0.903269 0.899125 2.367000 183 168 173
-0.897163 0.897163 2.351000 184 171 174
-0.891057 0.895145 2.335000 186 172 176
-0.885333 0.893455 2.320000 188 179 176
-0.885333 0.897517 2.320000 189 176 177
-0.867779 0.883702 2.274000 190 175 179
-0.862055 0.881827 2.259000 190 173 182
-1.112985 1.000148 2.930000 151 140 145
-1.094373 0.988465 2.881000 151 139 147
-1.085256 0.985232 2.857000 155 142 150
-1.085256 0.990233 2.857000 159 146 152
-1.076519 0.987223 2.834000 160 149 155
-1.067402 0.983781 2.810000 161 148 157
-1.033975 0.957737 2.722000 163 151 158
-1.018021 0.947651 2.680000 165 152 158
-1.010044 0.944880 2.659000 165 152 159
-1.010044 0.949534 2.659000 166 151 159
-1.002447 0.947012 2.639000 166 151 160
-0.994850 0.944420 2.619000 167 149 161
-0.972438 0.927625 2.560000 165 146 162
-0.958383 0.918635 2.523000 164 146 161
-0.958383 0.923051 2.523000 168 149 161
-0.944708 0.914234 2.487000 173 156 162
-0.944708 0.918587 2.487000 177 166 163
-0.931033 0.909581 2.451000 182 165 164
-0.924576 0.907533 2.434000 181 164 166
-0.918118 0.905425 2.417000 180 163 168
-0.911660 0.903258 2.400000 181 164 169
-0.905583 0.901410 2.384000 183 166 171
-0.899125 0.899125 2.367000 185 171 174
-0.886970 0.891057 2.335000 188 172 176
-0.881272 0.889394 2.320000 188 175 178
-0.875194 0.887294 2.304000 189 175 180
-0.869496 0.885524 2.289000 189 175 183
-0.863798 0.883702 2.274000 190 173 181
-0.852403 0.875971 2.244000 190 171 180
-1.136593 1.015567 3.006000 151 134 124
-1.126762 1.011999 2.980000 151 138 133
-1.117309 1.008682 2.955000 152 139 142
-1.089329 0.988465 2.881000 152 139 143
-1.089329 0.993509 2.881000 155 143 145
-1.080255 0.990233 2.857000 158 147 150
-1.071558 0.987223 2.834000 159 146 156
-1.062484 0.983781 2.810000 161 144 158
-1.029210 0.957737 2.722000 164 149 160
-1.021270 0.955077 2.701000 167 155 159
-1.013330 0.952342 2.680000 168 154 159
-1.005389 0.949534 2.659000 169 154 159
-1.005389 0.954189 2.659000 167 151 160
-0.997827 0.951632 2.639000 166 149 158
-0.990265 0.949004 2.619000 165 146 157
-0.953967 0.918635 2.523000 163 146 159
-0.953967 0.923051 2.523000 168 152 161
-0.947161 0.920851 2.505000 174 159 163
-0.947161 0.925236 2.505000 179 163 165
-0.933549 0.916261 2.469000 185 166 165
-0.926743 0.913871 2.451000 183 164 166
-0.920315 0.911794 2.434000 182 164 168
-0.907459 0.903258 2.400000 183 164 171
-0.901410 0.901410 2.384000 184 165 173
-0.882882 0.886970 2.335000 186 169 175
-0.882882 0.891057 2.335000 188 173 177
-0.877211 0.889394 2.320000 189 174 180
-0.871161 0.887294 2.304000 190 174 184
-0.871161 0.891327 2.304000 190 174 189
-0.859818 0.883702 2.274000 190 173 183
-0.848475 0.875971 2.244000 188 170 178
-1.131331 1.015567 3.006000 152 132 134
-1.121545 1.011999 2.980000 152 138 140
-1.112137 1.008682 2.955000 153 142 146
-1.093319 0.996700 2.905000 154 141 145
-1.084286 0.993509 2.881000 156 144 145
-1.075253 0.990233 2.857000 158 146 150
-1.066597 0.987223 2.834000 159 146 155
-1.057565 0.983781 2.810000 161 144 158
-1.049285 0.980959 2.788000 165 146 161
-1.040629 0.977707 2.765000 169 155 162
-1.016542 0.959805 2.701000 170 157 164
-1.000735 0.949534 2.659000 172 154 161
-1.000735 0.954189 2.659000 169 151 158
-0.993208 0.951632 2.639000 166 147 154
-0.985680 0.949004 2.619000 164 146 150
-0.949550 0.918635 2.523000 163 147 154
-0.949550 0.923051 2.523000 169 154 158
-0.942776 0.920851 2.505000 175 158 161
-0.942776 0.925236 2.505000 182 164 165
-0.922452 0.909581 2.451000 189 165 166
-0.922452 0.913871 2.451000 186 165 167
-0.916054 0.911794 2.434000 184 164 169
-0.909656 0.909656 2.417000 185 164 172
-0.897236 0.901410 2.384000 186 166 173
-0.873150 0.881272 2.320000 187 170 175
-0.873150 0.885333 2.320000 189 173 177
-0.867128 0.883261 2.304000 190 175 180
-0.861482 0.881517 2.289000 191 174 182
-0.861482 0.885524 2.289000 190 175 184
-0.850192 0.877872 2.259000 190 173 179
-0.844546 0.875971 2.244000 187 172 174
-1.116329 1.006783 2.980000 152 138 144
-1.116329 1.011999 2.980000 152 142 147
-1.106964 1.008682 2.955000 153 142 150
-1.088233 0.996700 2.905000 153 140 148
-1.079243 0.993509 2.881000 156 143 146
-1.070252 0.990233 2.857000 159 148 150
-1.061636 0.987223 2.834000 160 146 155
-1.052646 0.983781 2.810000 162 142 158
-1.044404 0.980959 2.788000 165 148 162
-1.035789 0.977707 2.765000 169 162 166
-1.011814 0.959805 2.701000 170 158 170
-1.003947 0.957034 2.680000 171 157 163
-1.003947 0.961725 2.680000 167 151 156
-0.996080 0.958844 2.659000 164 144 150
-0.981096 0.949004 2.619000 164 143 144
-0.941762 0.915358 2.514000 164 143 149
-0.938391 0.916466 2.505000 169 153 155
-0.938391 0.920851 2.505000 174 158 160
-0.931648 0.918587 2.487000 180 163 165
-0.911793 0.903272 2.434000 185 166 166
-0.911793 0.907533 2.434000 185 165 168
-0.905425 0.905425 2.417000 184 166 170
-0.905425 0.909656 2.417000 185 165 173
-0.893063 0.901410 2.384000 186 166 174
-0.886695 0.899125 2.367000 187 170 175
-0.874707 0.891057 2.335000 189 174 177
-0.869088 0.889394 2.320000 190 174 180
-0.863095 0.887294 2.304000 191 175 180
-0.857476 0.885524 2.289000 191 174 180
-0.851856 0.883702 2.274000 190 172 175
-0.846237 0.881827 2.259000 190 174 171
-1.120807 1.015567 3.006000 153 140 146
-1.111112 1.011999 2.980000 153 142 148
-1.111112 1.017216 2.980000 153 144 150
-1.083148 0.996700 2.905000 153 142 150
-1.074200 0.993509 2.881000 156 142 150
-1.065251 0.990233 2.857000 160 148 152
-1.056675 0.987223 2.834000 162 149 154
-1.047727 0.983781 2.810000 164 145 156
-1.014915 0.957737 2.722000 166 144 159
-1.007086 0.955077 2.701000 169 155 162
-1.007086 0.959805 2.701000 169 159 165
-0.999255 0.957034 2.680000 170 157 159
-0.999255 0.961725 2.680000 166 155 154
-0.991425 0.958844 2.659000 163 143 153
-0.976511 0.949004 2.619000 164 140 152
-0.934006 0.912081 2.505000 166 147 154
-0.944073 0.926344 2.532000 170 157 157
-0.920583 0.907617 2.469000 174 160 161
-0.920583 0.911939 2.469000 178 165 165
-0.907533 0.903272 2.434000 182 166 167
-0.901194 0.901194 2.417000 183 166 169
-0.901194 0.905425 2.417000 185 166 172
-0.901194 0.909656 2.417000 185 167 175
-0.894856 0.907459 2.400000 186 168 174
-0.888890 0.905583 2.384000 188 172 173
-0.876586 0.897163 2.351000 190 173 175
-0.865027 0.889394 2.320000 191 174 178
-0.853469 0.881517 2.289000 192 174 179
-0.847876 0.879721 2.274000 191 175 180
-0.847876 0.883702 2.274000 191 173 176
-0.842283 0.881827 2.259000 192 174 173
-1.125565 1.019379 3.033000 155 145 154
-1.115545 1.015567 3.006000 154 142 148
-1.105896 1.011999 2.980000 153 144 149
-1.105896 1.017216 2.980000 153 143 150
-1.078063 0.996700 2.905000 152 142 152
-1.060250 0.985232 2.857000 157 145 154
-1.051715 0.982262 2.834000 161 155 154
-1.051715 0.987223 2.834000 163 151 154
-1.034644 0.976079 2.788000 165 148 155
-1.026108 0.972867 2.765000 167 150 156
-1.017944 0.969928 2.743000 170 157 158
-1.010151 0.967267 2.722000 172 158 160
-1.002357 0.964533 2.701000 175 159 156
-0.994564 0.961725 2.680000 167 151 153
-0.986771 0.958844 2.659000 159 135 156
-0.971927 0.949004 2.619000 162 139 160
-0.950032 0.932106 2.560000 165 149 160
-0.950032 0.936588 2.560000 170 155 160
-0.943352 0.934452 2.542000 175 160 162
-0.909581 0.905290 2.451000 179 164 165
-0.903272 0.903272 2.434000 183 168 168
-0.903272 0.907533 2.434000 184 167 171
-0.903272 0.911794 2.434000 185 168 174
-0.896963 0.909656 2.417000 186 167 177
-0.890654 0.907459 2.400000 186 169 174
-0.884717 0.905583 2.384000 188 172 172
-0.872470 0.897163 2.351000 190 175 174
-0.860966 0.889394 2.320000 191 174 176
-0.849462 0.881517 2.289000 192 175 178
-0.843895 0.879721 2.274000 192 174 180
-0.843895 0.883702 2.274000 193 173 178
-0.843895 0.887682 2.274000 195 177 176
-1.120255 1.019379 3.033000 157 142 153
-1.110283 1.015567 3.006000 155 139 149
-1.100680 1.011999 2.980000 154 142 152
-1.082212 1.000148 2.930000 153 144 154
-1.072978 0.996700 2.905000 152 141 154
-1.055249 0.985232 2.857000 157 141 154
-1.046754 0.982262 2.834000 163 151 154
-1.037889 0.978862 2.810000 164 154 155
-1.021268 0.968027 2.765000 166 151 157
-1.013142 0.965126 2.743000 169 152 159
-1.013142 0.969928 2.743000 172 157 161
-1.005386 0.967267 2.722000 176 158 164
-0.997629 0.964533 2.701000 180 158 158
-0.997629 0.969261 2.701000 168 157 152
-0.989873 0.966416 2.680000 156 139 153
-0.974729 0.956251 2.639000 160 132 154
-0.945550 0.932106 2.560000 164 145 157
-0.945550 0.936588 2.560000 170 154 161
-0.938902 0.934452 2.542000 176 160 163
-0.905291 0.905290 2.451000 180 166 166
-0.899011 0.903272 2.434000 184 168 169
-0.899011 0.907533 2.434000 185 169 173
-0.899011 0.911794 2.434000 186 168 174
-0.892732 0.909656 2.417000 186 166 175
-0.886453 0.907459 2.400000 187 167 174
-0.880544 0.905583 2.384000 189 174 173
-0.868355 0.897163 2.351000 191 174 175
-0.845455 0.877510 2.289000 192 173 177
-0.845455 0.881517 2.289000 193 175 178
-0.839915 0.879721 2.274000 194 176 180
-0.839915 0.883702 2.274000 195 174 181
-0.834374 0.881827 2.259000 198 175 181
-1.166043 1.043886 3.172000 153 138 149
-1.155383 1.039845 3.143000 157 141 150
-1.145090 1.036034 3.115000 161 145 153
-1.134797 1.032125 3.087000 159 147 156
-1.114946 1.019379 3.033000 157 142 153
-1.105021 1.015567 3.006000 156 140 151
-1.086273 1.003509 2.955000 154 143 155
-1.086273 1.008682 2.955000 152 142 159
-1.067893 0.996700 2.905000 149 139 156
-1.041793 0.977301 2.834000 156 144 154
-1.032970 0.973943 2.810000 163 157 155
-1.024883 0.971199 2.788000 165 154 157
-1.016428 0.968027 2.765000 166 150 159
-1.008341 0.965126 2.743000 168 153 162
-1.008341 0.969928 2.743000 170 162 165
-1.000621 0.967267 2.722000 173 159 169
-0.992901 0.964533 2.701000 175 161 160
-0.992901 0.969261 2.701000 166 152 151
-0.985181 0.966416 2.680000 158 132 149
-0.970110 0.956251 2.639000 161 136 148
-0.941069 0.932106 2.560000 165 148 155
-0.941069 0.936588 2.560000 171 155 163
-0.934452 0.934452 2.542000 177 162 165
-0.901000 0.905290 2.451000 181 166 167
-0.894751 0.903272 2.434000 185 169 171
-0.894751 0.907533 2.434000 185 169 175
-0.894751 0.911794 2.434000 186 169 174
-0.888501 0.909656 2.417000 185 165 174
-0.882252 0.907459 2.400000 185 162 174
-0.876370 0.905583 2.384000 188 171 174
-0.864239 0.897163 2.351000 191 175 176
-0.858358 0.895145 2.335000 192 174 178
-0.846962 0.887294 2.304000 193 176 179
-0.841448 0.885524 2.289000 194 176 181
-0.841448 0.889531 2.289000 195 174 184
-0.835934 0.887682 2.274000 201 183 187
-1.129393 1.026721 3.087000 161 149 152
-1.119149 1.022763 3.059000 159 156 162
-1.099759 1.010305 3.006000 158 144 156
-1.090247 1.006783 2.980000 156 139 151
-1.071954 0.995019 2.930000 155 142 152
-1.062807 0.991615 2.905000 151 143 153
-1.054027 0.988465 2.881000 147 140 154
-1.028051 0.969024 2.810000 155 141 155
-1.020002 0.966318 2.788000 164 151 156
-1.020002 0.971199 2.788000 165 155 157
-1.011588 0.968027 2.765000 167 151 159
-1.003539 0.965126 2.743000 168 151 162
-1.003539 0.969928 2.743000 169 157 163
-1.003539 0.974729 2.743000 170 158 164
-0.995856 0.972032 2.722000 171 159 157
-0.988173 0.969261 2.701000 165 159 150
-0.980490 0.966416 2.680000 160 140 145
-0.965490 0.956251 2.639000 163 133 141
-0.936588 0.932106 2.560000 166 147 149
-0.936588 0.936588 2.560000 172 157 158
-0.930002 0.934452 2.542000 179 163 165
-0.903295 0.911939 2.469000 182 169 172
-0.896710 0.909581 2.451000 186 171 175
