ply
format ascii 1.0
element vertex 1267
property float x
property float y
property float z
property uchar red
property uchar green
property uchar blue
end_header
0.950721 0.658192 1.899000 137 113 102
0.950721 0.661516 1.899000 136 114 107
0.950721 0.664840 1.899000 135 117 105
0.940208 0.660775 1.878000 134 115 104
0.935201 0.660527 1.868000 134 116 105
0.930195 0.660243 1.858000 136 116 106
0.925188 0.659925 1.848000 139 116 104
0.925188 0.663160 1.848000 138 117 102
0.915175 0.659182 1.828000 138 118 100
0.910670 0.659121 1.819000 141 116 99
0.896151 0.651746 1.790000 143 114 96
0.896151 0.654880 1.790000 140 112 93
0.891645 0.654705 1.781000 137 111 99
0.891645 0.657822 1.781000 135 114 106
0.887139 0.657600 1.772000 133 118 106
0.882634 0.657346 1.763000 139 118 107
0.873622 0.653689 1.745000 144 121 108
0.873622 0.656744 1.745000 142 121 109
0.869116 0.656396 1.736000 141 123 108
0.865111 0.656396 1.728000 143 122 108
0.860605 0.655986 1.719000 146 123 106
0.856600 0.655928 1.711000 143 119 105
0.852094 0.655457 1.702000 140 118 110
0.848089 0.655342 1.694000 138 119 115
0.844084 0.655198 1.686000 136 121 115
0.839578 0.654636 1.677000 140 120 115
0.835573 0.654435 1.669000 145 118 114
0.831568 0.654206 1.661000 145 118 114
0.831568 0.657113 1.661000 145 118 111
0.823558 0.653663 1.645000 146 118 109
0.812043 0.647363 1.622000 147 121 111
0.808539 0.647396 1.615000 144 120 114
0.804533 0.647002 1.607000 141 121 114
0.801029 0.646985 1.600000 139 120 115
0.797024 0.646537 1.592000 137 123 112
0.793519 0.646468 1.585000 139 122 110
0.790015 0.646376 1.578000 141 122 111
0.790015 0.649138 1.578000 143 121 113
0.786510 0.649009 1.571000 146 123 113
0.782505 0.648440 1.563000 143 123 114
0.779001 0.648259 1.556000 140 123 117
0.775496 0.648054 1.549000 140 122 121
1.411726 -1.008376 2.810000 103 63 11
1.411726 -1.003457 2.810000 106 59 10
1.400673 -0.990720 2.788000 105 57 10
1.400673 -0.985840 2.788000 104 56 19
1.400673 -0.980959 2.788000 100 59 28
1.400673 -0.976079 2.788000 96 61 23
1.400673 -0.971198 2.788000 100 64 19
1.389118 -0.958346 2.765000 104 64 17
1.389118 -0.953506 2.765000 107 65 16
1.389118 -0.948666 2.765000 111 61 13
1.389118 -0.943826 2.765000 103 59 10
1.389118 -0.938986 2.765000 95 61 12
1.389118 -0.934146 2.765000 102 65 14
1.389118 -0.929305 2.765000 109 66 14
1.389118 -0.924465 2.765000 106 64 15
1.389118 -0.919625 2.765000 104 63 15
1.389118 -0.914785 2.765000 107 63 15
1.389118 -0.909945 2.765000 111 64 19
1.389118 -0.905105 2.765000 108 65 23
1.378065 -0.893102 2.743000 106 65 21
1.378065 -0.888300 2.743000 104 68 20
1.378065 -0.883498 2.743000 103 65 20
1.378065 -0.878697 2.743000 103 62 21
1.378065 -0.873895 2.743000 104 66 17
1.378065 -0.869093 2.743000 106 70 13
1.378065 -0.864292 2.743000 108 66 20
1.378065 -0.859490 2.743000 106 67 27
1.378065 -0.854689 2.743000 105 66 20
1.378065 -0.849887 2.743000 106 71 13
1.378065 -0.845085 2.743000 108 69 13
1.378065 -0.840284 2.743000 109 65 14
1.378065 -0.835482 2.743000 110 63 16
1.378065 -0.830681 2.743000 111 64 19
1.389118 -0.832503 2.765000 112 65 18
1.389118 -0.827663 2.765000 112 68 18
1.378065 -0.816276 2.743000 113 67 24
1.389118 -0.817982 2.765000 113 67 30
1.378065 -0.806672 2.743000 114 66 23
1.378065 -0.801871 2.743000 115 69 16
1.378065 -0.797069 2.743000 116 69 16
1.378065 -0.792268 2.743000 117 70 16
1.378065 -0.787466 2.743000 118 72 17
1.367515 -0.776672 2.722000 114 76 18
1.367515 -0.771908 2.722000 110 73 18
1.367515 -0.767143 2.722000 109 73 17
1.367515 -0.762378 2.722000 109 69 17
1.367515 -0.757613 2.722000 104 68 16
1.367515 -0.752848 2.722000 100 67 17
1.367515 -0.748083 2.722000 107 69 18
1.367515 -0.743318 2.722000 114 66 21
1.367515 -0.738554 2.722000 109 65 23
1.367515 -0.733789 2.722000 105 64 19
1.367515 -0.729024 2.722000 106 64 14
1.367515 -0.724259 2.722000 107 64 13
1.378065 -0.725045 2.743000 107 68 13
1.378065 -0.720243 2.743000 108 67 24
1.378065 -0.715442 2.743000 108 68 36
1.378065 -0.710640 2.743000 109 66 30
1.378065 -0.705838 2.743000 108 64 24
1.378065 -0.701037 2.743000 107 65 22
1.378065 -0.696235 2.743000 105 67 20
1.378065 -0.691433 2.743000 104 68 19
1.378065 -0.686632 2.743000 108 71 18
1.378065 -0.681830 2.743000 113 67 18
1.378065 -0.677029 2.743000 111 67 18
1.378065 -0.672227 2.743000 109 68 18
1.378065 -0.667425 2.743000 111 70 19
1.378065 -0.662624 2.743000 114 69 21
1.378065 -0.657822 2.743000 117 68 23
1.378065 -0.653021 2.743000 121 65 25
1.378065 -0.648219 2.743000 117 65 28
1.367515 -0.638491 2.722000 114 67 27
1.367515 -0.633727 2.722000 114 67 26
1.367515 -0.628962 2.722000 114 66 20
1.378065 -0.629012 2.743000 114 69 14
1.378065 -0.624211 2.743000 114 71 17
1.378065 -0.619409 2.743000 112 74 21
1.378065 -0.614608 2.743000 111 71 29
1.378065 -0.609806 2.743000 107 69 37
1.378065 -0.605004 2.743000 103 69 34
1.378065 -0.600203 2.743000 108 73 31
1.378065 -0.595401 2.743000 113 72 29
1.378065 -0.590599 2.743000 113 71 28
1.378065 -0.585798 2.743000 114 69 36
1.378065 -0.580996 2.743000 113 68 44
1.378065 -0.576195 2.743000 112 74 36
1.378065 -0.571393 2.743000 111 76 28
1.378065 -0.566591 2.743000 111 75 24
1.378065 -0.561790 2.743000 117 75 21
1.378065 -0.556988 2.743000 123 76 21
1.378065 -0.552186 2.743000 119 79 22
1.378065 -0.547385 2.743000 116 75 27
1.378065 -0.542583 2.743000 114 77 33
1.378065 -0.537782 2.743000 113 73 26
1.378065 -0.532980 2.743000 117 71 20
1.378065 -0.528178 2.743000 121 72 23
1.378065 -0.523377 2.743000 116 73 25
1.378065 -0.518575 2.743000 112 75 28
1.378065 -0.513774 2.743000 114 77 32
1.378065 -0.508972 2.743000 117 75 25
1.378065 -0.504170 2.743000 114 76 18
1.378065 -0.499369 2.743000 112 75 28
1.378065 -0.494567 2.743000 107 74 39
1.378065 -0.489765 2.743000 102 74 35
1.378065 -0.484964 2.743000 111 76 31
1.378065 -0.480162 2.743000 120 72 30
1.389118 -0.479173 2.765000 125 71 29
1.378065 -0.470559 2.743000 131 72 23
1.378065 -0.465757 2.743000 125 72 17
1.378065 -0.460956 2.743000 119 73 22
1.378065 -0.456154 2.743000 116 73 27
1.378065 -0.451352 2.743000 114 75 28
1.378065 -0.446551 2.743000 115 78 30
1.378065 -0.441749 2.743000 116 77 24
1.378065 -0.436948 2.743000 115 79 18
1.378065 -0.432146 2.743000 114 75 22
1.378065 -0.427344 2.743000 117 71 27
1.378065 -0.422543 2.743000 120 69 28
1.378065 -0.417741 2.743000 118 71 30
1.378065 -0.412939 2.743000 117 73 28
1.378065 -0.408138 2.743000 118 77 26
1.378065 -0.403336 2.743000 119 77 27
1.378065 -0.398535 2.743000 118 78 28
1.378065 -0.393733 2.743000 118 78 32
1.378065 -0.388931 2.743000 119 79 37
1.378065 -0.384130 2.743000 120 78 31
1.378065 -0.379328 2.743000 120 77 25
1.378065 -0.374526 2.743000 121 76 33
1.378065 -0.369725 2.743000 119 77 40
1.378065 -0.364923 2.743000 118 77 36
1.378065 -0.360122 2.743000 115 79 32
1.389118 -0.358170 2.765000 113 77 31
1.378065 -0.350518 2.743000 115 76 31
1.378065 -0.345717 2.743000 118 74 35
1.378065 -0.340915 2.743000 122 72 40
1.378065 -0.336113 2.743000 126 72 36
1.378065 -0.331312 2.743000 123 76 32
1.378065 -0.326510 2.743000 121 76 33
1.378065 -0.321709 2.743000 120 77 35
1.378065 -0.316907 2.743000 119 78 31
1.378065 -0.312105 2.743000 120 78 26
1.378065 -0.307304 2.743000 122 78 25
1.378065 -0.302502 2.743000 123 80 24
1.378065 -0.297700 2.743000 124 78 25
1.378065 -0.292899 2.743000 127 77 26
1.378065 -0.288097 2.743000 131 76 28
1.378065 -0.283296 2.743000 126 76 30
1.378065 -0.278494 2.743000 122 77 32
1.378065 -0.273692 2.743000 121 76 34
1.378065 -0.268891 2.743000 120 78 31
1.378065 -0.264089 2.743000 120 81 28
1.378065 -0.259288 2.743000 121 79 27
1.378065 -0.254486 2.743000 121 79 27
1.378065 -0.249684 2.743000 122 78 30
1.378065 -0.244883 2.743000 122 78 33
1.367515 -0.238243 2.722000 122 78 32
1.367515 -0.233478 2.722000 121 82 32
1.378065 -0.230478 2.743000 121 83 36
1.378065 -0.225676 2.743000 122 83 41
1.378065 -0.220875 2.743000 124 80 35
1.367515 -0.214419 2.722000 122 79 30
1.367515 -0.209654 2.722000 120 78 32
1.367515 -0.204889 2.722000 121 78 33
1.367515 -0.200124 2.722000 122 77 33
1.367515 -0.195359 2.722000 123 77 33
1.367515 -0.190594 2.722000 124 77 27
1.367515 -0.185830 2.722000 124 78 21
1.367515 -0.181065 2.722000 124 79 27
1.378065 -0.177660 2.743000 123 82 33
1.367515 -0.171535 2.722000 122 80 28
1.367515 -0.166770 2.722000 125 79 24
1.367515 -0.162005 2.722000 128 78 30
1.378065 -0.158453 2.743000 126 79 37
1.378065 -0.153652 2.743000 124 77 31
1.378065 -0.148850 2.743000 129 76 25
1.378065 -0.144049 2.743000 134 76 22
1.378065 -0.139247 2.743000 130 78 19
1.378065 -0.134445 2.743000 126 80 26
1.378065 -0.129644 2.743000 125 80 34
1.378065 -0.124842 2.743000 125 78 36
1.378065 -0.120040 2.743000 124 78 39
1.378065 -0.115239 2.743000 124 79 34
1.378065 -0.110437 2.743000 123 79 29
1.378065 -0.105636 2.743000 122 78 32
1.378065 -0.100834 2.743000 124 79 34
1.378065 -0.096032 2.743000 127 78 34
1.378065 -0.091231 2.743000 131 78 34
1.378065 -0.086429 2.743000 135 78 35
1.378065 -0.081627 2.743000 131 78 36
1.378065 -0.076826 2.743000 127 76 35
1.378065 -0.072024 2.743000 125 78 34
1.378065 -0.067223 2.743000 123 79 34
1.367515 -0.061943 2.722000 123 80 33
1.378065 -0.057619 2.743000 123 80 38
1.367515 -0.052413 2.722000 123 82 42
1.367515 -0.047649 2.722000 124 81 32
1.367515 -0.042884 2.722000 123 77 22
1.378065 -0.038413 2.743000 122 77 18
1.367515 -0.033354 2.722000 123 78 14
1.367515 -0.028589 2.722000 124 78 21
1.367515 -0.023824 2.722000 125 77 27
1.378065 -0.019206 2.743000 127 76 31
1.378065 -0.014405 2.743000 125 79 35
1.378065 -0.009603 2.743000 123 80 33
1.367515 -0.004765 2.722000 123 80 32
1.378065 -0.000000 2.743000 123 78 36
1.367515 0.004765 2.722000 123 76 40
1.367515 0.009530 2.722000 124 77 36
1.367515 0.014295 2.722000 125 80 33
1.367515 0.019060 2.722000 126 79 37
1.367515 0.023824 2.722000 125 78 41
1.367515 0.028589 2.722000 124 78 38
1.367515 0.033354 2.722000 123 78 35
1.367515 0.038119 2.722000 123 79 31
1.367515 0.042884 2.722000 124 79 26
1.367515 0.047649 2.722000 125 79 32
1.367515 0.052413 2.722000 125 80 38
1.367515 0.057178 2.722000 126 79 43
1.367515 0.061943 2.722000 127 79 49
1.367515 0.066708 2.722000 128 80 44
1.367515 0.071473 2.722000 131 82 39
1.367515 0.076238 2.722000 135 81 38
1.378065 0.081628 2.743000 133 82 37
1.367515 0.085768 2.722000 131 81 41
1.367515 0.090532 2.722000 133 78 46
1.367515 0.095297 2.722000 136 77 42
1.367515 0.100062 2.722000 132 77 39
1.367515 0.104827 2.722000 128 78 34
1.367515 0.109592 2.722000 127 82 29
1.367515 0.114357 2.722000 126 82 31
1.367515 0.119122 2.722000 126 80 33
1.367515 0.123886 2.722000 126 80 30
1.367515 0.128651 2.722000 125 82 28
1.367515 0.133416 2.722000 125 83 32
1.367515 0.138181 2.722000 125 89 36
1.378065 0.144049 2.743000 126 84 36
1.378065 0.148850 2.743000 130 83 36
1.378065 0.153652 2.743000 135 82 34
1.378065 0.158454 2.743000 129 80 32
1.378065 0.163255 2.743000 124 81 32
1.378065 0.168057 2.743000 125 83 32
1.378065 0.172858 2.743000 127 83 36
1.367515 0.176300 2.722000 127 83 40
1.378065 0.182462 2.743000 128 84 42
1.367515 0.185830 2.722000 128 85 45
1.367515 0.190595 2.722000 129 85 41
1.367515 0.195359 2.722000 128 89 37
1.367515 0.200124 2.722000 128 86 47
1.367515 0.204889 2.722000 127 81 57
1.367515 0.209654 2.722000 126 82 51
1.367515 0.214419 2.722000 118 86 45
1.367515 0.219184 2.722000 111 85 37
1.367515 0.223949 2.722000 120 86 30
1.367515 0.228713 2.722000 130 84 32
1.367515 0.233478 2.722000 129 81 34
1.367515 0.238243 2.722000 128 83 40
1.378065 0.244883 2.743000 127 83 46
1.378065 0.249684 2.743000 126 82 42
1.378065 0.254486 2.743000 129 80 39
1.378065 0.259288 2.743000 133 80 38
1.378065 0.264089 2.743000 130 83 38
1.378065 0.268891 2.743000 128 85 38
1.378065 0.273693 2.743000 129 84 37
1.378065 0.278494 2.743000 131 84 39
1.378065 0.283296 2.743000 130 86 42
1.367515 0.285892 2.722000 129 84 38
1.367515 0.290657 2.722000 129 84 35
1.367515 0.295422 2.722000 129 83 35
1.367515 0.300186 2.722000 130 85 35
1.367515 0.304951 2.722000 131 85 31
1.367515 0.309716 2.722000 131 84 28
1.367515 0.314481 2.722000 131 85 34
1.367515 0.319246 2.722000 131 87 41
1.367515 0.324011 2.722000 132 84 39
1.367515 0.328775 2.722000 132 82 36
1.367515 0.333540 2.722000 133 84 41
1.367515 0.338305 2.722000 136 86 46
1.367515 0.343070 2.722000 140 84 42
1.367515 0.347835 2.722000 135 83 38
1.367515 0.352600 2.722000 131 84 40
1.367515 0.357365 2.722000 128 82 43
1.356965 0.359336 2.701000 126 83 43
1.356965 0.364064 2.701000 124 86 43
1.356965 0.368792 2.701000 122 86 45
1.356965 0.373520 2.701000 125 87 46
1.356965 0.378248 2.701000 128 86 44
1.356965 0.382976 2.701000 128 84 42
1.367515 0.390719 2.722000 128 84 48
1.367515 0.395484 2.722000 131 85 55
1.367515 0.400248 2.722000 134 85 46
1.367515 0.405013 2.722000 131 87 37
1.367515 0.409778 2.722000 129 86 41
1.367515 0.414543 2.722000 129 86 46
1.367515 0.419308 2.722000 130 84 46
1.367515 0.424073 2.722000 131 85 46
1.367515 0.428838 2.722000 133 83 47
1.367515 0.433602 2.722000 134 82 48
1.367515 0.438367 2.722000 135 86 47
1.367515 0.443132 2.722000 133 90 47
1.367515 0.447897 2.722000 132 89 43
1.367515 0.452662 2.722000 132 89 40
1.367515 0.457427 2.722000 133 86 45
1.367515 0.462192 2.722000 134 84 51
1.367515 0.466957 2.722000 136 85 46
1.367515 0.471721 2.722000 135 88 41
1.367515 0.476486 2.722000 135 88 44
1.367515 0.481251 2.722000 138 88 47
1.367515 0.486016 2.722000 141 85 47
1.367515 0.490781 2.722000 137 82 47
1.367515 0.495546 2.722000 133 84 44
1.367515 0.500311 2.722000 131 86 41
1.367515 0.505075 2.722000 130 85 40
1.367515 0.509840 2.722000 132 85 39
1.367515 0.514605 2.722000 135 86 34
1.367515 0.519370 2.722000 132 85 30
1.367515 0.524135 2.722000 130 84 34
1.367515 0.528900 2.722000 131 84 39
1.367515 0.533665 2.722000 132 85 37
1.367515 0.538429 2.722000 128 87 35
1.367515 0.543194 2.722000 124 87 45
1.367515 0.547959 2.722000 128 87 54
1.367515 0.552724 2.722000 132 88 45
1.367515 0.557489 2.722000 131 87 37
1.367515 0.562254 2.722000 131 85 39
1.367515 0.567019 2.722000 130 84 42
1.367515 0.571783 2.722000 129 86 43
1.356965 0.572100 2.701000 128 87 44
1.356965 0.576828 2.701000 128 85 42
1.356965 0.581556 2.701000 126 84 40
1.356965 0.586285 2.701000 124 84 44
1.356965 0.591013 2.701000 125 84 48
1.356965 0.595741 2.701000 126 81 43
1.356965 0.600469 2.701000 128 77 38
1.367515 0.609902 2.722000 130 84 46
1.367515 0.614667 2.722000 126 92 55
1.367515 0.619432 2.722000 123 66 43
1.367515 0.624197 2.722000 62 17 32
1.367515 0.628962 2.722000 2 5 16
1.367515 0.633727 2.722000 8 3 1
1.367515 0.638492 2.722000 14 9 2
1.367515 0.643256 2.722000 20 14 3
1.367515 0.648021 2.722000 27 12 4
1.073615 0.677088 2.137000 131 106 89
1.071605 0.679555 2.133000 132 105 89
1.071605 0.683289 2.133000 137 103 90
1.065074 0.682835 2.120000 142 105 87
1.058543 0.682336 2.107000 137 108 85
1.052514 0.682117 2.095000 133 108 88
1.039452 0.677274 2.069000 135 109 92
1.039452 0.680896 2.069000 138 108 94
1.033424 0.680547 2.057000 136 109 95
1.003782 0.664525 1.998000 135 112 97
1.003782 0.668023 1.998000 138 127 99
0.997754 0.667487 1.986000 142 113 100
0.997754 0.670963 1.986000 139 106 102
0.997754 0.674440 1.986000 136 110 101
0.997754 0.677916 1.986000 135 114 100
0.992227 0.677619 1.975000 135 114 99
0.986701 0.677283 1.964000 134 113 99
0.975146 0.672749 1.941000 134 113 102
0.948519 0.657684 1.888000 134 114 105
0.948519 0.660989 1.888000 134 115 104
0.938471 0.657257 1.868000 132 117 102
0.938471 0.660527 1.868000 130 117 101
0.933447 0.660243 1.858000 134 118 99
0.928423 0.659925 1.848000 138 118 102
0.928423 0.663160 1.848000 137 120 104
0.923399 0.662788 1.838000 137 119 102
0.908830 0.655498 1.809000 138 118 100
0.904308 0.655387 1.800000 139 115 99
0.899284 0.654880 1.790000 138 111 99
0.894763 0.654705 1.781000 137 110 103
0.894763 0.657822 1.781000 136 109 107
0.890241 0.657600 1.772000 136 113 108
0.885720 0.657346 1.763000 137 118 109
0.876677 0.653689 1.745000 138 118 108
0.872155 0.653357 1.736000 138 121 108
0.868136 0.653371 1.728000 138 120 108
0.863615 0.652977 1.719000 143 120 108
0.863615 0.655986 1.719000 149 119 104
0.859595 0.655928 1.711000 145 116 101
0.855074 0.655457 1.702000 141 117 106
0.855074 0.658437 1.702000 140 116 111
0.851055 0.658307 1.694000 139 119 112
0.842514 0.654636 1.677000 144 122 114
0.838495 0.654435 1.669000 149 118 115
0.834476 0.654206 1.661000 148 116 117
0.830457 0.653948 1.653000 147 117 113
0.826437 0.653663 1.645000 149 117 109
0.818902 0.650556 1.630000 151 119 112
0.814882 0.650202 1.622000 145 121 116
0.807346 0.647002 1.607000 140 120 115
0.803830 0.646985 1.600000 138 120 115
0.803830 0.649786 1.600000 137 121 115
0.796294 0.646468 1.585000 139 123 115
0.796294 0.649243 1.585000 141 121 110
0.792777 0.649138 1.578000 146 119 106
0.789260 0.649009 1.571000 151 122 109
0.789260 0.651758 1.571000 146 126 113
0.785241 0.651176 1.563000 141 122 115
0.778208 0.648054 1.549000 141 122 118
1.393958 -0.992227 2.765000 103 63 8
1.405554 -0.995600 2.788000 105 58 5
1.393958 -0.982547 2.765000 105 57 3
1.393958 -0.977707 2.765000 106 56 12
1.405554 -0.980959 2.788000 102 58 21
1.405554 -0.976079 2.788000 99 58 19
1.405554 -0.971198 2.788000 101 61 17
1.393958 -0.958346 2.765000 103 62 16
1.393958 -0.953506 2.765000 105 62 15
1.405554 -0.956557 2.788000 107 59 16
1.393958 -0.943826 2.765000 102 60 17
1.393958 -0.938986 2.765000 98 60 15
1.393958 -0.934146 2.765000 101 65 14
1.382867 -0.921911 2.743000 104 68 14
1.393958 -0.924465 2.765000 102 65 14
1.382867 -0.912308 2.743000 101 60 14
1.382867 -0.907507 2.743000 101 61 14
1.382867 -0.902705 2.743000 102 63 18
1.382867 -0.897903 2.743000 103 65 23
1.382867 -0.893102 2.743000 103 68 19
1.372280 -0.881499 2.722000 103 65 15
1.372280 -0.876734 2.722000 102 63 13
1.382867 -0.878697 2.743000 103 63 12
1.382867 -0.873895 2.743000 104 64 7
1.372280 -0.862440 2.722000 105 63 2
1.372280 -0.857675 2.722000 105 59 6
1.382867 -0.859490 2.743000 105 64 11
1.382867 -0.854689 2.743000 105 64 7
1.382867 -0.849887 2.743000 109 67 3
1.382867 -0.845085 2.743000 113 69 8
1.382867 -0.840284 2.743000 108 65 14
1.382867 -0.835482 2.743000 103 63 15
1.382867 -0.830681 2.743000 107 64 17
1.382867 -0.825879 2.743000 111 68 18
1.382867 -0.821077 2.743000 111 66 19
1.382867 -0.816276 2.743000 112 67 29
1.382867 -0.811474 2.743000 112 65 39
1.382867 -0.806672 2.743000 111 63 26
1.382867 -0.801871 2.743000 113 66 13
1.382867 -0.797069 2.743000 114 67 14
1.382867 -0.792268 2.743000 116 69 16
1.372280 -0.781437 2.722000 118 69 17
1.372280 -0.776672 2.722000 110 71 19
1.372280 -0.771908 2.722000 103 73 24
1.372280 -0.767143 2.722000 108 72 30
1.382867 -0.768259 2.743000 114 70 25
1.382867 -0.763458 2.743000 109 67 21
1.372280 -0.752848 2.722000 103 68 19
1.372280 -0.748083 2.722000 107 67 17
1.372280 -0.743318 2.722000 110 67 18
1.372280 -0.738554 2.722000 108 66 19
1.372280 -0.733789 2.722000 105 63 14
1.372280 -0.729024 2.722000 107 64 9
1.372280 -0.724259 2.722000 108 60 7
1.382867 -0.725045 2.743000 109 64 5
1.382867 -0.720243 2.743000 109 65 28
1.382867 -0.715442 2.743000 111 66 51
1.382867 -0.710640 2.743000 114 64 38
1.393958 -0.711499 2.765000 111 63 25
1.393958 -0.706659 2.765000 108 62 14
1.382867 -0.696235 2.743000 108 64 4
1.382867 -0.691433 2.743000 107 69 11
1.382867 -0.686632 2.743000 112 66 18
1.382867 -0.681830 2.743000 117 62 18
1.382867 -0.677029 2.743000 113 62 19
1.382867 -0.672227 2.743000 109 65 19
1.382867 -0.667425 2.743000 110 67 19
1.382867 -0.662624 2.743000 111 70 19
1.382867 -0.657822 2.743000 113 68 19
1.372280 -0.648021 2.722000 116 66 24
1.372280 -0.643256 2.722000 114 65 30
1.372280 -0.638491 2.722000 112 68 28
1.372280 -0.633727 2.722000 111 67 27
1.372280 -0.628962 2.722000 110 66 23
1.382867 -0.629012 2.743000 110 70 20
1.382867 -0.624211 2.743000 111 73 23
1.382867 -0.619409 2.743000 111 71 26
1.382867 -0.614608 2.743000 111 68 35
1.382867 -0.609806 2.743000 110 69 44
1.382867 -0.605004 2.743000 109 69 39
1.382867 -0.600203 2.743000 114 70 35
1.382867 -0.595401 2.743000 120 72 30
1.382867 -0.590599 2.743000 117 71 26
1.382867 -0.585798 2.743000 114 71 30
1.382867 -0.580996 2.743000 113 72 35
1.382867 -0.576195 2.743000 112 76 30
1.372280 -0.567018 2.722000 111 76 26
1.372280 -0.562254 2.722000 110 76 21
1.372280 -0.557489 2.722000 112 74 17
1.372280 -0.552724 2.722000 114 76 20
1.372280 -0.547959 2.722000 114 77 24
1.372280 -0.543194 2.722000 114 77 32
1.372280 -0.538429 2.722000 112 75 41
1.382867 -0.537782 2.743000 111 73 26
1.382867 -0.532980 2.743000 113 72 12
1.382867 -0.528178 2.743000 115 73 18
1.382867 -0.523377 2.743000 113 73 25
1.382867 -0.518575 2.743000 112 73 31
1.382867 -0.513774 2.743000 114 74 38
1.382867 -0.508972 2.743000 116 73 24
1.382867 -0.504170 2.743000 115 75 10
1.382867 -0.499369 2.743000 115 76 27
1.382867 -0.494567 2.743000 111 73 45
1.382867 -0.489765 2.743000 107 73 40
1.382867 -0.484964 2.743000 112 71 36
1.382867 -0.480162 2.743000 117 69 34
1.382867 -0.475361 2.743000 120 70 33
1.372280 -0.466956 2.722000 123 71 22
1.372280 -0.462192 2.722000 120 72 12
1.372280 -0.457427 2.722000 117 71 19
1.372280 -0.452662 2.722000 116 73 26
1.372280 -0.447897 2.722000 115 74 24
1.372280 -0.443132 2.722000 118 74 22
1.372280 -0.438367 2.722000 120 75 17
1.372280 -0.433602 2.722000 118 76 12
1.372280 -0.428837 2.722000 116 77 18
1.372280 -0.424073 2.722000 120 72 25
1.372280 -0.419308 2.722000 123 67 26
1.372280 -0.414543 2.722000 121 70 28
1.372280 -0.409778 2.722000 118 73 27
1.372280 -0.405013 2.722000 121 75 26
1.372280 -0.400248 2.722000 124 77 27
1.372280 -0.395483 2.722000 121 77 28
1.372280 -0.390719 2.722000 119 79 29
1.372280 -0.385954 2.722000 120 78 30
1.382867 -0.384130 2.743000 121 76 26
1.372280 -0.376424 2.722000 121 75 23
1.382867 -0.374526 2.743000 121 74 33
1.382867 -0.369725 2.743000 120 76 44
1.382867 -0.364923 2.743000 119 78 35
1.382867 -0.360122 2.743000 115 78 26
1.382867 -0.355320 2.743000 111 77 27
1.382867 -0.350518 2.743000 113 76 28
1.382867 -0.345717 2.743000 116 76 28
1.382867 -0.340915 2.743000 119 73 28
1.382867 -0.336113 2.743000 123 72 28
1.382867 -0.331312 2.743000 122 75 28
1.382867 -0.326510 2.743000 120 77 27
1.382867 -0.321709 2.743000 119 78 26
1.382867 -0.316907 2.743000 118 80 26
1.382867 -0.312105 2.743000 118 78 26
1.382867 -0.307304 2.743000 118 76 25
1.382867 -0.302502 2.743000 120 77 24
1.372280 -0.295421 2.722000 122 78 31
1.372280 -0.290656 2.722000 124 77 39
1.372280 -0.285892 2.722000 125 76 35
1.372280 -0.281127 2.722000 123 77 31
1.372280 -0.276362 2.722000 121 80 30
1.372280 -0.271597 2.722000 123 78 30
1.372280 -0.266832 2.722000 125 79 29
1.372280 -0.262067 2.722000 124 80 29
1.372280 -0.257302 2.722000 123 80 28
1.372280 -0.252538 2.722000 123 79 27
1.372280 -0.247773 2.722000 124 79 31
1.372280 -0.243008 2.722000 124 76 36
1.372280 -0.238243 2.722000 125 74 32
1.372280 -0.233478 2.722000 120 79 29
1.372280 -0.228713 2.722000 115 84 32
1.372280 -0.223948 2.722000 118 82 35
1.372280 -0.219184 2.722000 122 81 32
1.372280 -0.214419 2.722000 120 79 30
1.372280 -0.209654 2.722000 119 78 31
1.372280 -0.204889 2.722000 120 77 33
1.372280 -0.200124 2.722000 121 77 30
1.372280 -0.195359 2.722000 124 76 28
1.372280 -0.190594 2.722000 127 77 23
1.372280 -0.185830 2.722000 125 78 18
1.372280 -0.181065 2.722000 124 79 22
1.372280 -0.176300 2.722000 123 79 26
1.372280 -0.171535 2.722000 122 78 23
1.372280 -0.166770 2.722000 123 78 21
1.372280 -0.162005 2.722000 125 77 24
1.372280 -0.157240 2.722000 124 78 27
1.372280 -0.152475 2.722000 123 78 23
1.372280 -0.147711 2.722000 126 77 20
1.372280 -0.142946 2.722000 130 78 18
1.372280 -0.138181 2.722000 127 79 16
1.372280 -0.133416 2.722000 125 81 23
1.372280 -0.128651 2.722000 124 78 30
1.372280 -0.123886 2.722000 123 74 30
1.372280 -0.119121 2.722000 123 78 30
1.372280 -0.114357 2.722000 122 79 25
1.372280 -0.109592 2.722000 120 78 21
1.372280 -0.104827 2.722000 118 78 27
1.372280 -0.100062 2.722000 121 79 33
1.382867 -0.096032 2.743000 125 77 34
1.382867 -0.091231 2.743000 128 77 35
1.382867 -0.086429 2.743000 130 79 32
1.382867 -0.081627 2.743000 128 78 30
1.372280 -0.076238 2.722000 127 76 31
1.372280 -0.071473 2.722000 125 78 32
1.372280 -0.066708 2.722000 124 80 29
1.372280 -0.061943 2.722000 124 81 26
1.372280 -0.057178 2.722000 124 82 28
1.372280 -0.052413 2.722000 125 81 30
1.372280 -0.047649 2.722000 126 81 27
1.372280 -0.042884 2.722000 124 79 24
1.372280 -0.038119 2.722000 122 77 23
1.372280 -0.033354 2.722000 123 79 22
1.372280 -0.028589 2.722000 124 81 26
1.372280 -0.023824 2.722000 122 78 30
1.372280 -0.019059 2.722000 120 77 31
1.372280 -0.014295 2.722000 121 78 32
1.372280 -0.009530 2.722000 121 80 31
1.372280 -0.004765 2.722000 122 79 30
1.372280 -0.000000 2.722000 123 79 32
1.372280 0.004765 2.722000 124 77 34
1.372280 0.009530 2.722000 125 76 33
1.372280 0.014295 2.722000 127 78 32
1.372280 0.019060 2.722000 129 79 32
1.372280 0.023824 2.722000 126 77 32
1.372280 0.028589 2.722000 123 77 34
1.372280 0.033354 2.722000 120 78 37
1.372280 0.038119 2.722000 118 80 37
1.372280 0.042884 2.722000 121 79 37
1.372280 0.047649 2.722000 124 79 39
1.372280 0.052413 2.722000 125 79 41
1.372280 0.057178 2.722000 126 79 43
1.372280 0.061943 2.722000 125 79 46
1.372280 0.066708 2.722000 125 80 40
1.372280 0.071473 2.722000 128 80 35
1.372280 0.076238 2.722000 132 79 34
1.372280 0.081003 2.722000 130 80 34
1.361693 0.085106 2.701000 128 79 34
1.372280 0.090532 2.722000 126 79 34
1.372280 0.095297 2.722000 124 78 33
1.372280 0.100062 2.722000 125 78 33
1.372280 0.104827 2.722000 125 79 29
1.372280 0.109592 2.722000 124 81 26
1.372280 0.114357 2.722000 123 83 28
1.372280 0.119122 2.722000 123 80 30
1.372280 0.123886 2.722000 124 79 26
1.372280 0.128651 2.722000 122 79 23
1.372280 0.133416 2.722000 120 80 30
1.372280 0.138181 2.722000 123 81 38
1.372280 0.142946 2.722000 125 80 36
1.372280 0.147711 2.722000 128 82 35
1.372280 0.152476 2.722000 131 83 33
1.372280 0.157240 2.722000 128 81 31
1.372280 0.162005 2.722000 124 82 27
1.382867 0.168057 2.743000 125 82 23
1.372280 0.171535 2.722000 127 83 29
1.372280 0.176300 2.722000 129 82 35
1.382867 0.182462 2.743000 132 82 30
1.382867 0.187263 2.743000 131 82 26
1.372280 0.190595 2.722000 130 83 29
1.372280 0.195359 2.722000 129 86 33
1.372280 0.200124 2.722000 129 87 42
1.372280 0.204889 2.722000 130 84 51
1.372280 0.209654 2.722000 131 84 48
1.372280 0.214419 2.722000 126 85 46
1.372280 0.219184 2.722000 121 87 38
1.372280 0.223949 2.722000 127 85 30
1.372280 0.228713 2.722000 134 84 30
1.372280 0.233478 2.722000 131 83 30
1.372280 0.238243 2.722000 128 83 35
1.372280 0.243008 2.722000 127 83 41
1.372280 0.247773 2.722000 126 84 40
1.372280 0.252538 2.722000 128 80 39
1.372280 0.257303 2.722000 130 79 42
1.382867 0.264089 2.743000 126 84 45
1.382867 0.268891 2.743000 123 87 41
1.382867 0.273693 2.743000 126 85 37
1.372280 0.276362 2.722000 128 85 36
1.372280 0.281127 2.722000 128 86 35
1.372280 0.285892 2.722000 129 86 32
1.372280 0.290657 2.722000 129 84 30
1.372280 0.295422 2.722000 130 83 33
1.361693 0.297870 2.701000 130 85 37
1.361693 0.302599 2.701000 129 86 30
1.361693 0.307327 2.701000 129 84 23
1.372280 0.314481 2.722000 130 85 31
1.372280 0.319246 2.722000 131 86 39
1.372280 0.324011 2.722000 133 85 37
1.372280 0.328775 2.722000 133 84 35
1.372280 0.333540 2.722000 133 85 37
1.372280 0.338305 2.722000 135 85 39
1.372280 0.343070 2.722000 137 85 36
1.361693 0.345152 2.701000 134 85 34
1.361693 0.349880 2.701000 131 85 38
1.361693 0.354608 2.701000 128 83 43
1.351106 0.356542 2.680000 126 84 43
1.351106 0.361233 2.680000 126 85 44
1.351106 0.365925 2.680000 125 88 44
1.351106 0.370616 2.680000 128 88 44
1.361693 0.378248 2.701000 131 89 40
1.361693 0.382976 2.701000 130 85 36
1.361693 0.387704 2.701000 130 83 39
1.361693 0.392432 2.701000 133 83 43
1.372280 0.400248 2.722000 136 84 37
1.361693 0.401889 2.701000 133 85 31
1.361693 0.406617 2.701000 131 86 33
1.361693 0.411345 2.701000 132 86 36
1.361693 0.416073 2.701000 133 85 41
1.361693 0.420801 2.701000 133 84 46
1.361693 0.425529 2.701000 133 83 47
1.351106 0.426912 2.680000 132 84 49
1.361693 0.434985 2.701000 131 86 46
1.361693 0.439713 2.701000 131 87 44
1.361693 0.444442 2.701000 131 89 37
1.361693 0.449170 2.701000 131 88 31
1.372280 0.457427 2.722000 132 85 36
1.372280 0.462192 2.722000 133 84 42
1.372280 0.466957 2.722000 135 84 40
1.372280 0.471721 2.722000 135 86 39
1.372280 0.476486 2.722000 135 89 41
1.372280 0.481251 2.722000 136 87 44
1.372280 0.486016 2.722000 138 86 44
1.372280 0.490781 2.722000 134 85 44
1.372280 0.495546 2.722000 131 87 42
1.372280 0.500311 2.722000 128 86 41
1.372280 0.505075 2.722000 125 85 42
1.372280 0.509840 2.722000 128 84 43
1.372280 0.514605 2.722000 131 85 37
1.372280 0.519370 2.722000 130 85 31
1.372280 0.524135 2.722000 130 86 36
1.361693 0.524819 2.701000 131 86 41
1.361693 0.529547 2.701000 132 85 41
1.361693 0.534276 2.701000 129 87 41
1.361693 0.539004 2.701000 126 89 53
1.372280 0.547959 2.722000 129 87 65
1.372280 0.552724 2.722000 133 89 47
1.372280 0.557489 2.722000 131 87 30
1.372280 0.562254 2.722000 130 87 37
1.361693 0.562644 2.701000 128 86 45
1.361693 0.567372 2.701000 126 86 44
1.351106 0.567652 2.680000 130 86 43
1.351106 0.572344 2.680000 134 86 41
1.351106 0.577035 2.680000 125 86 39
1.351106 0.581726 2.680000 117 89 39
1.351106 0.586418 2.680000 120 86 40
1.351106 0.591109 2.680000 124 85 35
1.351106 0.595800 2.680000 125 81 30
1.361693 0.605197 2.701000 126 80 38
1.361693 0.609925 2.701000 125 86 46
1.361693 0.614653 2.701000 124 93 47
1.361693 0.619381 2.701000 65 50 48
1.361693 0.624109 2.701000 6 2 24
1.372280 0.633727 2.722000 9 3 1
1.372280 0.638492 2.722000 12 9 1
1.361693 0.638294 2.701000 17 12 2
1.361693 0.643022 2.701000 22 14 3
1.372280 0.652786 2.722000 15 10 5
1.075339 0.675821 2.133000 130 107 86
1.068785 0.675413 2.120000 132 107 86
1.068785 0.679124 2.120000 135 105 87
1.068785 0.682835 2.120000 137 105 83
1.062231 0.682336 2.107000 134 105 80
1.056182 0.682117 2.095000 131 106 85
1.043074 0.677274 2.069000 132 106 90
1.043074 0.680896 2.069000 134 107 93
1.037024 0.680547 2.057000 134 107 96
1.012825 0.668183 2.009000 134 104 97
1.007280 0.668023 1.998000 140 110 98
1.001230 0.667487 1.986000 145 108 97
1.001230 0.670963 1.986000 138 106 96
1.001230 0.674440 1.986000 131 107 98
1.001230 0.677916 1.986000 132 110 101
0.995685 0.677619 1.975000 133 112 100
0.990139 0.677283 1.964000 132 113 100
0.978544 0.672749 1.941000 131 114 102
0.962411 0.664999 1.909000 133 114 104
0.957370 0.664840 1.899000 135 115 102
0.951824 0.664294 1.888000 133 115 101
0.946783 0.664063 1.878000 132 117 97
0.931658 0.656690 1.848000 135 117 93
0.936700 0.663496 1.858000 137 119 100
0.931658 0.663160 1.848000 136 119 107
0.926617 0.662788 1.838000 136 120 104
0.911997 0.655498 1.809000 138 119 101
0.907459 0.655387 1.800000 140 117 103
0.902418 0.654880 1.790000 139 113 105
0.897880 0.654705 1.781000 138 111 107
0.897880 0.657822 1.781000 139 109 109
0.893343 0.657600 1.772000 140 110 110
0.888806 0.657346 1.763000 138 112 111
0.879731 0.653689 1.745000 136 113 109
0.879731 0.656744 1.745000 133 117 107
0.871161 0.653371 1.728000 131 119 107
0.866624 0.652977 1.719000 138 117 108
0.866624 0.655986 1.719000 145 117 103
0.862590 0.655928 1.711000 142 119 98
0.858053 0.655457 1.702000 139 120 102
0.854020 0.655342 1.694000 139 117 107
0.849987 0.655198 1.686000 138 118 110
0.845450 0.654636 1.677000 141 118 113
0.841416 0.654435 1.669000 145 119 117
0.837383 0.654206 1.661000 144 116 121
0.833350 0.653948 1.653000 144 117 115
0.829317 0.653663 1.645000 145 117 109
0.825788 0.653749 1.638000 146 118 113
0.817722 0.650202 1.622000 143 118 118
0.814193 0.650223 1.615000 140 119 116
0.806630 0.646985 1.600000 139 120 115
0.802597 0.646537 1.592000 138 121 117
0.799068 0.646468 1.585000 140 122 120
0.795539 0.646376 1.578000 142 122 110
0.795539 0.649138 1.578000 143 120 100
0.792010 0.649009 1.571000 145 121 106
0.792010 0.651758 1.571000 143 121 112
0.787977 0.651176 1.563000 141 119 114
0.780919 0.648054 1.549000 141 118 116
1.398798 -0.992227 2.765000 103 67 13
1.398798 -0.987387 2.765000 104 62 9
1.398798 -0.982547 2.765000 106 58 5
1.387669 -0.969928 2.743000 108 60 11
1.398798 -0.972867 2.765000 105 62 17
1.398798 -0.968027 2.765000 103 60 17
1.398798 -0.963186 2.765000 103 60 17
1.387669 -0.950721 2.743000 103 61 16
1.387669 -0.945919 2.743000 103 62 15
1.398798 -0.948666 2.765000 103 61 16
1.398798 -0.943826 2.765000 102 62 17
1.398798 -0.938986 2.765000 101 63 17
1.387669 -0.926713 2.743000 100 68 17
1.387669 -0.921911 2.743000 100 69 17
1.387669 -0.917110 2.743000 99 69 17
1.387669 -0.912308 2.743000 98 64 15
1.387669 -0.907507 2.743000 96 59 14
1.387669 -0.902705 2.743000 94 63 18
1.377045 -0.891029 2.722000 97 67 23
1.387669 -0.893102 2.743000 101 67 18
1.377045 -0.881499 2.722000 101 64 14
1.377045 -0.876734 2.722000 102 64 13
1.387669 -0.878697 2.743000 103 66 13
1.387669 -0.873895 2.743000 105 65 10
1.377045 -0.862440 2.722000 104 62 7
1.387669 -0.864292 2.743000 103 63 10
1.387669 -0.859490 2.743000 104 66 14
1.387669 -0.854689 2.743000 105 64 11
1.387669 -0.849887 2.743000 111 64 9
1.387669 -0.845085 2.743000 118 65 11
1.387669 -0.840284 2.743000 107 65 14
1.387669 -0.835482 2.743000 96 65 14
1.387669 -0.830681 2.743000 103 64 14
1.387669 -0.825879 2.743000 110 64 13
1.387669 -0.821077 2.743000 111 62 11
1.387669 -0.816276 2.743000 112 65 21
1.387669 -0.811474 2.743000 110 66 31
1.377045 -0.800497 2.722000 109 66 25
1.377045 -0.795732 2.722000 111 65 19
1.387669 -0.797069 2.743000 113 68 19
1.387669 -0.792268 2.743000 116 70 18
1.377045 -0.781437 2.722000 119 68 19
1.377045 -0.776672 2.722000 107 67 21
1.377045 -0.771908 2.722000 96 69 22
1.377045 -0.767143 2.722000 108 72 24
1.377045 -0.762378 2.722000 120 69 22
1.377045 -0.757613 2.722000 113 65 21
1.377045 -0.752848 2.722000 107 67 19
1.377045 -0.748083 2.722000 107 67 17
1.377045 -0.743318 2.722000 107 69 18
1.377045 -0.738554 2.722000 106 72 18
1.377045 -0.733789 2.722000 106 69 16
1.377045 -0.729024 2.722000 108 71 13
1.377045 -0.724259 2.722000 110 66 12
1.377045 -0.719494 2.722000 110 66 11
1.377045 -0.714729 2.722000 111 67 22
1.377045 -0.709964 2.722000 115 69 34
1.377045 -0.705200 2.722000 119 65 30
1.387669 -0.705838 2.743000 114 62 26
1.387669 -0.701037 2.743000 110 61 17
1.387669 -0.696235 2.743000 110 60 9
1.387669 -0.691433 2.743000 111 65 14
1.387669 -0.686632 2.743000 116 64 19
1.387669 -0.681830 2.743000 121 61 19
1.387669 -0.677029 2.743000 115 56 19
1.377045 -0.667081 2.722000 110 62 25
1.377045 -0.662316 2.722000 109 66 30
1.377045 -0.657551 2.722000 108 67 25
1.377045 -0.652786 2.722000 109 68 21
1.377045 -0.648021 2.722000 111 65 24
1.377045 -0.643256 2.722000 111 62 28
1.377045 -0.638491 2.722000 111 66 25
1.377045 -0.633727 2.722000 108 70 23
1.377045 -0.628962 2.722000 106 70 19
1.377045 -0.624197 2.722000 107 73 16
1.377045 -0.619432 2.722000 109 72 19
1.377045 -0.614667 2.722000 110 70 23
1.387669 -0.614608 2.743000 112 71 30
1.387669 -0.609806 2.743000 113 72 37
1.387669 -0.605004 2.743000 115 70 34
1.387669 -0.600203 2.743000 121 69 31
1.387669 -0.595401 2.743000 127 70 26
1.377045 -0.586078 2.722000 121 70 21
1.377045 -0.581313 2.722000 115 71 26
1.377045 -0.576548 2.722000 114 73 32
1.377045 -0.571783 2.722000 113 73 26
1.377045 -0.567018 2.722000 111 76 21
1.366421 -0.557916 2.701000 110 73 19
1.366421 -0.553188 2.701000 108 69 17
1.366421 -0.548460 2.701000 106 74 20
1.377045 -0.547959 2.722000 109 79 22
1.377045 -0.543194 2.722000 112 76 29
1.377045 -0.538429 2.722000 110 74 35
1.377045 -0.533664 2.722000 109 72 27
1.387669 -0.532980 2.743000 109 72 19
1.387669 -0.528178 2.743000 109 74 20
1.387669 -0.523377 2.743000 111 76 21
1.377045 -0.514605 2.722000 113 74 26
1.387669 -0.513774 2.743000 114 73 31
1.387669 -0.508972 2.743000 115 74 23
1.377045 -0.500310 2.722000 116 75 15
1.377045 -0.495546 2.722000 118 74 26
1.377045 -0.490781 2.722000 115 72 37
1.377045 -0.486016 2.722000 113 71 32
1.377045 -0.481251 2.722000 114 69 27
1.377045 -0.476486 2.722000 115 70 28
1.377045 -0.471721 2.722000 115 72 29
1.377045 -0.466956 2.722000 116 72 24
1.377045 -0.462192 2.722000 116 74 19
1.377045 -0.457427 2.722000 116 73 21
1.377045 -0.452662 2.722000 116 74 23
1.377045 -0.447897 2.722000 117 72 25
1.377045 -0.443132 2.722000 121 70 27
1.377045 -0.438367 2.722000 125 72 27
1.377045 -0.433602 2.722000 122 74 28
1.377045 -0.428837 2.722000 119 74 26
1.377045 -0.424073 2.722000 123 74 25
1.377045 -0.419308 2.722000 127 72 26
1.377045 -0.414543 2.722000 123 71 27
1.377045 -0.409778 2.722000 120 72 26
1.377045 -0.405013 2.722000 125 76 26
1.377045 -0.400248 2.722000 130 76 30
1.377045 -0.395483 2.722000 125 76 35
1.377045 -0.390719 2.722000 120 77 33
1.377045 -0.385954 2.722000 121 78 31
1.377045 -0.381189 2.722000 123 77 29
1.377045 -0.376424 2.722000 122 75 27
1.377045 -0.371659 2.722000 122 75 33
1.377045 -0.366894 2.722000 121 78 39
1.377045 -0.362129 2.722000 120 78 32
1.387669 -0.360122 2.743000 114 78 26
1.387669 -0.355320 2.743000 109 77 24
1.377045 -0.347835 2.722000 111 76 23
1.387669 -0.345717 2.743000 114 75 19
1.387669 -0.340915 2.743000 117 73 16
1.387669 -0.336113 2.743000 121 74 21
1.387669 -0.331312 2.743000 120 76 27
1.377045 -0.324011 2.722000 120 76 21
1.377045 -0.319246 2.722000 119 78 16
1.377045 -0.314481 2.722000 118 78 20
1.377045 -0.309716 2.722000 116 78 25
1.377045 -0.304951 2.722000 114 77 22
1.377045 -0.300186 2.722000 117 76 20
1.377045 -0.295421 2.722000 121 79 26
1.377045 -0.290656 2.722000 120 79 32
1.366421 -0.283686 2.701000 120 79 31
1.366421 -0.278958 2.701000 120 79 31
1.366421 -0.274230 2.701000 121 79 28
1.377045 -0.271597 2.722000 125 78 25
1.377045 -0.266832 2.722000 130 78 21
1.377045 -0.262067 2.722000 127 80 16
1.377045 -0.257302 2.722000 125 79 22
1.377045 -0.252538 2.722000 125 80 28
1.377045 -0.247773 2.722000 126 78 29
1.377045 -0.243008 2.722000 127 76 31
1.377045 -0.238243 2.722000 129 76 26
1.377045 -0.233478 2.722000 119 79 22
1.377045 -0.228713 2.722000 110 81 26
1.377045 -0.223948 2.722000 115 83 31
1.377045 -0.219184 2.722000 120 80 28
1.377045 -0.214419 2.722000 119 80 25
1.377045 -0.209654 2.722000 118 79 31
1.377045 -0.204889 2.722000 119 77 36
1.377045 -0.200124 2.722000 121 76 31
1.377045 -0.195359 2.722000 125 76 26
1.377045 -0.190594 2.722000 130 76 20
1.366421 -0.184396 2.701000 127 78 13
1.377045 -0.181065 2.722000 124 77 18
1.377045 -0.176300 2.722000 123 77 23
1.377045 -0.171535 2.722000 122 76 24
1.377045 -0.166770 2.722000 122 78 24
1.377045 -0.162005 2.722000 122 78 24
1.377045 -0.157240 2.722000 122 80 24
1.377045 -0.152475 2.722000 122 79 23
1.377045 -0.147711 2.722000 124 79 22
1.377045 -0.142946 2.722000 126 78 20
1.377045 -0.138181 2.722000 125 80 18
1.377045 -0.133416 2.722000 125 80 22
1.377045 -0.128651 2.722000 123 78 26
1.377045 -0.123886 2.722000 122 77 27
1.377045 -0.119121 2.722000 121 82 28
1.377045 -0.114357 2.722000 121 80 27
1.366421 -0.108746 2.701000 117 77 26
1.377045 -0.104827 2.722000 114 78 32
1.377045 -0.100062 2.722000 119 82 39
1.377045 -0.095297 2.722000 124 78 37
1.377045 -0.090532 2.722000 125 77 35
1.377045 -0.085767 2.722000 126 79 32
1.377045 -0.081003 2.722000 126 79 30
1.377045 -0.076238 2.722000 127 78 26
1.377045 -0.071473 2.722000 126 78 22
1.377045 -0.066708 2.722000 125 80 25
1.366421 -0.061465 2.701000 125 84 29
1.366421 -0.056737 2.701000 126 81 32
1.366421 -0.052009 2.701000 127 79 36
1.366421 -0.047281 2.701000 128 79 29
1.366421 -0.042553 2.701000 125 81 23
1.377045 -0.038119 2.722000 122 79 24
1.366421 -0.033097 2.701000 123 82 25
1.377045 -0.028589 2.722000 124 79 28
1.377045 -0.023824 2.722000 119 77 32
1.377045 -0.019059 2.722000 114 78 30
1.377045 -0.014295 2.722000 117 79 28
1.377045 -0.009530 2.722000 120 80 30
1.377045 -0.004765 2.722000 121 79 32
1.377045 -0.000000 2.722000 123 78 33
1.377045 0.004765 2.722000 124 77 35
1.377045 0.009530 2.722000 126 77 36
1.377045 0.014295 2.722000 129 78 38
1.377045 0.019060 2.722000 132 79 35
1.377045 0.023824 2.722000 127 77 32
1.377045 0.028589 2.722000 122 78 30
1.377045 0.033354 2.722000 118 80 29
1.377045 0.038119 2.722000 114 79 33
1.377045 0.042884 2.722000 119 79 38
1.377045 0.047649 2.722000 124 79 39
1.377045 0.052413 2.722000 125 78 40
1.377045 0.057178 2.722000 127 78 41
1.377045 0.061943 2.722000 124 78 42
1.366421 0.066193 2.701000 122 79 32
1.366421 0.070922 2.701000 125 79 22
1.366421 0.075650 2.701000 129 79 25
1.366421 0.080378 2.701000 127 80 28
1.366421 0.085106 2.701000 126 80 28
1.366421 0.089834 2.701000 119 81 28
1.377045 0.095297 2.722000 113 80 28
1.377045 0.100062 2.722000 118 79 28
1.377045 0.104827 2.722000 123 79 28
1.377045 0.109592 2.722000 121 82 29
1.377045 0.114357 2.722000 120 80 29
1.377045 0.119122 2.722000 121 78 30
1.377045 0.123886 2.722000 123 78 28
1.366421 0.127659 2.701000 119 78 26
1.366421 0.132387 2.701000 116 78 32
1.366421 0.137115 2.701000 120 77 37
1.366421 0.141843 2.701000 125 79 36
1.366421 0.146571 2.701000 126 82 35
1.377045 0.152476 2.722000 128 82 32
1.366421 0.156027 2.701000 126 82 30
1.366421 0.160756 2.701000 125 82 30
1.377045 0.166770 2.722000 126 82 31
1.377045 0.171535 2.722000 127 82 32
1.377045 0.176300 2.722000 131 82 34
1.377045 0.181065 2.722000 136 81 33
1.377045 0.185830 2.722000 133 81 32
1.377045 0.190595 2.722000 131 84 33
1.377045 0.195359 2.722000 130 87 34
1.377045 0.200124 2.722000 130 86 39
1.377045 0.204889 2.722000 133 85 45
1.377045 0.209654 2.722000 136 84 45
1.377045 0.214419 2.722000 133 86 46
1.377045 0.219184 2.722000 131 85 38
1.377045 0.223949 2.722000 135 84 30
1.377045 0.228713 2.722000 139 84 32
1.377045 0.233478 2.722000 133 85 33
1.377045 0.238243 2.722000 128 85 37
1.377045 0.243008 2.722000 127 84 40
1.377045 0.247773 2.722000 127 83 39
1.377045 0.252538 2.722000 127 80 39
1.377045 0.257303 2.722000 127 82 39
1.387669 0.264089 2.743000 123 87 40
1.387669 0.268891 2.743000 119 86 34
1.377045 0.271597 2.722000 122 86 28
1.377045 0.276362 2.722000 126 86 28
1.377045 0.281127 2.722000 127 88 28
1.366421 0.283686 2.701000 129 86 23
1.366421 0.288414 2.701000 130 84 18
1.366421 0.293142 2.701000 132 85 30
1.366421 0.297870 2.701000 130 89 43
1.366421 0.302599 2.701000 128 86 37
1.366421 0.307327 2.701000 128 84 31
1.366421 0.312055 2.701000 129 85 37
1.366421 0.316783 2.701000 132 87 43
1.366421 0.321511 2.701000 135 85 39
1.366421 0.326239 2.701000 134 85 35
1.366421 0.330967 2.701000 133 85 31
1.366421 0.335695 2.701000 133 87 27
1.366421 0.340423 2.701000 134 86 30
1.366421 0.345152 2.701000 132 87 33
1.355797 0.347159 2.680000 131 84 35
1.355797 0.351851 2.680000 129 82 38
1.355797 0.356542 2.680000 127 83 35
1.355797 0.361233 2.680000 128 84 33
1.355797 0.365925 2.680000 129 86 35
1.355797 0.370616 2.680000 131 88 37
1.355797 0.375307 2.680000 134 88 34
1.355797 0.379999 2.680000 133 85 31
1.355797 0.384690 2.680000 132 83 40
1.366421 0.392432 2.701000 135 83 50
1.366421 0.397161 2.701000 138 84 36
1.355797 0.398764 2.680000 136 86 22
1.366421 0.406617 2.701000 134 86 29
1.366421 0.411345 2.701000 135 87 37
1.366421 0.416073 2.701000 136 85 43
1.355797 0.417529 2.680000 134 83 50
1.355797 0.422221 2.680000 133 84 49
1.355797 0.426912 2.680000 130 85 48
1.355797 0.431603 2.680000 128 85 45
1.355797 0.436295 2.680000 129 86 43
1.355797 0.440986 2.680000 131 87 37
1.355797 0.445677 2.680000 131 89 31
1.366421 0.453898 2.701000 131 86 37
1.366421 0.458626 2.701000 133 84 42
1.366421 0.463354 2.701000 135 84 40
1.366421 0.468082 2.701000 135 85 38
1.366421 0.472810 2.701000 135 86 38
1.377045 0.481251 2.722000 135 87 39
1.377045 0.486016 2.722000 135 86 35
1.366421 0.486995 2.701000 132 85 32
1.366421 0.491723 2.701000 129 86 34
1.366421 0.496451 2.701000 124 87 37
1.366421 0.501179 2.701000 120 86 35
1.366421 0.505907 2.701000 123 84 33
1.366421 0.510635 2.701000 127 85 32
1.366421 0.515363 2.701000 128 87 31
1.366421 0.520091 2.701000 130 87 36
1.366421 0.524819 2.701000 131 89 41
1.355797 0.525430 2.680000 132 87 41
1.355797 0.530122 2.680000 130 89 41
1.355797 0.534813 2.680000 129 87 48
1.366421 0.543732 2.701000 131 86 56
1.366421 0.548460 2.701000 134 87 47
1.366421 0.553188 2.701000 132 87 38
1.366421 0.557916 2.701000 130 87 42
1.366421 0.562644 2.701000 126 87 46
1.355797 0.562961 2.680000 123 87 46
1.355797 0.567652 2.680000 131 87 47
1.355797 0.572344 2.680000 140 86 50
1.345174 0.572513 2.659000 125 87 53
1.345174 0.577168 2.659000 111 87 48
1.355797 0.586418 2.680000 116 88 43
1.355797 0.591109 2.680000 122 85 39
1.355797 0.595800 2.680000 122 83 35
1.355797 0.600492 2.680000 123 81 39
1.355797 0.605183 2.680000 124 81 43
1.355797 0.609874 2.680000 125 88 48
1.366421 0.619381 2.701000 67 90 53
1.366421 0.624109 2.701000 10 32 27
1.366421 0.628838 2.701000 10 1 1
1.366421 0.633566 2.701000 10 7 2
1.366421 0.638294 2.701000 13 13 2
1.366421 0.643022 2.701000 17 12 3
1.079073 0.675821 2.133000 130 106 83
1.072496 0.675413 2.120000 133 106 86
1.072496 0.679124 2.120000 133 106 88
1.072496 0.682835 2.120000 133 105 88
1.065920 0.682336 2.107000 131 104 88
1.059849 0.682117 2.095000 130 105 90
1.046696 0.677274 2.069000 130 105 92
1.046696 0.680896 2.069000 130 106 95
1.040625 0.680547 2.057000 132 108 98
1.022413 0.672175 2.021000 134 105 98
1.010777 0.668023 1.998000 141 104 98
1.004707 0.667487 1.986000 149 105 95
1.004707 0.670963 1.986000 138 106 92
1.004707 0.674440 1.986000 127 107 96
0.999142 0.674161 1.975000 129 108 100
0.999142 0.677619 1.975000 131 111 98
0.993577 0.677283 1.964000 129 113 96
0.981941 0.672749 1.941000 128 115 99
0.971317 0.668831 1.920000 132 116 102
0.960694 0.664840 1.899000 136 114 105
0.955129 0.664294 1.888000 135 114 107
0.950070 0.664063 1.878000 135 115 103
0.939952 0.660243 1.858000 136 114 99
0.934893 0.659925 1.848000 137 116 102
0.939952 0.666748 1.858000 136 117 105
0.929834 0.662788 1.838000 135 118 102
0.924775 0.662382 1.828000 138 122 99
0.915163 0.658664 1.809000 142 117 101
0.905551 0.654880 1.790000 140 113 103
0.900998 0.654705 1.781000 139 111 105
0.900998 0.657822 1.781000 141 106 107
0.900998 0.660940 1.781000 144 109 111
0.891892 0.657346 1.763000 139 110 115
0.882786 0.653689 1.745000 135 113 111
0.878233 0.653357 1.736000 129 115 107
0.869633 0.649968 1.719000 124 115 108
0.869633 0.652977 1.719000 133 114 109
0.865586 0.652933 1.711000 142 117 109
0.865586 0.655928 1.711000 140 125 109
0.861032 0.655457 1.702000 138 119 109
0.856985 0.655342 1.694000 138 117 109
0.852938 0.655198 1.686000 138 116 111
0.848385 0.654636 1.677000 139 114 113
0.844338 0.654435 1.669000 141 115 114
0.840291 0.654206 1.661000 141 114 115
0.836244 0.653948 1.653000 141 117 108
0.832197 0.653663 1.645000 141 118 101
0.828655 0.653749 1.638000 142 117 108
0.824608 0.653409 1.630000 141 117 114
0.824608 0.656263 1.630000 141 120 113
0.812973 0.649815 1.607000 140 120 112
0.805384 0.646537 1.592000 140 121 113
0.801843 0.646468 1.585000 141 122 114
0.798302 0.646376 1.578000 143 122 109
0.794760 0.646258 1.571000 141 120 104
0.794760 0.649009 1.571000 140 120 109
0.790713 0.648440 1.563000 141 119 115
0.787172 0.648259 1.556000 142 116 118
0.783631 0.648054 1.549000 142 114 121
1.403639 -0.992227 2.765000 101 64 19
1.403639 -0.987387 2.765000 103 65 13
1.392470 -0.974729 2.743000 103 64 8
1.392470 -0.969928 2.743000 103 64 11
1.392470 -0.965126 2.743000 99 61 14
1.392470 -0.960324 2.743000 95 61 15
1.392470 -0.955523 2.743000 98 61 17
1.392470 -0.950721 2.743000 102 63 16
1.392470 -0.945919 2.743000 102 63 15
1.392470 -0.941118 2.743000 102 62 16
1.392470 -0.936316 2.743000 102 62 17
1.392470 -0.931515 2.743000 102 65 18
1.392470 -0.926713 2.743000 101 68 20
1.381810 -0.914853 2.722000 101 71 20
1.381810 -0.910089 2.722000 101 71 20
1.381810 -0.905324 2.722000 102 71 17
1.381810 -0.900559 2.722000 101 64 14
1.381810 -0.895794 2.722000 99 64 18
1.381810 -0.891029 2.722000 101 67 23
1.381810 -0.886264 2.722000 102 71 18
1.381810 -0.881499 2.722000 100 67 13
