ply
format ascii 1.0
element vertex 1235
property float x
property float y
property float z
property uchar red
property uchar green
property uchar blue
end_header
-0.521148 0.927468 2.523000 161 138 153
-0.509994 0.911939 2.469000 163 141 155
-0.502765 0.903272 2.434000 165 145 155
-0.502765 0.907533 2.434000 169 150 156
-0.499253 0.905425 2.417000 173 157 166
-0.495742 0.903258 2.400000 176 163 176
-0.495742 0.907459 2.400000 180 160 171
-0.488925 0.899125 2.367000 188 166 167
-0.482315 0.891057 2.335000 196 183 174
-0.479217 0.889394 2.320000 193 185 182
-0.472814 0.881517 2.289000 191 174 182
-0.469715 0.879721 2.274000 191 175 182
-0.466617 0.877872 2.259000 192 178 179
-0.615654 1.010305 3.006000 154 137 140
-0.615654 1.015567 3.006000 156 137 139
-0.610329 1.011999 2.980000 159 136 140
-0.600089 1.000148 2.930000 151 134 141
-0.590053 0.988465 2.881000 144 133 141
-0.585138 0.985232 2.857000 146 132 141
-0.580427 0.982262 2.834000 149 134 141
-0.571006 0.971199 2.788000 150 136 140
-0.571006 0.976079 2.788000 152 135 140
-0.561790 0.965126 2.743000 152 133 139
-0.557489 0.962502 2.722000 153 136 138
-0.544586 0.944880 2.659000 158 148 138
-0.540490 0.942392 2.639000 164 150 145
-0.536394 0.939835 2.619000 165 149 152
-0.528406 0.930356 2.580000 167 151 153
-0.528406 0.934872 2.580000 170 156 154
-0.524310 0.932106 2.560000 174 156 150
-0.520623 0.930002 2.542000 166 154 147
-0.516732 0.927468 2.523000 159 141 145
-0.505672 0.911939 2.469000 161 138 143
-0.498504 0.903272 2.434000 163 142 149
-0.498504 0.907533 2.434000 167 149 155
-0.495022 0.905425 2.417000 172 156 161
-0.491540 0.903258 2.400000 175 163 168
-0.488264 0.901410 2.384000 179 159 166
-0.484782 0.899125 2.367000 185 157 164
-0.478228 0.891057 2.335000 192 177 174
-0.475156 0.889394 2.320000 192 193 185
-0.468807 0.881517 2.289000 192 180 181
-0.465735 0.879721 2.274000 191 177 178
-0.462662 0.877872 2.259000 190 174 176
-0.615875 1.019379 3.033000 152 138 138
-0.610393 1.015567 3.006000 153 136 137
-0.605113 1.011999 2.980000 154 136 137
-0.594960 1.000148 2.930000 150 134 137
-0.585010 0.988465 2.881000 146 134 138
-0.580137 0.985232 2.857000 147 132 140
-0.575467 0.982262 2.834000 148 133 139
-0.566126 0.971199 2.788000 148 134 139
-0.561456 0.968027 2.765000 149 136 137
-0.556988 0.965126 2.743000 150 131 136
-0.548460 0.955077 2.701000 151 127 136
-0.544196 0.952342 2.680000 156 142 136
-0.535870 0.942392 2.639000 162 150 143
-0.531809 0.939835 2.619000 163 149 151
-0.523890 0.930356 2.580000 165 150 151
-0.519829 0.927625 2.560000 169 154 151
-0.519829 0.932106 2.560000 173 160 147
-0.516174 0.930002 2.542000 164 152 143
-0.512316 0.927468 2.523000 155 134 137
-0.501350 0.911939 2.469000 157 136 132
-0.497695 0.909581 2.451000 159 137 143
-0.490791 0.901194 2.417000 166 149 154
-0.487339 0.899057 2.400000 174 157 157
-0.487339 0.903258 2.400000 174 159 161
-0.484090 0.901410 2.384000 175 159 161
-0.477390 0.893048 2.351000 183 162 161
-0.474141 0.891057 2.335000 191 176 174
-0.471095 0.889394 2.320000 191 181 188
-0.464800 0.881517 2.289000 190 179 181
-0.461754 0.879721 2.274000 188 174 175
-0.458708 0.877872 2.259000 187 165 174
-0.610566 1.014070 3.033000 153 136 136
-0.610566 1.019379 3.033000 151 135 136
-0.605130 1.015567 3.006000 150 136 136
-0.599896 1.011999 2.980000 150 135 136
-0.594864 1.008682 2.955000 149 135 136
-0.579967 0.988465 2.881000 148 134 135
-0.575136 0.985232 2.857000 148 131 134
-0.570505 0.982262 2.834000 148 132 135
-0.561245 0.971199 2.788000 147 134 136
-0.556615 0.968027 2.765000 146 132 135
-0.552186 0.965126 2.743000 148 129 133
-0.543732 0.955077 2.701000 150 132 132
-0.535277 0.944880 2.659000 155 144 131
-0.535277 0.949534 2.659000 160 147 140
-0.527224 0.939835 2.619000 162 147 148
-0.523198 0.937207 2.599000 164 148 148
-0.515347 0.927625 2.560000 168 153 148
-0.511724 0.925553 2.542000 172 156 146
-0.511724 0.930002 2.542000 162 160 144
-0.500652 0.914234 2.487000 152 141 141
-0.497028 0.911939 2.469000 154 136 138
-0.493405 0.909581 2.451000 156 143 143
-0.489982 0.907533 2.434000 166 155 149
-0.486560 0.905425 2.417000 176 156 154
-0.483138 0.903258 2.400000 174 158 160
-0.479917 0.901410 2.384000 172 158 158
-0.476495 0.899125 2.367000 181 159 157
-0.470053 0.891057 2.335000 191 172 170
-0.467033 0.889394 2.320000 190 177 183
-0.463813 0.887294 2.304000 189 177 178
-0.460793 0.885524 2.289000 186 175 172
-0.454754 0.877872 2.259000 184 166 172
-0.605256 1.008761 3.033000 150 136 134
-0.605256 1.014070 3.033000 149 135 133
-0.599868 1.010305 3.006000 148 132 134
-0.599868 1.015567 3.006000 147 133 136
-0.594680 1.011999 2.980000 146 135 135
-0.589691 1.008682 2.955000 146 135 135
-0.574924 0.988465 2.881000 146 138 132
-0.565545 0.977301 2.834000 145 134 129
-0.560755 0.973943 2.810000 145 132 131
-0.551775 0.963187 2.765000 143 131 134
-0.547385 0.960324 2.743000 142 129 132
-0.543194 0.957737 2.722000 145 129 131
-0.539004 0.955077 2.701000 147 129 129
-0.530622 0.944880 2.659000 153 140 127
-0.526631 0.942392 2.639000 158 148 136
-0.522640 0.939835 2.619000 159 144 146
-0.514857 0.930356 2.580000 160 143 145
-0.510866 0.927625 2.560000 163 150 145
-0.507274 0.925553 2.542000 166 154 145
-0.503482 0.923051 2.523000 158 149 145
-0.496298 0.914234 2.487000 150 137 145
-0.492706 0.911939 2.469000 153 139 145
-0.489114 0.909581 2.451000 157 144 144
-0.485722 0.907533 2.434000 163 151 144
-0.482329 0.905425 2.417000 170 157 151
-0.478937 0.903258 2.400000 169 157 159
-0.475744 0.901410 2.384000 169 157 156
-0.472351 0.899125 2.367000 180 162 154
-0.469159 0.897163 2.351000 191 176 166
-0.465966 0.895145 2.335000 189 180 179
-0.459779 0.887294 2.304000 187 179 174
-0.459779 0.891327 2.304000 184 175 170
-0.453793 0.883702 2.274000 182 160 170
-0.605090 1.017408 3.059000 146 134 135
-0.599947 1.014070 3.033000 145 136 133
-0.599947 1.019379 3.033000 145 131 133
-0.594606 1.015567 3.006000 144 132 133
-0.589463 1.011999 2.980000 143 131 133
-0.579573 1.000148 2.930000 144 135 133
-0.565133 0.980231 2.857000 145 133 131
-0.560584 0.977301 2.834000 143 138 130
-0.555836 0.973943 2.810000 142 131 130
-0.551485 0.971199 2.788000 140 130 131
-0.546935 0.968027 2.765000 139 126 131
-0.542583 0.965126 2.743000 142 129 130
-0.538429 0.962502 2.722000 145 131 129
-0.525967 0.944880 2.659000 151 139 127
-0.522011 0.942392 2.639000 157 142 135
-0.518055 0.939835 2.619000 156 140 142
-0.510341 0.930356 2.580000 156 142 142
-0.506385 0.927625 2.560000 158 150 141
-0.502824 0.925553 2.542000 161 150 141
-0.499066 0.923051 2.523000 155 147 140
-0.491945 0.914234 2.487000 149 137 142
-0.488384 0.911939 2.469000 153 141 145
-0.481461 0.903272 2.434000 158 145 143
-0.478098 0.901194 2.417000 161 151 142
-0.474736 0.899057 2.400000 165 153 149
-0.474736 0.903258 2.400000 165 156 156
-0.471571 0.901410 2.384000 166 155 152
-0.468208 0.899125 2.367000 178 156 149
-0.465043 0.897163 2.351000 191 169 157
-0.461878 0.895145 2.335000 188 188 165
-0.458911 0.893455 2.320000 185 178 166
-0.455746 0.891327 2.304000 183 187 166
-0.449812 0.883702 2.274000 181 163 164
-0.610715 1.030581 3.115000 142 131 138
-0.605225 1.026721 3.087000 143 129 136
-0.599735 1.022763 3.059000 142 129 134
-0.594638 1.019379 3.033000 141 127 132
-0.589344 1.015567 3.006000 140 126 131
-0.584247 1.011999 2.980000 140 125 131
-0.574444 1.000148 2.930000 140 127 131
-0.560132 0.980231 2.857000 140 124 131
-0.555623 0.977301 2.834000 139 126 131
-0.550917 0.973943 2.810000 138 124 130
-0.546604 0.971199 2.788000 137 124 129
-0.542095 0.968027 2.765000 136 118 129
-0.542095 0.972867 2.765000 139 123 130
-0.533665 0.962502 2.722000 142 127 129
-0.517392 0.937773 2.639000 148 135 128
-0.517392 0.942392 2.639000 154 142 133
-0.513471 0.939835 2.619000 154 140 139
-0.501903 0.923144 2.560000 153 136 138
-0.501903 0.927625 2.560000 157 143 138
-0.498374 0.925553 2.542000 162 149 137
-0.494649 0.923051 2.523000 152 142 136
-0.487591 0.914234 2.487000 143 125 140
-0.480533 0.905290 2.451000 148 134 145
-0.477200 0.903272 2.434000 154 144 142
-0.473867 0.901194 2.417000 158 148 140
-0.470534 0.899057 2.400000 162 149 146
-0.467398 0.897236 2.384000 164 152 153
-0.467398 0.901410 2.384000 166 151 149
-0.464065 0.899125 2.367000 174 155 145
-0.460928 0.897163 2.351000 181 159 148
-0.457791 0.895145 2.335000 182 176 152
-0.454850 0.893455 2.320000 183 160 157
-0.451713 0.891327 2.304000 178 167 163
-0.445831 0.883702 2.274000 173 145 158
-0.605262 1.030581 3.115000 139 127 134
-0.599821 1.026721 3.087000 140 126 132
-0.594381 1.022763 3.059000 139 126 131
-0.589329 1.019379 3.033000 138 124 128
-0.589329 1.024689 3.033000 137 122 126
-0.579031 1.011999 2.980000 137 123 127
-0.564458 0.991615 2.905000 136 124 129
-0.559794 0.988465 2.881000 135 120 128
-0.550662 0.977301 2.834000 134 118 128
-0.545999 0.973943 2.810000 134 120 127
-0.541724 0.971199 2.788000 134 124 126
-0.537255 0.968027 2.765000 134 119 127
-0.537255 0.972867 2.765000 137 120 128
-0.528900 0.962502 2.722000 140 124 125
-0.524819 0.959805 2.701000 146 133 122
-0.516658 0.949534 2.659000 152 138 129
-0.512772 0.947012 2.639000 151 144 137
-0.508886 0.944420 2.619000 151 136 135
-0.497422 0.927625 2.560000 157 139 134
-0.493925 0.925553 2.542000 163 142 137
-0.490233 0.923051 2.523000 150 147 139
-0.483238 0.914234 2.487000 138 128 138
-0.476243 0.905290 2.451000 144 128 138
-0.472940 0.903272 2.434000 150 136 137
-0.469637 0.901194 2.417000 155 150 137
-0.466333 0.899057 2.400000 160 145 139
-0.463224 0.897236 2.384000 163 152 142
-0.459921 0.894982 2.367000 167 146 139
-0.459921 0.899125 2.367000 169 156 135
-0.456812 0.897163 2.351000 172 153 140
-0.453703 0.895145 2.335000 176 197 145
-0.450789 0.893455 2.320000 181 167 152
-0.447680 0.891327 2.304000 173 179 159
-0.444765 0.889531 2.289000 166 154 155
-0.605200 1.034343 3.143000 135 124 130
-0.599809 1.030581 3.115000 136 125 130
-0.594417 1.026721 3.087000 138 125 129
-0.589026 1.022763 3.059000 136 123 128
-0.584019 1.019379 3.033000 134 122 124
-0.578820 1.015567 3.006000 134 121 121
-0.569000 1.003509 2.955000 133 122 124
-0.554751 0.983422 2.881000 132 119 127
-0.550130 0.980231 2.857000 131 115 126
-0.545701 0.977301 2.834000 131 115 125
-0.536843 0.966318 2.788000 130 116 124
-0.532415 0.963187 2.765000 130 119 124
-0.528178 0.960324 2.743000 130 116 125
-0.528178 0.965126 2.743000 132 117 126
-0.524135 0.962502 2.722000 134 118 121
-0.520091 0.959805 2.701000 140 127 117
-0.512004 0.949534 2.659000 147 133 126
-0.508153 0.947012 2.639000 145 133 135
-0.504302 0.944420 2.619000 144 127 133
-0.496792 0.934872 2.580000 146 131 131
-0.489475 0.925553 2.542000 147 133 137
-0.485816 0.923051 2.523000 140 131 143
-0.478884 0.914234 2.487000 133 114 137
-0.475418 0.911939 2.469000 139 122 131
-0.471952 0.909581 2.451000 145 125 132
-0.468679 0.907533 2.434000 146 133 134
-0.462132 0.899057 2.400000 148 129 133
-0.459051 0.897236 2.384000 148 133 132
-0.455778 0.894982 2.367000 148 126 129
-0.455778 0.899125 2.367000 148 125 126
-0.452697 0.897163 2.351000 149 100 132
-0.449616 0.895145 2.335000 154 142 138
-0.446728 0.893455 2.320000 159 134 147
-0.443647 0.891327 2.304000 156 144 156
-0.440758 0.889531 2.289000 153 126 153
-0.599699 1.034343 3.143000 131 118 127
-0.594356 1.030581 3.115000 133 124 129
-0.594356 1.036034 3.115000 136 123 126
-0.589014 1.032125 3.087000 133 121 124
-0.578710 1.019379 3.033000 131 118 121
-0.573558 1.015567 3.006000 130 121 119
-0.563827 1.003509 2.955000 130 118 119
-0.554287 0.991615 2.905000 129 115 120
-0.545129 0.980231 2.857000 128 113 121
-0.540740 0.977301 2.834000 127 111 122
-0.536161 0.973943 2.810000 127 114 122
-0.531963 0.971199 2.788000 126 121 123
-0.523377 0.960324 2.743000 126 115 122
-0.527575 0.972867 2.765000 127 114 121
-0.519370 0.962502 2.722000 129 116 117
-0.515363 0.959805 2.701000 135 127 114
-0.507349 0.949534 2.659000 142 130 120
-0.499717 0.939835 2.619000 140 131 127
-0.495901 0.937207 2.599000 138 125 127
-0.488460 0.927625 2.560000 135 128 128
-0.485025 0.925553 2.542000 132 125 130
-0.481400 0.923051 2.523000 130 133 132
-0.474531 0.914234 2.487000 129 117 129
-0.471096 0.911939 2.469000 135 122 126
-0.471096 0.916261 2.469000 141 119 128
-0.467662 0.913871 2.451000 138 128 131
-0.461175 0.905425 2.417000 136 125 131
-0.457931 0.903258 2.400000 132 128 130
-0.451634 0.894982 2.367000 129 121 129
-0.451634 0.899125 2.367000 128 118 127
-0.448582 0.897163 2.351000 127 114 129
-0.442667 0.889394 2.320000 132 139 130
-0.439614 0.887294 2.304000 138 133 135
-0.436752 0.885524 2.289000 139 137 139
-0.433890 0.883702 2.274000 140 132 142
-0.594197 1.034343 3.143000 127 111 124
-0.588903 1.030581 3.115000 129 117 129
-0.583610 1.026721 3.087000 131 122 124
-0.583610 1.032125 3.087000 129 118 120
-0.578316 1.028118 3.059000 127 111 118
-0.568296 1.015567 3.006000 126 115 117
-0.563381 1.011999 2.980000 125 117 115
-0.549202 0.991615 2.905000 124 113 113
-0.540127 0.980231 2.857000 124 114 116
-0.535779 0.977301 2.834000 124 112 119
-0.527083 0.966318 2.788000 124 111 120
-0.522734 0.963187 2.765000 122 112 122
-0.522734 0.968027 2.765000 121 109 119
-0.518575 0.965126 2.743000 122 107 116
-0.514605 0.962502 2.722000 124 105 114
-0.506665 0.952342 2.680000 130 119 112
-0.498914 0.942392 2.639000 136 131 115
-0.491351 0.932658 2.599000 134 126 119
-0.487759 0.930356 2.580000 133 114 122
-0.483978 0.927625 2.560000 130 113 125
-0.480575 0.925553 2.542000 128 106 123
-0.476983 0.923051 2.523000 124 112 121
-0.470177 0.914234 2.487000 121 102 121
-0.466774 0.911939 2.469000 123 106 121
-0.463371 0.909581 2.451000 126 101 125
-0.463371 0.913871 2.451000 125 113 129
-0.456944 0.905425 2.417000 124 117 129
-0.453730 0.903258 2.400000 125 117 129
-0.447491 0.894982 2.367000 126 112 129
-0.444466 0.893048 2.351000 125 109 129
-0.441441 0.891057 2.335000 124 101 126
-0.438605 0.889394 2.320000 130 117 123
-0.432745 0.881517 2.289000 135 124 123
-0.432745 0.885524 2.289000 136 129 123
-0.429909 0.883702 2.274000 137 128 131
-0.583450 1.025128 3.115000 123 112 121
-0.583450 1.030581 3.115000 124 111 124
-0.578206 1.026721 3.087000 126 114 122
-0.578206 1.032125 3.087000 124 120 121
-0.572962 1.028118 3.059000 123 111 117
-0.572962 1.033473 3.059000 122 111 113
-0.558165 1.011999 2.980000 121 108 112
-0.544117 0.991615 2.905000 120 106 111
-0.535126 0.980231 2.857000 120 108 112
-0.530818 0.977301 2.834000 121 113 114
-0.526323 0.973943 2.810000 122 110 116
-0.522202 0.971199 2.788000 119 109 118
-0.517894 0.968027 2.765000 116 104 115
-0.517894 0.972867 2.765000 118 103 112
-0.513774 0.969928 2.743000 120 104 110
-0.505907 0.959805 2.701000 125 114 107
-0.501974 0.957034 2.680000 131 122 113
-0.486802 0.932658 2.599000 129 128 119
-0.483243 0.930356 2.580000 128 113 120
-0.479497 0.927625 2.560000 126 105 121
-0.476126 0.925553 2.542000 124 107 118
-0.469195 0.916466 2.505000 118 107 116
-0.465824 0.914234 2.487000 113 103 116
-0.462452 0.911939 2.469000 112 101 116
-0.459081 0.909581 2.451000 111 104 119
-0.455897 0.907533 2.434000 112 107 122
-0.452713 0.905425 2.417000 113 108 124
-0.446532 0.897236 2.384000 118 113 126
-0.440351 0.888932 2.351000 124 110 125
-0.440351 0.893048 2.351000 123 107 124
-0.437354 0.891057 2.335000 122 104 123
-0.434544 0.889394 2.320000 127 104 122
-0.431547 0.887294 2.304000 133 117 123
-0.428738 0.885524 2.289000 134 129 125
-0.425928 0.883702 2.274000 135 125 129
-0.729223 1.183268 3.930000 108 98 105
-0.720874 1.176520 3.885000 110 98 108
-0.720874 1.183321 3.885000 112 99 108
-0.577998 1.025128 3.115000 119 111 118
-0.572802 1.021317 3.087000 119 108 120
-0.572802 1.026721 3.087000 120 105 121
-0.567607 1.022763 3.059000 119 107 122
-0.567607 1.028118 3.059000 118 103 116
-0.562782 1.024689 3.033000 117 102 110
-0.552948 1.011999 2.980000 116 100 109
-0.539032 0.991615 2.905000 116 101 109
-0.534578 0.988465 2.881000 116 100 109
-0.530125 0.985232 2.857000 116 105 110
-0.521404 0.973943 2.810000 117 107 112
-0.517322 0.971199 2.788000 114 102 115
-0.513054 0.968027 2.765000 112 97 112
-0.513054 0.972867 2.765000 114 98 109
-0.508972 0.969928 2.743000 116 96 106
-0.501179 0.959805 2.701000 121 108 103
-0.497282 0.957034 2.680000 126 115 111
-0.485963 0.939835 2.619000 124 115 120
-0.478727 0.930356 2.580000 123 108 119
-0.475016 0.927625 2.560000 121 106 118
-0.471676 0.925553 2.542000 120 110 114
-0.464810 0.916466 2.505000 116 106 111
-0.461470 0.914234 2.487000 112 103 111
-0.458131 0.911939 2.469000 112 103 112
-0.454791 0.909581 2.451000 112 109 113
-0.451636 0.907533 2.434000 112 105 115
-0.448482 0.905425 2.417000 112 97 119
-0.442358 0.897236 2.384000 115 104 123
-0.439204 0.894982 2.367000 119 109 121
-0.436235 0.893048 2.351000 119 107 119
-0.433266 0.891057 2.335000 119 106 120
-0.430483 0.889394 2.320000 124 107 122
-0.424731 0.881517 2.289000 128 111 124
-0.424731 0.885524 2.289000 130 120 127
-0.419164 0.877872 2.259000 131 122 128
-0.722344 1.169509 3.930000 107 97 103
-0.722344 1.176389 3.930000 104 99 103
-0.722344 1.183268 3.930000 101 94 103
-0.722344 1.190148 3.930000 104 93 104
-0.714073 1.183321 3.885000 107 94 105
-0.714073 1.190121 3.885000 107 94 107
-0.642022 1.094495 3.493000 106 94 112
-0.572545 1.025128 3.115000 116 104 114
-0.572545 1.030581 3.115000 115 105 116
-0.567398 1.026721 3.087000 114 102 117
-0.567398 1.032125 3.087000 113 101 118
-0.562252 1.028118 3.059000 113 99 113
-0.557473 1.024689 3.033000 112 96 109
-0.552510 1.020829 3.006000 111 97 108
-0.533946 0.991615 2.905000 111 98 107
-0.529535 0.988465 2.881000 112 99 106
-0.520896 0.977301 2.834000 112 101 106
-0.516485 0.973943 2.810000 112 101 108
-0.508214 0.963187 2.765000 110 98 110
-0.504170 0.960324 2.743000 108 96 109
-0.504170 0.965126 2.743000 110 96 108
-0.500310 0.962502 2.722000 113 99 105
-0.496451 0.959805 2.701000 117 107 102
-0.492591 0.957034 2.680000 121 111 109
-0.481379 0.939835 2.619000 120 112 116
-0.474211 0.930356 2.580000 119 105 116
-0.470535 0.927625 2.560000 117 102 115
-0.467226 0.925553 2.542000 116 104 114
-0.460425 0.916466 2.505000 114 106 112
-0.457117 0.914234 2.487000 112 101 111
-0.453808 0.911939 2.469000 112 100 110
-0.450500 0.909581 2.451000 113 103 112
-0.447375 0.907533 2.434000 112 109 114
-0.444251 0.905425 2.417000 112 99 116
-0.438185 0.897236 2.384000 113 97 118
-0.435061 0.894982 2.367000 114 101 118
-0.432120 0.893048 2.351000 115 108 117
-0.429179 0.891057 2.335000 117 106 118
-0.426422 0.889394 2.320000 120 107 120
-0.423481 0.887294 2.304000 124 111 121
-0.420724 0.885524 2.289000 126 120 123
-0.415210 0.877872 2.259000 128 120 125
-0.723657 1.175942 3.975000 99 91 101
-0.723657 1.182901 3.975000 102 93 102
-0.723657 1.189859 3.975000 99 91 103
-0.715464 1.183268 3.930000 97 87 102
-0.715464 1.190148 3.930000 99 89 101
-0.715464 1.197027 3.930000 102 90 103
-0.715464 1.203907 3.930000 103 92 106
-0.655751 1.116038 3.602000 104 94 109
-0.642280 1.099286 3.528000 104 94 108
-0.642280 1.105462 3.528000 103 94 108
-0.629536 1.089581 3.458000 103 97 107
-0.629536 1.095635 3.458000 103 98 107
-0.617156 1.080024 3.390000 103 98 110
-0.568731 1.028090 3.124000 112 102 110
-0.561995 1.021317 3.087000 111 101 112
-0.561995 1.026721 3.087000 110 100 113
-0.556897 1.022763 3.059000 110 98 114
-0.552164 1.019379 3.033000 109 98 111
-0.547248 1.015567 3.006000 108 97 108
-0.542515 1.011999 2.980000 108 97 106
-0.528861 0.991615 2.905000 108 97 105
-0.520123 0.980231 2.857000 108 97 104
-0.515935 0.977301 2.834000 108 98 103
-0.507561 0.966318 2.788000 108 99 104
-0.503374 0.963187 2.765000 107 96 105
-0.499369 0.960324 2.743000 105 95 106
-0.495546 0.957737 2.722000 107 95 107
-0.495546 0.962502 2.722000 109 98 104
-0.491723 0.959805 2.701000 113 105 102
-0.484076 0.949534 2.659000 118 112 107
-0.476794 0.939835 2.619000 116 108 113
-0.469694 0.930356 2.580000 115 100 113
-0.466053 0.927625 2.560000 113 99 113
-0.462776 0.925553 2.542000 112 100 113
-0.456040 0.916466 2.505000 110 99 114
-0.452763 0.914234 2.487000 109 98 111
-0.449486 0.911939 2.469000 109 97 109
-0.446210 0.909581 2.451000 110 95 111
-0.443115 0.907533 2.434000 108 97 113
-0.440020 0.905425 2.417000 107 94 113
-0.430917 0.890838 2.367000 108 94 114
-0.428004 0.888932 2.351000 109 92 115
-0.428004 0.893048 2.351000 112 100 116
-0.425092 0.891057 2.335000 115 105 117
-0.422361 0.889394 2.320000 118 106 118
-0.419448 0.887294 2.304000 122 108 119
-0.416717 0.885524 2.289000 124 114 120
-0.411256 0.877872 2.259000 125 119 122
-0.716698 1.182901 3.975000 97 89 99
-0.716698 1.189859 3.975000 95 87 99
-0.708585 1.183268 3.930000 93 86 98
-0.708585 1.190148 3.930000 95 86 98
-0.700471 1.183321 3.885000 98 88 101
-0.692718 1.176949 3.842000 100 91 104
-0.663329 1.133456 3.679000 103 92 104
-0.649446 1.116038 3.602000 102 93 105
-0.642775 1.110815 3.565000 101 92 105
-0.636104 1.105462 3.528000 100 91 105
-0.629793 1.100610 3.493000 100 95 105
-0.617172 1.084545 3.423000 100 101 105
-0.617172 1.090537 3.423000 100 95 107
-0.611222 1.085958 3.390000 99 92 109
-0.599322 1.070634 3.324000 98 90 107
-0.593733 1.066413 3.293000 101 89 105
-0.564885 1.031052 3.133000 108 98 108
-0.561639 1.030581 3.115000 107 98 109
-0.556591 1.026721 3.087000 107 97 109
-0.551542 1.022763 3.059000 106 96 108
-0.546854 1.019379 3.033000 106 97 107
-0.541986 1.015567 3.006000 105 98 107
-0.541986 1.020829 3.006000 105 96 104
-0.523776 0.991615 2.905000 105 96 102
-0.519449 0.988465 2.881000 105 96 102
-0.510974 0.977301 2.834000 105 96 102
-0.502681 0.966318 2.788000 105 96 103
-0.494567 0.955523 2.743000 104 95 105
-0.490781 0.952972 2.722000 103 93 102
-0.490781 0.957737 2.722000 104 92 99
-0.486994 0.955077 2.701000 105 96 101
-0.486994 0.959805 2.701000 110 105 103
-0.483208 0.957034 2.680000 115 108 107
-0.472210 0.939835 2.619000 113 108 112
-0.465178 0.930356 2.580000 111 101 111
-0.461572 0.927625 2.560000 109 97 110
-0.458326 0.925553 2.542000 108 97 110
-0.451655 0.916466 2.505000 107 95 111
-0.448410 0.914234 2.487000 106 95 109
-0.445164 0.911939 2.469000 106 97 108
-0.435789 0.896963 2.417000 107 95 108
-0.435789 0.901194 2.417000 105 92 109
-0.432724 0.899057 2.400000 103 93 110
-0.426774 0.890838 2.367000 103 93 112
-0.423889 0.888932 2.351000 104 93 112
-0.423889 0.893048 2.351000 108 96 113
-0.421004 0.891057 2.335000 113 102 115
-0.418299 0.889394 2.320000 117 107 117
-0.415415 0.887294 2.304000 121 109 119
-0.412710 0.885524 2.289000 122 112 121
-0.407301 0.877872 2.259000 123 112 122
-0.709740 1.182901 3.975000 94 88 96
-0.709740 1.189859 3.975000 92 85 95
-0.701706 1.183268 3.930000 90 84 95
-0.701706 1.190148 3.930000 93 84 95
-0.693671 1.183321 3.885000 96 86 98
-0.693671 1.190121 3.885000 98 88 102
-0.656889 1.133456 3.679000 100 91 102
-0.649926 1.127812 3.640000 100 91 102
-0.636534 1.110815 3.565000 100 91 102
-0.629928 1.105462 3.528000 99 91 103
-0.623679 1.100610 3.493000 98 93 103
-0.611180 1.084545 3.423000 97 93 104
-0.611180 1.090537 3.423000 97 92 104
-0.599396 1.075387 3.357000 96 90 105
-0.593504 1.070634 3.324000 96 90 104
-0.587969 1.066413 3.293000 98 90 103
-0.561186 1.023339 3.143000 101 92 105
-0.561186 1.034343 3.143000 104 96 107
-0.556186 1.030581 3.115000 104 95 107
-0.556186 1.036034 3.115000 104 95 105
-0.551187 1.032125 3.087000 103 95 103
-0.551187 1.037529 3.087000 103 98 104
-0.536724 1.015567 3.006000 102 96 106
-0.532082 1.011999 2.980000 102 94 103
-0.518691 0.991615 2.905000 101 94 100
-0.514405 0.988465 2.881000 101 95 101
-0.506014 0.977301 2.834000 101 94 102
-0.497800 0.966318 2.788000 102 95 103
-0.489765 0.955523 2.743000 101 93 105
-0.486016 0.952972 2.722000 101 91 98
-0.482266 0.950348 2.701000 102 90 91
-0.482266 0.955077 2.701000 103 89 97
-0.482266 0.959805 2.701000 108 99 104
-0.478517 0.957034 2.680000 112 107 107
-0.471196 0.947012 2.639000 110 104 111
-0.460662 0.930356 2.580000 108 99 109
-0.460662 0.934872 2.580000 106 97 107
-0.453877 0.925553 2.542000 104 97 108
-0.447270 0.916466 2.505000 104 93 109
-0.444056 0.914234 2.487000 104 92 108
-0.440843 0.911939 2.469000 104 95 107
-0.434593 0.903272 2.434000 104 96 106
-0.431558 0.901194 2.417000 102 94 106
-0.428522 0.899057 2.400000 101 94 108
-0.425666 0.897236 2.384000 102 93 110
-0.422630 0.894982 2.367000 104 94 110
-0.419773 0.893048 2.351000 108 98 111
-0.416917 0.891057 2.335000 112 103 113
-0.416917 0.895145 2.335000 115 105 116
-0.411382 0.887294 2.304000 119 111 119
-0.408703 0.885524 2.289000 120 110 122
-0.406025 0.883702 2.274000 121 110 121
-0.702782 1.182901 3.975000 92 83 93
-0.702782 1.189859 3.975000 90 83 93
-0.694826 1.183268 3.930000 88 82 93
-0.686870 1.176520 3.885000 91 82 93
-0.686870 1.183321 3.885000 94 84 96
-0.671842 1.164083 3.800000 96 86 99
-0.650449 1.133456 3.679000 98 89 100
-0.643554 1.127812 3.640000 98 90 101
-0.630294 1.110815 3.565000 99 90 101
-0.623752 1.105462 3.528000 98 89 102
-0.617564 1.100610 3.493000 97 89 102
-0.605188 1.084545 3.423000 95 87 102
-0.605188 1.090537 3.423000 94 88 102
-0.599354 1.085958 3.390000 94 88 101
-0.587685 1.070634 3.324000 95 88 101
-0.582204 1.066413 3.293000 96 89 101
-0.555684 1.023339 3.143000 98 90 102
-0.555684 1.028841 3.143000 99 92 104
-0.555684 1.034343 3.143000 101 93 104
-0.550734 1.030581 3.115000 101 94 105
-0.550734 1.036034 3.115000 102 93 101
-0.545783 1.032125 3.087000 101 93 97
-0.531462 1.010305 3.006000 100 94 100
-0.526866 1.006783 2.980000 99 94 104
-0.513606 0.986529 2.905000 99 93 100
-0.496810 0.964105 2.810000 98 93 98
-0.496810 0.969024 2.810000 98 93 100
-0.492920 0.966318 2.788000 99 92 101
-0.484964 0.955523 2.743000 99 91 102
-0.481251 0.952972 2.722000 99 89 98
-0.481251 0.957737 2.722000 100 88 95
-0.477538 0.955077 2.701000 102 90 98
-0.477538 0.959805 2.701000 106 97 102
-0.473825 0.957034 2.680000 110 102 105
-0.470113 0.954189 2.659000 108 102 108
-0.459505 0.937207 2.599000 106 98 106
-0.456145 0.934872 2.580000 103 96 105
-0.452609 0.932106 2.560000 101 94 105
-0.442885 0.916466 2.505000 102 91 105
-0.439703 0.914234 2.487000 103 92 105
-0.433338 0.905290 2.451000 102 95 105
-0.430332 0.903272 2.434000 102 94 105
-0.427327 0.901194 2.417000 100 95 106
-0.424321 0.899057 2.400000 99 93 107
-0.421492 0.897236 2.384000 101 92 108
-0.418487 0.894982 2.367000 104 94 109
-0.415658 0.893048 2.351000 107 99 109
-0.412829 0.891057 2.335000 111 100 112
-0.412829 0.895145 2.335000 114 102 115
-0.410177 0.893455 2.320000 118 107 117
-0.404696 0.885524 2.289000 119 110 119
-0.402044 0.883702 2.274000 120 108 119
-0.695824 1.182901 3.975000 89 82 91
-0.695824 1.189859 3.975000 87 81 91
-0.687947 1.183268 3.930000 85 80 91
-0.680069 1.176520 3.885000 88 81 92
-0.672542 1.170224 3.842000 92 84 94
-0.658013 1.151523 3.759000 94 86 97
-0.644009 1.133456 3.679000 96 89 98
-0.637182 1.127812 3.640000 96 89 100
-0.624053 1.110815 3.565000 97 90 101
-0.617576 1.105462 3.528000 96 89 102
-0.611450 1.100610 3.493000 95 89 101
-0.605323 1.095635 3.458000 94 87 101
-0.599196 1.090537 3.423000 93 87 99
-0.599196 1.096529 3.423000 93 86 98
-0.581866 1.070634 3.324000 94 86 98
-0.576440 1.066413 3.293000 95 86 99
-0.545281 1.014223 3.115000 96 88 100
-0.545281 1.019675 3.115000 97 90 101
-0.545281 1.025128 3.115000 99 93 102
-0.545281 1.030581 3.115000 99 92 103
-0.540379 1.026721 3.087000 100 91 97
-0.540379 1.032125 3.087000 99 91 91
-0.535478 1.028118 3.059000 98 93 97
-0.521649 1.006783 2.980000 97 91 103
-0.491891 0.954268 2.810000 95 91 98
-0.491891 0.964105 2.810000 98 92 95
-0.491891 0.969024 2.810000 99 91 98
-0.484013 0.958346 2.765000 101 89 99
-0.480162 0.955523 2.743000 99 89 100
-0.476486 0.952972 2.722000 98 88 99
-0.476486 0.957737 2.722000 99 88 99
-0.472810 0.955077 2.701000 101 89 99
-0.472810 0.959805 2.701000 107 96 100
-0.469134 0.957034 2.680000 113 103 102
-0.465458 0.954189 2.659000 109 100 105
-0.461957 0.951632 2.639000 105 97 104
-0.458456 0.949004 2.619000 103 94 103
-0.451629 0.939389 2.580000 101 94 102
-0.438500 0.916466 2.505000 101 92 101
-0.435349 0.914234 2.487000 102 93 102
-0.429048 0.905290 2.451000 101 93 103
-0.426072 0.903272 2.434000 101 93 105
-0.423096 0.901194 2.417000 99 93 107
-0.420120 0.899057 2.400000 98 93 107
-0.417319 0.897236 2.384000 99 91 107
-0.414343 0.894982 2.367000 101 91 107
-0.411543 0.893048 2.351000 105 95 108
-0.408742 0.891057 2.335000 109 98 111
-0.406116 0.889394 2.320000 112 101 115
-0.406116 0.893455 2.320000 115 106 115
-0.400689 0.885524 2.289000 116 107 116
-0.398064 0.883702 2.274000 116 108 117
-0.688866 1.182901 3.975000 86 80 89
-0.688866 1.189859 3.975000 84 79 90
-0.681067 1.183268 3.930000 82 79 91
-0.673269 1.176520 3.885000 86 81 92
-0.637569 1.133456 3.679000 94 88 97
-0.630810 1.127812 3.640000 94 89 99
-0.617813 1.110815 3.565000 95 89 100
-0.611401 1.105462 3.528000 94 89 101
-0.605335 1.100610 3.493000 93 87 100
-0.599270 1.095635 3.458000 92 87 99
-0.593204 1.090537 3.423000 92 85 96
-0.587485 1.085958 3.390000 92 85 94
-0.576048 1.070634 3.324000 93 83 92
-0.570675 1.066413 3.293000 94 83 91
-0.544680 1.023339 3.143000 95 86 94
-0.544680 1.028841 3.143000 96 90 97
-0.544680 1.034343 3.143000 97 91 98
-0.539828 1.030581 3.115000 98 92 100
-0.534976 1.026721 3.087000 99 91 101
-0.534976 1.032125 3.087000 98 90 102
-0.530123 1.028118 3.059000 97 90 103
-0.516433 1.006783 2.980000 94 89 104
-0.491131 0.962418 2.834000 92 89 102
-0.491131 0.972340 2.834000 98 90 99
-0.491131 0.977301 2.834000 100 90 98
-0.483159 0.966318 2.788000 103 89 97
-0.475361 0.955523 2.743000 100 88 97
-0.471721 0.952972 2.722000 97 87 97
-0.468082 0.950348 2.701000 98 87 96
-0.468082 0.955077 2.701000 100 89 97
-0.464443 0.952342 2.680000 108 95 99
-0.464443 0.957034 2.680000 117 98 102
-0.460803 0.954189 2.659000 110 99 106
-0.457337 0.951632 2.639000 104 96 103
-0.453872 0.949004 2.619000 102 92 101
-0.450406 0.946306 2.599000 101 92 100
-0.434115 0.916466 2.505000 101 93 99
-0.421811 0.894751 2.434000 101 92 100
-0.421811 0.899011 2.434000 100 91 101
-0.418865 0.896963 2.417000 100 92 102
-0.418865 0.901194 2.417000 98 92 104
-0.415919 0.899057 2.400000 97 92 104
-0.413146 0.897236 2.384000 98 91 105
-0.410200 0.894982 2.367000 99 92 106
-0.407427 0.893048 2.351000 103 94 107
-0.404654 0.891057 2.335000 107 97 111
-0.402055 0.889394 2.320000 110 101 114
-0.399282 0.887294 2.304000 113 103 115
-0.396683 0.885524 2.289000 113 106 116
-0.394083 0.883702 2.274000 113 103 115
-0.681907 1.182901 3.975000 85 79 88
-0.681907 1.189859 3.975000 84 78 89
-0.674188 1.183268 3.930000 84 79 90
-0.617920 1.116038 3.602000 94 89 99
-0.611572 1.110815 3.565000 94 90 99
-0.605225 1.105462 3.528000 94 88 100
-0.599221 1.100610 3.493000 95 86 99
-0.593216 1.095635 3.458000 93 86 98
-0.587212 1.090537 3.423000 91 84 94
-0.581551 1.085958 3.390000 92 83 90
-0.570229 1.070634 3.324000 92 80 86
-0.554275 1.046335 3.231000 93 82 83
-0.544153 1.032781 3.172000 94 85 88
-0.539178 1.028841 3.143000 95 89 93
-0.539178 1.034343 3.143000 96 91 95
-0.534375 1.030581 3.115000 97 91 98
-0.534375 1.036034 3.115000 98 92 106
-0.529572 1.032125 3.087000 98 90 114
-0.524768 1.028118 3.059000 97 91 109
-0.511216 1.006783 2.980000 95 89 105
-0.494233 0.978379 2.881000 93 90 106
-0.486170 0.972340 2.834000 98 91 102
-0.486170 0.977301 2.834000 99 90 98
-0.478279 0.966318 2.788000 100 90 96
-0.470559 0.955523 2.743000 97 88 95
-0.463354 0.945620 2.701000 95 86 94
-0.463354 0.950348 2.701000 96 86 94
-0.459751 0.947651 2.680000 98 88 96
-0.459751 0.952342 2.680000 104 94 98
-0.456149 0.949534 2.659000 111 98 102
-0.456149 0.954189 2.659000 107 97 107
-0.452718 0.951632 2.639000 103 96 103
-0.449287 0.949004 2.619000 101 93 99
-0.445856 0.946306 2.599000 100 90 98
-0.420467 0.896710 2.451000 100 90 98
-0.420467 0.901000 2.451000 101 91 99
-0.414634 0.892732 2.417000 102 91 100
-0.414634 0.896963 2.417000 103 92 100
-0.414634 0.901194 2.417000 101 92 101
-0.411718 0.899057 2.400000 99 93 102
-0.408973 0.897236 2.384000 99 91 103
-0.406056 0.894982 2.367000 99 92 105
-0.403312 0.893048 2.351000 102 94 107
-0.400567 0.891057 2.335000 105 98 110
-0.397994 0.889394 2.320000 108 99 114
-0.395249 0.887294 2.304000 111 102 115
-0.392676 0.885524 2.289000 111 103 116
-0.390102 0.883702 2.274000 111 101 113
-0.611614 1.116038 3.602000 93 89 98
-0.605332 1.110815 3.565000 94 88 98
-0.599049 1.105462 3.528000 95 88 98
-0.587163 1.089581 3.458000 97 87 97
-0.587163 1.095635 3.458000 94 87 96
-0.581220 1.090537 3.423000 91 84 94
-0.575617 1.085958 3.390000 91 83 92
-0.559147 1.060649 3.293000 92 82 90
-0.548619 1.046335 3.231000 92 82 88
-0.538601 1.032781 3.172000 93 86 91
-0.533677 1.028841 3.143000 94 90 93
-0.528922 1.025128 3.115000 95 90 95
-0.528922 1.030581 3.115000 96 90 98
-0.528922 1.036034 3.115000 98 89 102
-0.524168 1.032125 3.087000 98 88 106
-0.519414 1.028118 3.059000 98 88 103
-0.510414 1.015567 3.006000 96 87 100
-0.489190 0.978379 2.881000 94 87 101
-0.489190 0.983422 2.881000 96 90 102
-0.489190 0.988465 2.881000 98 89 99
-0.485114 0.985232 2.857000 97 89 95
-0.473398 0.966318 2.788000 97 88 94
-0.465757 0.955523 2.743000 95 88 92
-0.462192 0.952972 2.722000 94 86 89
-0.458626 0.950348 2.701000 95 85 86
-0.455060 0.947651 2.680000 96 88 92
-0.451494 0.944880 2.659000 101 95 97
-0.451494 0.949534 2.659000 106 97 101
-0.448098 0.947012 2.639000 104 98 106
-0.448098 0.951632 2.639000 102 95 102
-0.444702 0.949004 2.619000 100 94 99
-0.428402 0.918635 2.523000 99 90 98
-0.419233 0.903295 2.469000 100 88 96
-0.413290 0.894751 2.434000 101 90 97
-0.410403 0.892732 2.417000 103 91 98
-0.410403 0.896963 2.417000 106 91 98
-0.410403 0.901194 2.417000 103 93 98
-0.407516 0.899057 2.400000 101 92 99
-0.407516 0.903258 2.400000 100 91 101
-0.404800 0.901410 2.384000 100 92 103
-0.399196 0.893048 2.351000 102 94 104
-0.396480 0.891057 2.335000 104 96 108
-0.391216 0.883261 2.304000 106 98 112
-0.391216 0.887294 2.304000 109 101 112
-0.386122 0.879721 2.274000 109 103 112
-0.383575 0.877872 2.259000 110 102 110
-0.586992 1.088381 3.493000 93 88 97
-0.581110 1.083528 3.458000 94 88 96
-0.575228 1.078553 3.423000 95 88 95
-0.575228 1.084545 3.423000 93 86 95
-0.569683 1.080024 3.390000 91 83 95
-0.564137 1.075387 3.357000 90 82 95
-0.553382 1.060649 3.293000 90 83 94
-0.542963 1.046335 3.231000 91 83 94
-0.533048 1.032781 3.172000 91 87 94
-0.528175 1.028841 3.143000 93 88 94
-0.528175 1.034343 3.143000 95 89 96
-0.523470 1.030581 3.115000 97 89 98
-0.523470 1.036034 3.115000 99 88 98
-0.518764 1.032125 3.087000 97 87 98
-0.514059 1.028118 3.059000 96 87 97
-0.505152 1.015567 3.006000 95 85 96
-0.496582 1.003509 2.955000 93 83 97
-0.480113 0.975230 2.857000 95 85 98
-0.480113 0.980231 2.857000 96 86 95
-0.480113 0.985232 2.857000 95 87 93
-0.480113 0.990233 2.857000 94 88 91
-0.472215 0.978862 2.810000 92 86 90
-0.460956 0.960324 2.743000 90 85 84
-0.457427 0.957737 2.722000 92 85 79
-0.450369 0.947651 2.680000 95 87 88
-0.446840 0.944880 2.659000 99 94 97
-0.443479 0.942392 2.639000 104 99 101
-0.443479 0.947012 2.639000 102 97 105
-0.443479 0.951632 2.639000 100 95 102
-0.440118 0.949004 2.619000 97 92 100
-0.423985 0.918635 2.523000 95 90 97
-0.414911 0.903295 2.469000 97 89 95
-0.409029 0.894751 2.434000 99 91 96
-0.406172 0.892732 2.417000 101 91 97
-0.406172 0.896963 2.417000 102 91 96
-0.406172 0.901194 2.417000 100 92 95
-0.403315 0.899057 2.400000 99 94 97
-0.400627 0.897236 2.384000 98 92 100
-0.397770 0.894982 2.367000 97 91 101
-0.395081 0.893048 2.351000 100 93 102
-0.389872 0.885333 2.320000 103 96 106
-0.387183 0.883261 2.304000 105 99 110
-0.384662 0.881517 2.289000 108 102 109
-0.382141 0.879721 2.274000 108 102 109
-0.379621 0.877872 2.259000 108 103 107
-0.575057 1.083528 3.458000 93 88 94
-0.569236 1.078553 3.423000 93 87 94
-0.569236 1.084545 3.423000 92 87 94
-0.569236 1.090537 3.423000 91 84 94
-0.563749 1.085958 3.390000 90 81 94
-0.552773 1.070634 3.324000 89 82 92
-0.542463 1.056374 3.262000 89 83 90
-0.522673 1.023339 3.143000 90 85 92
-0.522673 1.028841 3.143000 93 86 94
-0.518017 1.025128 3.115000 96 88 98
-0.518017 1.030581 3.115000 98 90 102
-0.518017 1.036034 3.115000 100 88 99
-0.513360 1.032125 3.087000 97 87 97
-0.508704 1.028118 3.059000 95 86 96
-0.504380 1.024689 3.033000 94 85 96
-0.495567 1.011999 2.980000 93 83 96
-0.479103 0.983422 2.881000 94 82 96
-0.479103 0.988465 2.881000 95 84 93
-0.475112 0.985232 2.857000 93 86 91
-0.475112 0.990233 2.857000 92 87 91
-0.463637 0.971199 2.788000 89 86 92
-0.456154 0.960324 2.743000 87 85 89
-0.452662 0.957737 2.722000 90 85 86
-0.445677 0.947651 2.680000 94 89 91
-0.442185 0.944880 2.659000 98 96 97
-0.438859 0.942392 2.639000 103 97 104
-0.438859 0.947012 2.639000 101 97 112
-0.438859 0.951632 2.639000 99 92 106
-0.432207 0.941757 2.599000 95 89 100
-0.419569 0.918635 2.523000 91 89 96
-0.404768 0.890490 2.434000 94 88 93
-0.404768 0.894751 2.434000 98 89 95
-0.401941 0.892732 2.417000 98 91 97
-0.401941 0.896963 2.417000 99 91 95
-0.401941 0.901194 2.417000 98 92 94
-0.399114 0.899057 2.400000 97 92 97
-0.396453 0.897236 2.384000 96 93 99
-0.396453 0.901410 2.384000 95 91 100
-0.390965 0.893048 2.351000 98 91 102
-0.385810 0.885333 2.320000 102 96 105
-0.383150 0.883261 2.304000 104 100 108
-0.380655 0.881517 2.289000 107 100 108
-0.378161 0.879721 2.274000 106 101 109
-0.373172 0.872043 2.244000 106 100 108
-0.563244 1.078553 3.423000 92 88 93
-0.557814 1.085958 3.390000 88 83 93
-0.546954 1.070634 3.324000 87 82 89
-0.536752 1.056374 3.262000 89 83 86
-0.517171 1.023339 3.143000 90 86 90
-0.517171 1.028841 3.143000 93 87 95
-0.512564 1.025128 3.115000 95 88 101
-0.512564 1.030581 3.115000 96 88 107
-0.512564 1.036034 3.115000 97 88 101
-0.507957 1.032125 3.087000 95 87 96
-0.503349 1.028118 3.059000 93 88 96
-0.499071 1.024689 3.033000 92 85 96
-0.478009 0.986529 2.905000 91 82 95
-0.470111 0.975230 2.857000 92 83 94
-0.470111 0.980231 2.857000 93 85 91
-0.466326 0.977301 2.834000 92 86 89
-0.470111 0.990233 2.857000 92 88 91
-0.458757 0.971199 2.788000 91 86 94
-0.451353 0.960324 2.743000 90 86 94
-0.447897 0.957737 2.722000 93 87 94
-0.440986 0.947651 2.680000 96 89 95
-0.437531 0.944880 2.659000 102 94 97
-0.434240 0.942392 2.639000 109 99 108
-0.434240 0.947012 2.639000 104 95 120
-0.434240 0.951632 2.639000 100 90 110
-0.427658 0.941757 2.599000 97 89 100
-0.415152 0.918635 2.523000 94 90 96
-0.400507 0.890490 2.434000 95 88 92
-0.400507 0.894751 2.434000 97 88 94
-0.397710 0.892732 2.417000 97 89 97
-0.397710 0.896963 2.417000 98 90 95
-0.397710 0.901194 2.417000 97 89 94
-0.394913 0.899057 2.400000 97 90 96
-0.392280 0.897236 2.384000 97 91 99
-0.389483 0.894982 2.367000 97 90 100
-0.386850 0.893048 2.351000 100 92 102
-0.381749 0.885333 2.320000 103 97 104
-0.379116 0.883261 2.304000 104 98 107
-0.376648 0.881517 2.289000 105 97 108
-0.371712 0.873918 2.259000 105 97 109
-0.369244 0.872043 2.244000 106 97 109
-0.546508 1.075387 3.357000 87 84 93
-0.541136 1.070634 3.324000 86 82 91
-0.531042 1.056374 3.262000 88 83 89
-0.516391 1.032781 3.172000 91 86 92
-0.516391 1.038334 3.172000 93 88 96
-0.511669 1.034343 3.143000 95 87 99
-0.507111 1.030581 3.115000 94 88 102
-0.507111 1.036034 3.115000 94 87 98
-0.502553 1.032125 3.087000 93 86 95
-0.497995 1.028118 3.059000 92 86 94
-0.489366 1.015567 3.006000 90 85 94
-0.472924 0.986529 2.905000 89 83 94
-0.472924 0.991615 2.905000 90 83 94
-0.469017 0.988465 2.881000 92 84 92
-0.461365 0.977301 2.834000 92 86 90
-0.461365 0.982262 2.834000 92 87 94
-0.446551 0.955523 2.743000 93 86 98
-0.443132 0.952972 2.722000 94 86 96
-0.439713 0.950348 2.701000 96 88 94
-0.436295 0.947651 2.680000 98 90 95
-0.432876 0.944880 2.659000 107 94 97
-0.432876 0.949534 2.659000 116 97 104
-0.429620 0.947012 2.639000 108 96 112
-0.429620 0.951632 2.639000 101 91 106
-0.413829 0.921103 2.542000 99 88 99
-0.410736 0.918635 2.523000 97 88 97
-0.404875 0.909880 2.487000 96 87 95
-0.393479 0.888501 2.417000 96 88 95
-0.393479 0.892732 2.417000 96 90 96
-0.393479 0.896963 2.417000 97 89 96
-0.393479 0.901194 2.417000 97 87 97
-0.390712 0.899057 2.400000 97 89 99
-0.388107 0.897236 2.384000 98 91 101
-0.385339 0.894982 2.367000 99 90 101
-0.382735 0.893048 2.351000 101 91 101
-0.380130 0.891057 2.335000 104 95 104
-0.375083 0.883261 2.304000 104 99 107
-0.372641 0.881517 2.289000 104 96 104
-0.370199 0.879721 2.274000 105 94 102
-0.365315 0.872043 2.244000 106 95 104
-0.535317 1.070634 3.324000 87 82 93
-0.525332 1.056374 3.262000 89 83 92
-0.510838 1.032781 3.172000 91 87 94
-0.510838 1.038334 3.172000 92 87 97
-0.506168 1.034343 3.143000 93 86 97
-0.501658 1.030581 3.115000 92 87 97
-0.497149 1.026721 3.087000 92 87 95
-0.497149 1.032125 3.087000 91 86 94
-0.492640 1.028118 3.059000 91 87 93
-0.484104 1.015567 3.006000 90 84 92
-0.467839 0.986529 2.905000 89 82 93
-0.467839 0.991615 2.905000 90 82 94
-0.460109 0.980231 2.857000 91 84 92
-0.456404 0.977301 2.834000 91 85 91
-0.452539 0.973943 2.810000 91 88 96
-0.445292 0.963187 2.765000 92 87 102
-0.441749 0.960324 2.743000 92 87 98
-0.434985 0.950348 2.701000 95 87 95
-0.431603 0.947651 2.680000 97 89 96
-0.428221 0.944880 2.659000 104 94 97
-0.425000 0.942392 2.639000 111 99 101
-0.421780 0.939835 2.619000 106 95 105
-0.415499 0.930356 2.580000 101 90 102
-0.409379 0.921103 2.542000 99 89 99
-0.406319 0.918635 2.523000 96 90 98
-0.400521 0.909880 2.487000 96 88 98
-0.397623 0.907617 2.469000 96 88 96
-0.391986 0.899011 2.434000 96 89 95
-0.391986 0.903272 2.434000 97 89 97
-0.389248 0.901194 2.417000 97 88 100
-0.386510 0.899057 2.400000 97 89 102
-0.383934 0.897236 2.384000 96 90 104
-0.381196 0.894982 2.367000 96 91 102
-0.378619 0.893048 2.351000 99 92 100
-0.376042 0.891057 2.335000 102 94 103
-0.371050 0.883261 2.304000 102 95 107
-0.368634 0.881517 2.289000 103 95 101
-0.363803 0.873918 2.259000 103 93 95
-0.361387 0.872043 2.244000 104 93 100
-0.505286 1.038334 3.172000 91 87 96
-0.500666 1.034343 3.143000 91 86 95
-0.496206 1.030581 3.115000 91 87 93
-0.491745 1.026721 3.087000 91 86 95
-0.491745 1.032125 3.087000 90 87 97
-0.478842 1.010305 3.006000 90 86 95
-0.478842 1.015567 3.006000 89 84 94
-0.462754 0.986529 2.905000 89 82 94
-0.458930 0.983422 2.881000 90 80 94
-0.455107 0.980231 2.857000 91 82 92
-0.451444 0.977301 2.834000 91 84 90
-0.447621 0.973943 2.810000 91 85 94
-0.440452 0.963187 2.765000 91 87 98
-0.436948 0.960324 2.743000 91 86 97
-0.430257 0.950348 2.701000 94 87 95
-0.423567 0.940225 2.659000 97 90 96
-0.423567 0.944880 2.659000 101 95 97
-0.420381 0.942392 2.639000 106 97 105
-0.417195 0.939835 2.619000 104 95 112
-0.410983 0.930356 2.580000 102 92 106
-0.407797 0.927625 2.560000 99 90 99
-0.401903 0.918635 2.523000 96 89 99
-0.396168 0.909880 2.487000 96 88 99
-0.393301 0.907617 2.469000 96 87 97
-0.387725 0.899011 2.434000 96 89 96
-0.387725 0.903272 2.434000 97 88 98
-0.385017 0.901194 2.417000 97 89 99
-0.382309 0.899057 2.400000 97 89 101
-0.382309 0.903258 2.400000 95 90 104
-0.379761 0.901410 2.384000 94 90 102
-0.377053 0.899125 2.367000 97 92 101
-0.369566 0.885333 2.320000 100 93 105
-0.367017 0.883261 2.304000 101 95 108
-0.364628 0.881517 2.289000 102 94 103
-0.359849 0.873918 2.259000 102 92 99
-0.357459 0.872043 2.244000 102 93 103
-0.495164 1.034343 3.143000 91 87 93
-0.490753 1.030581 3.115000 91 86 90
-0.490753 1.036034 3.115000 92 86 95
-0.486341 1.032125 3.087000 91 86 100
-0.473580 1.010305 3.006000 90 86 98
-0.465546 0.998337 2.955000 89 84 97
-0.457668 0.986529 2.905000 88 83 95
-0.453887 0.983422 2.881000 89 82 94
-0.450106 0.980231 2.857000 91 83 91
-0.442702 0.969024 2.810000 92 83 89
-0.439236 0.966318 2.788000 93 84 92
-0.435612 0.963187 2.765000 92 85 95
-0.432146 0.960324 2.743000 92 86 95
-0.428838 0.957737 2.722000 94 86 96
-0.422221 0.947651 2.680000 96 89 97
-0.418912 0.944880 2.659000 100 94 98
-0.415761 0.942392 2.639000 104 100 109
-0.412610 0.939835 2.619000 102 96 120
-0.406466 0.930356 2.580000 100 93 110
-0.403315 0.927625 2.560000 97 90 100
-0.400479 0.925553 2.542000 95 90 100
-0.394650 0.916466 2.505000 95 87 100
-0.388979 0.907617 2.469000 95 86 99
-0.383465 0.899011 2.434000 95 87 98
-0.383465 0.903272 2.434000 96 88 98
-0.380786 0.901194 2.417000 96 88 99
-0.378108 0.899057 2.400000 97 89 101
-0.375587 0.897236 2.384000 96 89 104
-0.372909 0.894982 2.367000 95 89 103
-0.370388 0.893048 2.351000 97 91 103
-0.367868 0.891057 2.335000 99 93 106
-0.362984 0.883261 2.304000 100 94 110
-0.360621 0.881517 2.289000 102 95 106
-0.355894 0.873918 2.259000 102 94 103
-0.353531 0.872043 2.244000 102 97 105
-0.489662 1.039845 3.143000 92 84 92
-0.485300 1.036034 3.115000 93 85 95
-0.480938 1.032125 3.087000 91 85 98
-0.468318 1.010305 3.006000 90 85 97
-0.460373 0.998337 2.955000 88 85 97
-0.452583 0.986529 2.905000 87 84 95
-0.448844 0.983422 2.881000 89 84 93
-0.441522 0.972340 2.834000 91 83 92
-0.437783 0.969024 2.810000 93 83 90
-0.434355 0.966318 2.788000 96 83 92
-0.430772 0.963187 2.765000 94 83 93
-0.427344 0.960324 2.743000 93 84 94
-0.424073 0.957737 2.722000 94 85 95
-0.420801 0.955077 2.701000 96 88 98
-0.417529 0.952342 2.680000 99 93 100
-0.411142 0.942392 2.639000 103 96 105
-0.408026 0.939835 2.619000 100 98 110
-0.401950 0.930356 2.580000 98 90 103
-0.398834 0.927625 2.560000 96 87 97
-0.396030 0.925553 2.542000 94 86 95
-0.393070 0.923051 2.523000 94 85 93
-0.387461 0.914234 2.487000 94 86 94
-0.381852 0.905290 2.451000 94 88 95
-0.379204 0.903272 2.434000 95 87 96
-0.379204 0.907533 2.434000 96 87 97
-0.376555 0.905425 2.417000 98 89 100
-0.373907 0.903258 2.400000 97 90 102
-0.368766 0.894982 2.367000 97 89 101
-0.366273 0.893048 2.351000 98 91 99
-0.361443 0.885333 2.320000 99 93 103
-0.358951 0.883261 2.304000 100 96 106
-0.356614 0.881517 2.289000 102 95 103
-0.354277 0.879721 2.274000 102 95 101
-0.349603 0.872043 2.244000 102 96 104
-0.479847 1.030581 3.115000 94 86 94
-0.479847 1.036034 3.115000 94 87 95
-0.475534 1.032125 3.087000 92 85 96
-0.463056 1.010305 3.006000 90 85 97
-0.455200 0.998337 2.955000 89 85 98
-0.447498 0.986529 2.905000 89 86 95
-0.443801 0.983422 2.881000 90 84 93
-0.436561 0.972340 2.834000 91 83 92
-0.432864 0.969024 2.810000 93 82 92
-0.429475 0.966318 2.788000 94 82 92
-0.425932 0.963187 2.765000 93 83 92
-0.422543 0.960324 2.743000 92 83 93
-0.416073 0.950348 2.701000 93 84 95
-0.412838 0.947651 2.680000 94 86 99
-0.409603 0.944880 2.659000 98 91 103
-0.406522 0.942392 2.639000 102 95 102
-0.400360 0.932658 2.599000 99 93 101
-0.397434 0.930356 2.580000 97 84 97
-0.394353 0.927625 2.560000 93 84 94
-0.391580 0.925553 2.542000 90 84 90
-0.388653 0.923051 2.523000 91 85 87
-0.385880 0.920851 2.505000 92 88 90
-0.377562 0.905290 2.451000 93 87 93
-0.374943 0.903272 2.434000 94 86 94
-0.374943 0.907533 2.434000 96 87 96
-0.372324 0.905425 2.417000 98 90 98
-0.367241 0.897236 2.384000 99 89 101
-0.364622 0.894982 2.367000 99 88 98
-0.362157 0.893048 2.351000 99 91 96
-0.357382 0.885333 2.320000 99 95 99
-0.354917 0.883261 2.304000 100 95 103
-0.352607 0.881517 2.289000 102 94 101
-0.350296 0.879721 2.274000 102 95 99
-0.345675 0.872043 2.244000 102 97 103
-0.474394 1.030581 3.115000 96 85 93
-0.474394 1.036034 3.115000 95 86 94
-0.457794 1.005043 3.006000 93 85 96
-0.457794 1.010305 3.006000 91 85 98
-0.450027 0.998337 2.955000 91 86 100
-0.442413 0.986529 2.905000 91 85 95
-0.438758 0.983422 2.881000 91 84 89
-0.431600 0.972340 2.834000 92 83 90
-0.427945 0.969024 2.810000 92 82 92
-0.427945 0.973943 2.810000 93 82 91
-0.424594 0.971199 2.788000 92 84 90
-0.421092 0.968027 2.765000 91 83 92
-0.414543 0.957737 2.722000 92 83 93
-0.411345 0.955077 2.701000 93 86 97
-0.408147 0.952342 2.680000 97 90 101
-0.401903 0.942392 2.639000 101 94 101
-0.398857 0.939835 2.619000 98 97 101
-0.392917 0.930356 2.580000 96 87 97
-0.389871 0.927625 2.560000 91 83 93
-0.387130 0.925553 2.542000 86 83 91
-0.384237 0.923051 2.523000 88 83 90
-0.378754 0.914234 2.487000 91 86 92
-0.376013 0.911939 2.469000 92 89 93
-0.373271 0.909581 2.451000 93 86 91
-0.370682 0.907533 2.434000 96 88 89
-0.368093 0.905425 2.417000 99 90 95
-0.363068 0.897236 2.384000 100 91 102
