ply
format ascii 1.0
element vertex 1260
property float x
property float y
property float z
property uchar red
property uchar green
property uchar blue
end_header
1.333099 0.579608 3.679000 132 81 43
1.347231 0.592261 3.718000 132 80 47
1.347231 0.598769 3.718000 132 80 38
1.347231 0.605278 3.718000 135 80 30
1.333099 0.605369 3.679000 138 81 41
1.333099 0.611809 3.679000 135 82 53
1.333099 0.618249 3.679000 133 82 50
1.333099 0.624689 3.679000 132 84 47
1.333099 0.631129 3.679000 131 82 49
1.318967 0.630810 3.640000 131 80 52
1.318967 0.637182 3.640000 131 80 51
1.318967 0.643554 3.640000 131 83 50
1.318967 0.649926 3.640000 132 77 52
1.318967 0.656298 3.640000 76 44 54
1.318967 0.662669 3.640000 20 13 28
1.333099 0.676210 3.679000 25 2 2
1.333099 0.682650 3.679000 30 11 9
1.333099 0.689090 3.679000 22 16 16
1.333099 0.695530 3.679000 15 13 12
1.333099 0.701970 3.679000 16 10 7
1.333099 0.708410 3.679000 17 9 6
1.333099 0.714850 3.679000 16 9 4
1.333099 0.721290 3.679000 15 8 4
1.043941 0.721176 2.881000 134 105 95
1.035244 0.720170 2.857000 135 103 96
1.035244 0.725171 2.857000 134 99 98
1.035244 0.730172 2.857000 134 100 101
1.026910 0.729255 2.834000 132 102 104
1.026910 0.734216 2.834000 130 103 99
1.018214 0.732917 2.810000 133 107 94
1.001907 0.726020 2.765000 137 106 96
0.986326 0.719494 2.722000 137 102 98
0.978717 0.718672 2.701000 138 103 98
0.971107 0.717775 2.680000 139 105 98
0.963498 0.716805 2.659000 140 105 101
0.956251 0.716033 2.639000 142 106 105
0.949004 0.715191 2.619000 144 107 104
0.941757 0.714279 2.599000 142 107 103
0.934872 0.713574 2.580000 141 108 103
0.927625 0.712524 2.560000 146 111 103
0.921103 0.711963 2.542000 152 109 107
0.914218 0.711058 2.523000 147 108 111
0.901173 0.705266 2.487000 143 108 110
0.894651 0.704484 2.469000 143 108 109
0.888129 0.703638 2.451000 144 108 111
0.881968 0.703018 2.434000 143 110 112
0.869649 0.697399 2.400000 142 112 115
0.857691 0.691954 2.367000 143 114 118
0.851893 0.691392 2.351000 145 114 112
0.846096 0.690774 2.335000 146 114 107
0.840660 0.690397 2.320000 147 114 110
0.834863 0.689669 2.304000 146 113 112
0.829427 0.689186 2.289000 146 114 117
0.829427 0.693193 2.289000 146 113 122
0.808048 0.679229 2.230000 146 112 119
0.808048 0.683133 2.230000 146 111 117
0.802613 0.682415 2.215000 146 111 117
0.792467 0.677617 2.187000 141 112 118
0.787757 0.677395 2.174000 136 116 118
0.782684 0.676813 2.160000 148 118 118
0.777973 0.676498 2.147000 160 117 118
0.768189 0.671702 2.120000 151 116 119
0.763479 0.671271 2.107000 142 118 119
0.763479 0.674960 2.107000 143 120 119
0.754420 0.670596 2.082000 145 119 118
0.749709 0.670030 2.069000 144 116 117
0.745361 0.669745 2.057000 144 119 119
0.741013 0.669418 2.045000 148 122 121
0.732316 0.665099 2.021000 152 121 118
0.727968 0.664667 2.009000 150 122 116
0.723982 0.664525 1.998000 149 121 118
0.715648 0.660333 1.975000 150 120 121
0.715648 0.663790 1.975000 152 121 121
0.711662 0.663531 1.964000 151 123 122
0.707314 0.662893 1.952000 150 124 122
0.699705 0.659142 1.931000 144 124 122
0.695719 0.658748 1.920000 139 123 122
0.691733 0.658316 1.909000 147 122 123
0.688109 0.658192 1.899000 155 121 122
0.680500 0.654201 1.878000 161 121 121
0.676876 0.653987 1.868000 168 123 122
0.673253 0.653738 1.858000 161 123 124
0.662382 0.646383 1.828000 154 121 125
0.662382 0.649583 1.828000 154 120 125
0.659121 0.649569 1.819000 155 122 126
0.655498 0.649164 1.809000 155 124 126
0.648613 0.645480 1.790000 156 126 123
0.645352 0.645352 1.781000 156 130 119
0.642090 0.645192 1.772000 157 128 123
0.638829 0.645002 1.763000 156 127 127
0.635568 0.644779 1.754000 156 126 130
0.632307 0.644525 1.745000 149 125 132
0.629046 0.644240 1.736000 143 124 130
0.626147 0.644296 1.728000 147 123 129
0.622886 0.643950 1.719000 151 125 130
0.619987 0.643948 1.711000 152 127 132
0.613827 0.640515 1.694000 153 129 131
0.610928 0.640442 1.686000 155 137 129
0.607667 0.639958 1.677000 157 128 131
0.601869 0.636760 1.661000 160 122 134
0.598970 0.636587 1.653000 164 123 135
0.593535 0.633678 1.638000 161 125 136
0.590636 0.633436 1.630000 159 126 138
0.587737 0.633166 1.622000 160 126 140
0.585201 0.633261 1.615000 161 123 136
0.582302 0.632937 1.607000 157 123 131
0.579766 0.632981 1.600000 154 123 128
0.576867 0.632603 1.592000 152 123 126
0.574330 0.632596 1.585000 151 127 128
0.571794 0.632564 1.578000 150 131 131
0.569257 0.632508 1.571000 150 126 131
0.566359 0.632023 1.563000 153 128 131
0.556575 0.623794 1.536000 156 129 132
0.554039 0.623628 1.529000 153 130 133
0.554039 0.626305 1.529000 150 127 132
0.551502 0.626101 1.522000 149 128 132
0.548966 0.625874 1.515000 148 128 130
0.544255 0.623133 1.502000 151 128 128
0.544255 0.625762 1.502000 155 128 129
0.542081 0.625881 1.496000 155 132 130
1.325339 -1.293479 3.640000 126 95 72
1.325339 -1.287108 3.640000 127 94 75
1.325339 -1.280736 3.640000 126 95 78
1.325339 -1.274364 3.640000 126 96 77
1.325339 -1.267992 3.640000 126 96 77
1.325339 -1.261620 3.640000 127 97 76
1.325339 -1.255249 3.640000 125 97 76
1.325339 -1.248877 3.640000 123 96 70
1.325339 -1.242505 3.640000 126 98 65
1.325339 -1.236133 3.640000 129 100 71
1.325339 -1.229761 3.640000 130 97 77
1.325339 -1.223389 3.640000 131 93 78
1.325339 -1.217018 3.640000 130 94 79
1.325339 -1.210646 3.640000 128 94 80
1.325339 -1.204274 3.640000 132 96 82
1.325339 -1.197902 3.640000 136 98 82
1.325339 -1.191530 3.640000 136 98 83
1.325339 -1.185158 3.640000 136 98 83
1.325339 -1.178787 3.640000 136 98 84
1.339539 -1.184977 3.679000 136 98 83
1.339539 -1.178537 3.679000 134 100 83
1.339539 -1.172096 3.679000 132 102 82
1.339539 -1.165656 3.679000 132 102 81
1.339539 -1.159216 3.679000 132 104 83
1.339539 -1.152776 3.679000 133 102 85
1.339539 -1.146336 3.679000 135 101 83
1.339539 -1.139896 3.679000 135 101 81
1.325339 -1.121440 3.640000 136 103 82
1.325339 -1.115068 3.640000 138 106 83
1.311503 -1.097123 3.602000 141 106 84
1.311503 -1.090817 3.602000 140 102 85
1.325339 -1.095953 3.640000 138 101 84
1.311503 -1.078207 3.602000 139 104 84
1.325339 -1.083209 3.640000 140 106 85
1.325339 -1.076838 3.640000 136 106 87
1.325339 -1.070466 3.640000 133 106 86
1.325339 -1.064094 3.640000 140 107 86
1.325339 -1.057722 3.640000 147 108 88
1.325339 -1.051350 3.640000 147 103 90
1.325339 -1.044978 3.640000 146 101 91
1.325339 -1.038607 3.640000 142 103 93
1.325339 -1.032235 3.640000 138 103 93
1.325339 -1.025863 3.640000 140 105 94
1.311503 -1.008848 3.602000 141 106 90
1.325339 -1.013119 3.640000 140 104 86
1.325339 -1.006748 3.640000 139 105 88
1.325339 -1.000376 3.640000 143 105 91
1.325339 -0.994004 3.640000 146 104 89
1.325339 -0.987632 3.640000 146 106 88
1.325339 -0.981260 3.640000 146 107 91
1.325339 -0.974889 3.640000 143 105 95
1.325339 -0.968517 3.640000 139 104 95
1.325339 -0.962145 3.640000 142 104 95
1.325339 -0.955773 3.640000 144 105 93
1.325339 -0.949401 3.640000 142 106 91
1.325339 -0.943029 3.640000 140 107 90
1.325339 -0.936657 3.640000 135 106 90
1.325339 -0.930286 3.640000 131 105 88
1.339539 -0.933813 3.679000 127 98 87
1.339539 -0.927373 3.679000 123 89 82
1.339539 -0.920933 3.679000 119 84 77
1.325339 -0.904798 3.640000 115 80 69
1.325339 -0.898427 3.640000 111 70 62
1.339539 -0.901613 3.679000 107 59 46
1.339539 -0.895172 3.679000 105 57 31
1.339539 -0.888732 3.679000 103 57 30
1.368667 -0.901478 3.759000 106 56 30
1.368667 -0.894898 3.759000 108 60 30
1.383595 -0.898007 3.800000 109 58 30
1.383595 -0.891355 3.800000 111 59 25
1.398888 -0.894481 3.842000 108 58 21
1.398888 -0.887756 3.842000 105 60 22
1.398888 -0.881030 3.842000 108 61 24
1.398888 -0.874305 3.842000 111 63 19
1.383595 -0.858095 3.800000 114 59 15
1.383595 -0.851443 3.800000 117 58 19
1.383595 -0.844791 3.800000 115 62 23
1.383595 -0.838139 3.800000 114 64 21
1.383595 -0.831488 3.800000 114 61 19
1.383595 -0.824836 3.800000 114 62 21
1.383595 -0.818184 3.800000 111 61 24
1.383595 -0.811532 3.800000 108 61 20
1.383595 -0.804880 3.800000 109 62 17
1.383595 -0.798228 3.800000 111 64 17
1.383595 -0.791576 3.800000 115 63 17
1.383595 -0.784924 3.800000 119 64 12
1.383595 -0.778272 3.800000 117 63 7
1.383595 -0.771620 3.800000 115 63 12
1.383595 -0.764969 3.800000 116 66 17
1.383595 -0.758317 3.800000 117 68 26
1.383595 -0.751665 3.800000 113 63 35
1.383595 -0.745013 3.800000 110 63 30
1.383595 -0.738361 3.800000 110 61 26
1.383595 -0.731709 3.800000 111 60 19
1.383595 -0.725057 3.800000 113 59 13
1.383595 -0.718405 3.800000 115 59 21
1.383595 -0.711753 3.800000 117 60 30
1.383595 -0.705101 3.800000 120 63 27
1.383595 -0.698450 3.800000 115 59 24
1.383595 -0.691798 3.800000 111 58 16
1.368667 -0.677753 3.759000 113 61 9
1.368667 -0.671173 3.759000 116 64 17
1.368667 -0.664593 3.759000 116 63 25
1.368667 -0.658013 3.759000 116 63 27
1.368667 -0.651433 3.759000 116 62 30
1.368667 -0.644853 3.759000 116 63 21
1.368667 -0.638273 3.759000 116 61 12
1.368667 -0.631692 3.759000 116 60 17
1.368667 -0.625112 3.759000 115 63 23
1.368667 -0.618532 3.759000 114 67 18
1.368667 -0.611952 3.759000 116 65 13
1.368667 -0.605372 3.759000 118 62 16
1.368667 -0.598792 3.759000 116 62 19
1.368667 -0.592212 3.759000 115 64 23
1.368667 -0.585631 3.759000 115 61 28
1.353739 -0.572736 3.718000 115 62 26
1.353739 -0.566227 3.718000 116 62 24
1.368667 -0.565891 3.759000 117 63 17
1.368667 -0.559311 3.759000 117 64 11
1.368667 -0.552731 3.759000 118 68 16
1.368667 -0.546151 3.759000 115 63 21
1.368667 -0.539571 3.759000 113 61 22
1.368667 -0.532990 3.759000 113 62 24
1.368667 -0.526410 3.759000 114 64 18
1.368667 -0.519830 3.759000 112 63 12
1.368667 -0.513250 3.759000 111 62 29
1.353739 -0.501144 3.718000 115 62 47
1.368667 -0.500090 3.759000 120 58 37
1.353739 -0.488127 3.718000 119 60 28
1.368667 -0.486930 3.759000 119 59 27
1.353739 -0.475110 3.718000 120 61 27
1.353739 -0.468602 3.718000 121 62 28
1.353739 -0.462093 3.718000 114 66 30
1.353739 -0.455585 3.718000 108 67 28
1.353739 -0.449077 3.718000 112 64 26
1.339539 -0.437926 3.679000 116 63 23
1.339539 -0.431486 3.679000 115 66 21
1.339539 -0.425046 3.679000 115 67 18
1.339539 -0.418606 3.679000 115 68 16
1.339539 -0.412166 3.679000 115 70 10
1.339539 -0.405726 3.679000 116 69 4
1.339539 -0.399285 3.679000 117 70 9
1.339539 -0.392845 3.679000 113 68 14
1.339539 -0.386405 3.679000 110 68 16
1.339539 -0.379965 3.679000 113 67 19
1.339539 -0.373525 3.679000 117 67 22
1.339539 -0.367085 3.679000 118 67 26
1.339539 -0.360645 3.679000 120 67 24
1.339539 -0.354205 3.679000 120 62 23
1.339539 -0.347765 3.679000 120 63 24
1.339539 -0.341325 3.679000 121 66 26
1.353739 -0.338435 3.718000 122 70 25
1.353739 -0.331926 3.718000 122 70 25
1.353739 -0.325418 3.718000 121 70 15
1.353739 -0.318910 3.718000 121 66 6
1.353739 -0.312401 3.718000 122 64 15
1.353739 -0.305893 3.718000 124 65 25
1.353739 -0.299384 3.718000 126 64 25
1.353739 -0.292876 3.718000 123 66 26
1.339539 -0.283364 3.679000 120 68 29
1.353739 -0.279859 3.718000 120 68 32
1.353739 -0.273351 3.718000 120 70 36
1.353739 -0.266843 3.718000 118 69 40
1.368667 -0.263205 3.759000 116 69 37
1.368667 -0.256625 3.759000 118 71 34
1.368667 -0.250045 3.759000 121 76 34
1.368667 -0.243465 3.759000 121 71 34
1.368667 -0.236885 3.759000 122 68 37
1.368667 -0.230305 3.759000 121 68 40
1.353739 -0.221284 3.718000 121 68 36
1.353739 -0.214776 3.718000 121 68 33
1.353739 -0.208267 3.718000 122 68 33
1.339539 -0.199643 3.679000 121 67 33
1.339539 -0.193203 3.679000 120 68 40
1.353739 -0.188742 3.718000 121 68 48
1.339539 -0.180322 3.679000 122 67 40
1.353739 -0.175726 3.718000 121 67 32
1.353739 -0.169217 3.718000 121 70 32
1.353739 -0.162709 3.718000 121 66 32
1.339539 -0.154562 3.679000 122 64 30
1.339539 -0.148122 3.679000 121 67 28
1.339539 -0.141682 3.679000 121 70 27
1.353739 -0.136676 3.718000 120 71 27
1.339539 -0.128802 3.679000 119 74 27
1.339539 -0.122362 3.679000 120 70 28
1.339539 -0.115922 3.679000 122 71 24
1.339539 -0.109481 3.679000 121 73 21
1.339539 -0.103041 3.679000 120 74 23
1.339539 -0.096601 3.679000 121 75 26
1.339539 -0.090161 3.679000 122 76 26
1.339539 -0.083721 3.679000 123 74 27
1.339539 -0.077281 3.679000 125 72 27
1.339539 -0.070841 3.679000 126 69 28
1.339539 -0.064401 3.679000 128 69 29
1.353739 -0.058575 3.718000 127 70 30
1.353739 -0.052067 3.718000 127 69 32
1.339539 -0.045081 3.679000 126 70 34
1.339539 -0.038641 3.679000 125 74 32
1.339539 -0.032200 3.679000 125 74 30
1.339539 -0.025760 3.679000 126 74 28
1.339539 -0.019320 3.679000 124 75 26
1.339539 -0.012880 3.679000 123 76 27
1.339539 -0.006440 3.679000 120 75 28
1.339539 -0.000000 3.679000 118 76 30
1.339539 0.006440 3.679000 120 74 33
1.339539 0.012880 3.679000 123 75 38
1.339539 0.019320 3.679000 121 75 44
1.339539 0.025761 3.679000 120 77 34
1.325339 0.031859 3.640000 123 76 24
1.325339 0.038231 3.640000 126 74 24
1.325339 0.044603 3.640000 127 75 24
1.339539 0.051521 3.679000 129 78 30
1.339539 0.057961 3.679000 126 77 36
1.339539 0.064401 3.679000 123 78 36
1.339539 0.070841 3.679000 123 75 37
1.339539 0.077281 3.679000 124 72 39
1.339539 0.083721 3.679000 125 74 42
1.353739 0.091117 3.718000 126 76 46
1.353739 0.097625 3.718000 127 75 51
1.339539 0.103042 3.679000 127 78 44
1.339539 0.109482 3.679000 127 77 38
1.339539 0.115922 3.679000 128 78 34
1.339539 0.122362 3.679000 127 78 31
1.339539 0.128802 3.679000 126 78 35
1.339539 0.135242 3.679000 125 78 40
1.339539 0.141682 3.679000 125 79 39
1.339539 0.148122 3.679000 126 79 38
1.339539 0.154562 3.679000 127 80 35
1.339539 0.161002 3.679000 127 79 32
1.339539 0.167442 3.679000 127 79 35
1.339539 0.173883 3.679000 127 79 39
1.339539 0.180323 3.679000 128 82 37
1.339539 0.186763 3.679000 127 81 35
1.339539 0.193203 3.679000 127 82 28
1.339539 0.199643 3.679000 128 79 22
1.339539 0.206083 3.679000 129 80 25
1.339539 0.212523 3.679000 128 80 29
1.339539 0.218963 3.679000 127 82 31
1.339539 0.225403 3.679000 127 79 33
1.339539 0.231843 3.679000 126 80 22
1.339539 0.238283 3.679000 129 80 11
1.339539 0.244724 3.679000 131 81 20
1.339539 0.251164 3.679000 130 78 29
1.339539 0.257604 3.679000 128 77 34
1.339539 0.264044 3.679000 126 76 39
1.339539 0.270484 3.679000 123 76 39
1.339539 0.276924 3.679000 126 78 40
1.339539 0.283364 3.679000 129 80 38
1.339539 0.289804 3.679000 131 80 36
1.339539 0.296244 3.679000 133 80 36
1.339539 0.302684 3.679000 130 80 36
1.339539 0.309124 3.679000 127 80 37
1.339539 0.315565 3.679000 125 79 38
1.339539 0.322005 3.679000 124 79 42
1.339539 0.328445 3.679000 127 78 47
1.339539 0.334885 3.679000 130 78 50
1.339539 0.341325 3.679000 130 78 53
1.339539 0.347765 3.679000 130 78 48
1.339539 0.354205 3.679000 131 77 43
1.339539 0.360645 3.679000 131 77 33
1.353739 0.370977 3.718000 129 75 23
1.353739 0.377485 3.718000 127 74 24
1.353739 0.383993 3.718000 129 79 26
1.353739 0.390502 3.718000 131 83 26
1.339539 0.392846 3.679000 131 77 26
1.339539 0.399286 3.679000 130 73 42
1.339539 0.405726 3.679000 130 76 58
1.339539 0.412166 3.679000 130 79 50
1.339539 0.418606 3.679000 130 80 43
1.339539 0.425046 3.679000 130 82 46
1.339539 0.431486 3.679000 133 80 49
1.353739 0.442569 3.718000 136 80 48
1.353739 0.449077 3.718000 133 79 47
1.353739 0.455585 3.718000 131 80 54
1.353739 0.462094 3.718000 130 79 62
1.353739 0.468602 3.718000 130 78 51
1.353739 0.475110 3.718000 128 79 41
1.353739 0.481619 3.718000 127 82 43
1.339539 0.483007 3.679000 128 79 45
1.339539 0.489447 3.679000 129 80 43
1.339539 0.495887 3.679000 128 80 42
1.339539 0.502327 3.679000 128 81 40
1.339539 0.508767 3.679000 126 81 39
1.339539 0.515207 3.679000 124 79 39
1.353739 0.527177 3.718000 129 80 39
1.339539 0.528087 3.679000 134 80 40
1.339539 0.534528 3.679000 133 81 41
1.339539 0.540968 3.679000 132 83 44
1.339539 0.547408 3.679000 130 79 47
1.339539 0.553848 3.679000 129 78 46
1.339539 0.560288 3.679000 131 78 46
1.339539 0.566728 3.679000 133 79 41
1.339539 0.573168 3.679000 133 80 36
1.339539 0.579608 3.679000 134 80 41
1.339539 0.586048 3.679000 131 79 47
1.339539 0.592488 3.679000 128 78 30
1.339539 0.598928 3.679000 131 79 14
1.339539 0.605369 3.679000 134 82 37
1.339539 0.611809 3.679000 131 81 60
1.339539 0.618249 3.679000 128 80 54
1.339539 0.624689 3.679000 130 81 49
1.339539 0.631129 3.679000 131 83 51
1.325339 0.630810 3.640000 131 80 53
1.325339 0.637182 3.640000 131 79 51
1.325339 0.643554 3.640000 132 83 49
1.325339 0.649926 3.640000 134 93 51
1.325339 0.656298 3.640000 87 57 53
1.325339 0.662669 3.640000 40 6 28
1.325339 0.669041 3.640000 36 5 3
1.325339 0.675413 3.640000 32 10 8
1.325339 0.681785 3.640000 27 14 13
1.325339 0.688157 3.640000 22 16 10
1.339539 0.701970 3.679000 20 11 8
1.339539 0.708410 3.679000 18 10 6
1.339539 0.714850 3.679000 16 9 5
1.339539 0.721290 3.679000 15 10 4
1.048984 0.721176 2.881000 133 103 93
1.040245 0.720170 2.857000 135 104 96
1.040245 0.725171 2.857000 136 99 99
1.040245 0.730172 2.857000 136 99 101
1.031871 0.729255 2.834000 137 101 103
1.031871 0.734216 2.834000 138 101 100
1.023132 0.732917 2.810000 138 105 98
1.015122 0.732059 2.788000 138 107 98
0.991091 0.719494 2.722000 138 103 98
0.975799 0.713084 2.680000 138 103 99
0.975799 0.717775 2.680000 139 105 100
0.968153 0.716805 2.659000 140 107 101
0.960871 0.716033 2.639000 144 107 103
0.953588 0.715191 2.619000 148 107 103
0.946306 0.714279 2.599000 144 106 103
0.939388 0.713574 2.580000 141 107 101
0.925552 0.707514 2.542000 144 110 99
0.925552 0.711963 2.542000 148 112 104
0.918634 0.711058 2.523000 146 109 109
0.905527 0.705266 2.487000 144 108 110
0.898973 0.704484 2.469000 145 109 111
0.892419 0.703638 2.451000 146 109 112
0.880039 0.698108 2.417000 144 110 113
0.868024 0.692750 2.384000 142 112 116
0.861834 0.691954 2.367000 144 115 119
0.856009 0.691392 2.351000 145 115 112
0.850183 0.690774 2.335000 147 114 106
0.844721 0.690397 2.320000 148 115 109
0.838896 0.689669 2.304000 148 113 113
0.833434 0.689186 2.289000 147 114 120
0.833434 0.693193 2.289000 146 112 127
0.817049 0.683493 2.244000 146 111 122
0.811952 0.683133 2.230000 146 111 117
0.806490 0.682415 2.215000 147 112 118
0.796295 0.677617 2.187000 144 113 120
0.786465 0.673032 2.160000 141 119 119
0.776634 0.668353 2.133000 148 117 119
0.776634 0.672087 2.133000 156 118 118
0.771901 0.671702 2.120000 151 118 118
0.767167 0.671271 2.107000 147 119 119
0.762798 0.671116 2.095000 147 119 120
0.758065 0.670596 2.082000 147 120 120
0.753331 0.670030 2.069000 146 118 121
0.748962 0.669745 2.057000 146 120 122
0.744593 0.669418 2.045000 149 120 123
0.735854 0.665099 2.021000 151 121 121
0.731485 0.664667 2.009000 151 121 120
0.723111 0.660534 1.986000 150 122 120
0.719105 0.660333 1.975000 151 121 121
0.715100 0.660093 1.964000 152 123 121
0.715100 0.663531 1.964000 153 122 122
0.706726 0.659158 1.941000 154 126 124
0.703085 0.659142 1.931000 149 125 127
0.699080 0.658748 1.920000 144 125 124
0.695074 0.658316 1.909000 148 123 122
0.691434 0.658192 1.899000 153 122 120
0.683787 0.654201 1.878000 156 122 118
0.680146 0.653987 1.868000 160 123 120
0.676505 0.653738 1.858000 156 123 123
0.669223 0.649919 1.838000 151 125 122
0.665582 0.649583 1.828000 152 123 121
0.662305 0.649569 1.819000 154 124 124
0.658664 0.649164 1.809000 154 124 127
0.655387 0.649086 1.800000 154 124 125
0.651746 0.648613 1.790000 155 126 123
0.648469 0.648469 1.781000 156 127 125
0.645192 0.648294 1.772000 157 126 128
0.641915 0.648088 1.763000 158 127 130
0.635362 0.644525 1.745000 152 125 133
0.629172 0.641271 1.728000 147 124 131
0.625895 0.640940 1.719000 149 124 130
0.625895 0.643950 1.719000 151 124 130
0.622982 0.643948 1.711000 151 123 131
0.616792 0.640515 1.694000 151 122 131
0.613879 0.640442 1.686000 153 126 132
0.610602 0.639958 1.677000 155 124 134
0.604777 0.636760 1.661000 157 122 136
0.601864 0.636587 1.653000 160 123 136
0.598951 0.636386 1.645000 158 125 136
0.593490 0.633436 1.630000 157 127 134
0.590577 0.633166 1.622000 157 125 132
0.588028 0.633261 1.615000 158 122 131
0.585115 0.632937 1.607000 156 123 131
0.582566 0.632981 1.600000 154 123 127
0.579654 0.632603 1.592000 153 123 123
0.577105 0.632596 1.585000 152 126 128
0.574556 0.632564 1.578000 150 127 134
0.572007 0.632508 1.571000 148 127 135
0.569095 0.632023 1.563000 151 129 136
0.561448 0.626231 1.542000 155 133 142
0.559264 0.626483 1.536000 153 128 148
0.559264 0.629172 1.536000 151 127 141
0.554166 0.626101 1.522000 148 129 134
0.551618 0.625874 1.515000 146 132 132
0.546884 0.623133 1.502000 150 130 131
0.546884 0.625762 1.502000 154 131 130
0.544700 0.625881 1.496000 154 130 130
1.331710 -1.299851 3.640000 122 94 71
1.331710 -1.293479 3.640000 124 95 74
1.331710 -1.287108 3.640000 126 93 76
1.331710 -1.280736 3.640000 124 93 78
1.331710 -1.274364 3.640000 123 93 77
1.331710 -1.267992 3.640000 123 95 76
1.331710 -1.261620 3.640000 124 95 77
1.331710 -1.255249 3.640000 120 95 77
1.331710 -1.248877 3.640000 116 96 76
1.331710 -1.242505 3.640000 121 100 75
1.331710 -1.236133 3.640000 126 98 76
1.331710 -1.229761 3.640000 127 98 78
1.331710 -1.223389 3.640000 129 95 78
1.331710 -1.217018 3.640000 125 97 78
1.331710 -1.210646 3.640000 122 96 79
1.331710 -1.204274 3.640000 127 96 81
1.331710 -1.197902 3.640000 133 95 80
1.331710 -1.191530 3.640000 134 95 80
1.331710 -1.185158 3.640000 136 96 80
1.331710 -1.178787 3.640000 134 95 80
1.331710 -1.172415 3.640000 133 96 80
1.345979 -1.178537 3.679000 129 99 81
1.345979 -1.172096 3.679000 126 100 80
1.345979 -1.165656 3.679000 128 100 79
1.345979 -1.159216 3.679000 130 101 81
1.345979 -1.152776 3.679000 131 101 83
1.345979 -1.146336 3.679000 133 99 81
1.345979 -1.139896 3.679000 133 97 79
1.331710 -1.121440 3.640000 134 101 81
1.331710 -1.115068 3.640000 136 107 82
1.317808 -1.097123 3.602000 139 104 83
1.317808 -1.090817 3.602000 138 101 84
1.317808 -1.084512 3.602000 138 100 83
1.317808 -1.078207 3.602000 138 104 83
1.317808 -1.071901 3.602000 138 104 83
1.317808 -1.065596 3.602000 133 105 84
1.331710 -1.070466 3.640000 129 105 84
1.331710 -1.064094 3.640000 136 108 84
1.331710 -1.057722 3.640000 144 105 87
1.331710 -1.051350 3.640000 143 101 89
1.331710 -1.044978 3.640000 142 101 93
1.331710 -1.038607 3.640000 139 102 96
1.331710 -1.032235 3.640000 137 103 95
1.331710 -1.025863 3.640000 137 105 93
1.331710 -1.019491 3.640000 138 103 93
1.331710 -1.013119 3.640000 135 103 94
1.331710 -1.006748 3.640000 133 102 93
1.331710 -1.000376 3.640000 138 103 93
1.331710 -0.994004 3.640000 143 103 92
1.331710 -0.987632 3.640000 142 104 92
1.331710 -0.981260 3.640000 142 102 92
1.331710 -0.974889 3.640000 136 99 92
1.331710 -0.968517 3.640000 130 101 91
1.331710 -0.962145 3.640000 135 99 91
1.331710 -0.955773 3.640000 141 103 89
1.331710 -0.949401 3.640000 140 105 88
1.331710 -0.943029 3.640000 139 105 89
1.331710 -0.936657 3.640000 135 104 90
1.331710 -0.930286 3.640000 132 104 87
1.331710 -0.923914 3.640000 127 103 85
1.331710 -0.917542 3.640000 123 91 82
1.331710 -0.911170 3.640000 118 84 78
1.331710 -0.904798 3.640000 114 80 68
1.331710 -0.898427 3.640000 110 76 58
1.345979 -0.901613 3.679000 106 62 44
1.345979 -0.895172 3.679000 104 55 31
1.360247 -0.898154 3.718000 102 54 27
1.375247 -0.901478 3.759000 105 53 24
1.390247 -0.904658 3.800000 109 55 29
1.390247 -0.898007 3.800000 112 55 34
1.390247 -0.891355 3.800000 115 55 28
1.405613 -0.894481 3.842000 112 56 23
1.405613 -0.887756 3.842000 110 58 26
1.405613 -0.881030 3.842000 111 59 29
1.390247 -0.864747 3.800000 112 57 26
1.390247 -0.858095 3.800000 113 56 23
1.390247 -0.851443 3.800000 115 60 22
1.390247 -0.844791 3.800000 114 66 21
1.390247 -0.838139 3.800000 113 64 18
1.390247 -0.831488 3.800000 112 59 15
1.390247 -0.824836 3.800000 112 61 19
1.390247 -0.818184 3.800000 109 63 23
1.390247 -0.811532 3.800000 107 61 20
1.390247 -0.804880 3.800000 108 60 17
1.390247 -0.798228 3.800000 110 62 18
1.390247 -0.791576 3.800000 112 63 18
1.390247 -0.784924 3.800000 114 63 16
1.375247 -0.769875 3.759000 114 62 14
1.375247 -0.763295 3.759000 114 63 17
1.375247 -0.756715 3.759000 114 65 20
1.375247 -0.750135 3.759000 115 64 27
1.375247 -0.743555 3.759000 112 61 34
1.375247 -0.736974 3.759000 110 60 31
1.375247 -0.730394 3.759000 111 59 28
1.375247 -0.723814 3.759000 112 59 26
1.375247 -0.717234 3.759000 113 60 23
1.375247 -0.710654 3.759000 114 60 27
1.375247 -0.704074 3.759000 114 60 31
1.375247 -0.697494 3.759000 115 59 35
1.375247 -0.690914 3.759000 110 56 39
1.375247 -0.684333 3.759000 105 58 30
1.375247 -0.677753 3.759000 110 59 21
1.375247 -0.671173 3.759000 115 60 24
1.375247 -0.664593 3.759000 115 63 27
1.375247 -0.658013 3.759000 116 61 32
1.360247 -0.644328 3.718000 116 60 37
1.360247 -0.637819 3.718000 116 62 28
1.360247 -0.631311 3.718000 116 62 20
1.375247 -0.631692 3.759000 117 61 23
1.360247 -0.618294 3.718000 116 64 26
1.360247 -0.611786 3.718000 116 65 21
1.375247 -0.611952 3.759000 118 66 16
1.375247 -0.605372 3.759000 121 63 19
1.375247 -0.598792 3.759000 118 64 22
1.360247 -0.585752 3.718000 115 64 25
1.360247 -0.579244 3.718000 112 61 28
1.360247 -0.572736 3.718000 110 60 26
1.360247 -0.566227 3.718000 113 62 24
1.360247 -0.559719 3.718000 116 61 20
1.360247 -0.553210 3.718000 115 62 15
1.360247 -0.546702 3.718000 115 63 23
1.375247 -0.546151 3.759000 114 62 31
1.375247 -0.539571 3.759000 114 61 29
1.375247 -0.532990 3.759000 113 64 27
1.375247 -0.526410 3.759000 113 62 21
1.360247 -0.514160 3.718000 110 64 16
1.360247 -0.507652 3.718000 108 63 27
1.360247 -0.501144 3.718000 111 64 38
1.360247 -0.494635 3.718000 114 62 31
1.360247 -0.488127 3.718000 115 62 24
1.360247 -0.481619 3.718000 117 61 21
1.360247 -0.475110 3.718000 116 62 18
1.345979 -0.463686 3.679000 115 65 22
1.345979 -0.457246 3.679000 108 70 26
1.345979 -0.450806 3.679000 101 68 27
1.345979 -0.444366 3.679000 109 65 28
1.345979 -0.437926 3.679000 117 66 28
1.345979 -0.431486 3.679000 119 69 28
1.345979 -0.425046 3.679000 121 66 24
1.345979 -0.418606 3.679000 118 65 20
1.345979 -0.412166 3.679000 116 67 16
1.345979 -0.405726 3.679000 118 71 12
1.345979 -0.399285 3.679000 120 70 16
1.345979 -0.392845 3.679000 111 67 20
1.345979 -0.386405 3.679000 103 68 19
1.345979 -0.379965 3.679000 110 68 19
1.345979 -0.373525 3.679000 117 67 22
1.345979 -0.367085 3.679000 118 67 24
1.345979 -0.360645 3.679000 119 64 24
1.345979 -0.354205 3.679000 118 59 23
1.345979 -0.347765 3.679000 118 62 26
1.345979 -0.341325 3.679000 119 66 30
1.345979 -0.334885 3.679000 120 67 29
1.345979 -0.328445 3.679000 116 68 28
1.345979 -0.322004 3.679000 113 67 20
1.345979 -0.315564 3.679000 117 64 11
1.345979 -0.309124 3.679000 121 64 18
1.345979 -0.302684 3.679000 122 65 25
1.345979 -0.296244 3.679000 123 65 25
1.345979 -0.289804 3.679000 122 65 26
1.345979 -0.283364 3.679000 121 66 25
1.345979 -0.276924 3.679000 120 67 25
1.345979 -0.270484 3.679000 120 69 31
1.345979 -0.264044 3.679000 117 70 36
1.360247 -0.260334 3.718000 114 69 32
1.360247 -0.253826 3.718000 117 73 29
1.360247 -0.247318 3.718000 121 72 30
1.360247 -0.240809 3.718000 121 70 32
1.360247 -0.234301 3.718000 122 68 34
1.360247 -0.227793 3.718000 121 69 37
1.360247 -0.221284 3.718000 120 68 33
1.360247 -0.214776 3.718000 120 69 29
1.345979 -0.206083 3.679000 120 68 24
1.345979 -0.199643 3.679000 120 69 20
1.345979 -0.193203 3.679000 120 69 29
1.345979 -0.186763 3.679000 118 68 39
1.345979 -0.180322 3.679000 117 67 33
1.360247 -0.175726 3.718000 118 68 27
1.345979 -0.167442 3.679000 120 69 26
1.345979 -0.161002 3.679000 120 70 26
1.345979 -0.154562 3.679000 121 69 30
1.345979 -0.148122 3.679000 121 71 35
1.345979 -0.141682 3.679000 121 70 32
1.345979 -0.135242 3.679000 121 71 29
1.345979 -0.128802 3.679000 122 73 32
1.345979 -0.122362 3.679000 121 71 35
1.345979 -0.115922 3.679000 121 72 30
1.345979 -0.109481 3.679000 120 75 25
1.345979 -0.103041 3.679000 120 73 26
1.345979 -0.096601 3.679000 121 76 28
1.345979 -0.090161 3.679000 122 74 30
1.345979 -0.083721 3.679000 124 74 33
1.345979 -0.077281 3.679000 126 71 33
1.345979 -0.070841 3.679000 130 69 33
1.345979 -0.064401 3.679000 134 69 36
1.345979 -0.057961 3.679000 131 70 39
1.345979 -0.051521 3.679000 128 67 38
1.345979 -0.045081 3.679000 126 67 38
1.345979 -0.038641 3.679000 125 70 34
1.345979 -0.032200 3.679000 126 74 30
1.345979 -0.025760 3.679000 128 75 28
1.345979 -0.019320 3.679000 126 79 27
1.345979 -0.012880 3.679000 124 76 32
1.345979 -0.006440 3.679000 123 78 37
1.345979 -0.000000 3.679000 122 75 36
1.345979 0.006440 3.679000 121 73 36
1.345979 0.012880 3.679000 121 74 36
1.345979 0.019320 3.679000 118 77 36
1.345979 0.025761 3.679000 116 77 30
1.331710 0.031859 3.640000 120 78 25
1.331710 0.038231 3.640000 124 75 26
1.331710 0.044603 3.640000 125 74 27
1.345979 0.051521 3.679000 126 76 31
1.345979 0.057961 3.679000 126 78 35
1.345979 0.064401 3.679000 127 77 39
1.345979 0.070841 3.679000 126 76 44
1.345979 0.077281 3.679000 125 74 42
1.345979 0.083721 3.679000 124 77 40
1.345979 0.090161 3.679000 124 76 44
1.345979 0.096601 3.679000 121 76 48
1.345979 0.103042 3.679000 118 76 43
1.345979 0.109482 3.679000 122 77 38
1.345979 0.115922 3.679000 126 77 33
1.345979 0.122362 3.679000 126 77 28
1.345979 0.128802 3.679000 127 77 35
1.345979 0.135242 3.679000 127 78 43
1.345979 0.141682 3.679000 127 78 41
1.345979 0.148122 3.679000 128 78 40
1.345979 0.154562 3.679000 129 79 40
1.345979 0.161002 3.679000 129 80 40
1.345979 0.167442 3.679000 130 79 38
1.345979 0.173883 3.679000 129 80 36
1.345979 0.180323 3.679000 129 81 39
1.345979 0.186763 3.679000 128 81 42
1.345979 0.193203 3.679000 127 81 36
1.345979 0.199643 3.679000 128 79 30
1.345979 0.206083 3.679000 130 80 32
1.345979 0.212523 3.679000 129 82 33
1.345979 0.218963 3.679000 129 80 35
1.331710 0.223014 3.640000 128 77 37
1.331710 0.229386 3.640000 127 78 31
1.331710 0.235757 3.640000 128 81 25
1.331710 0.242129 3.640000 130 79 29
1.331710 0.248501 3.640000 129 77 34
1.331710 0.254873 3.640000 128 77 37
1.331710 0.261245 3.640000 124 76 41
1.345979 0.270484 3.679000 120 75 40
1.331710 0.273988 3.640000 124 77 40
1.331710 0.280360 3.640000 129 78 37
1.331710 0.286732 3.640000 129 79 35
1.331710 0.293104 3.640000 130 79 36
1.331710 0.299476 3.640000 129 80 36
1.331710 0.305847 3.640000 128 79 35
1.331710 0.312219 3.640000 128 80 34
1.331710 0.318591 3.640000 128 79 40
1.331710 0.324963 3.640000 128 79 46
1.345979 0.334885 3.679000 129 79 47
1.345979 0.341325 3.679000 129 80 49
1.345979 0.347765 3.679000 130 78 46
1.345979 0.354205 3.679000 130 76 43
1.345979 0.360645 3.679000 130 75 38
1.345979 0.367085 3.679000 127 73 34
1.345979 0.373525 3.679000 124 76 33
1.345979 0.379965 3.679000 128 80 32
1.345979 0.386406 3.679000 132 78 32
1.345979 0.392846 3.679000 132 74 31
1.345979 0.399286 3.679000 132 74 40
1.331710 0.401425 3.640000 131 76 49
1.345979 0.412166 3.679000 131 78 47
1.345979 0.418606 3.679000 131 81 44
1.345979 0.425046 3.679000 131 80 46
1.345979 0.431486 3.679000 132 80 47
1.345979 0.437926 3.679000 133 78 47
1.345979 0.444366 3.679000 132 77 47
1.345979 0.450806 3.679000 132 77 51
1.345979 0.457246 3.679000 131 79 55
1.345979 0.463687 3.679000 131 79 48
1.345979 0.470127 3.679000 128 80 42
1.345979 0.476567 3.679000 126 79 44
1.331710 0.477887 3.640000 128 78 47
1.331710 0.484258 3.640000 130 79 45
1.331710 0.490630 3.640000 129 81 43
1.331710 0.497002 3.640000 128 81 41
1.331710 0.503374 3.640000 125 82 40
1.345979 0.515207 3.679000 122 81 40
1.345979 0.521647 3.679000 130 82 40
1.345979 0.528087 3.679000 139 82 42
1.345979 0.534528 3.679000 135 82 43
1.345979 0.540968 3.679000 132 81 45
1.331710 0.541605 3.640000 130 80 47
1.331710 0.547977 3.640000 128 79 50
1.331710 0.554348 3.640000 131 79 54
1.331710 0.560720 3.640000 134 79 47
1.331710 0.567092 3.640000 135 79 40
1.345979 0.579608 3.679000 136 80 48
1.345979 0.586048 3.679000 130 81 56
1.345979 0.592488 3.679000 124 79 42
1.345979 0.598928 3.679000 127 79 29
1.345979 0.605369 3.679000 131 81 42
1.345979 0.611809 3.679000 127 83 55
1.331710 0.611695 3.640000 124 80 52
1.345979 0.624689 3.679000 128 79 50
1.331710 0.624439 3.640000 132 80 49
1.331710 0.630810 3.640000 131 80 49
1.331710 0.637182 3.640000 131 79 49
1.331710 0.643554 3.640000 133 79 50
1.331710 0.649926 3.640000 136 85 48
1.331710 0.656298 3.640000 98 87 46
1.331710 0.662669 3.640000 61 37 32
1.331710 0.669041 3.640000 48 2 18
1.331710 0.675413 3.640000 35 6 15
1.331710 0.681785 3.640000 32 14 11
1.331710 0.688157 3.640000 29 13 10
1.331710 0.694529 3.640000 24 10 9
1.331710 0.700900 3.640000 20 9 7
1.331710 0.707272 3.640000 17 7 6
1.331710 0.713644 3.640000 15 9 5
1.062807 0.727184 2.905000 131 106 97
1.054027 0.726220 2.881000 136 103 98
1.045246 0.725171 2.857000 137 96 99
1.045246 0.730172 2.857000 139 99 101
1.036832 0.729255 2.834000 142 102 104
1.036832 0.734216 2.834000 146 102 103
1.028051 0.732917 2.810000 142 105 102
1.020002 0.732059 2.788000 139 104 100
0.995856 0.719494 2.722000 138 101 97
0.995856 0.724259 2.722000 138 103 98
0.980490 0.717775 2.680000 139 105 99
0.972807 0.716805 2.659000 141 106 100
0.965490 0.716033 2.639000 146 110 101
0.958173 0.715191 2.619000 152 107 104
0.950856 0.714279 2.599000 146 105 107
0.936588 0.708042 2.560000 141 107 105
0.930002 0.707514 2.542000 143 110 104
0.923051 0.706642 2.523000 145 110 106
0.923051 0.711058 2.523000 145 110 109
0.909880 0.705266 2.487000 145 110 112
0.903295 0.704484 2.469000 147 111 115
0.890490 0.698758 2.434000 149 109 111
0.884270 0.698108 2.417000 146 109 108
0.872197 0.692750 2.384000 143 111 112
0.865978 0.691954 2.367000 144 120 116
0.860124 0.691392 2.351000 146 115 112
0.854270 0.690774 2.335000 148 112 108
0.848783 0.690397 2.320000 150 112 111
0.842929 0.689669 2.304000 149 112 115
0.837441 0.689186 2.289000 149 112 118
0.831953 0.688650 2.274000 147 113 122
0.820978 0.683493 2.244000 146 111 118
0.815856 0.683133 2.230000 147 110 113
0.815856 0.687036 2.230000 148 110 115
0.805246 0.681955 2.201000 147 111 117
0.795368 0.677395 2.174000 146 115 119
0.785490 0.672740 2.147000 149 116 120
0.780368 0.672087 2.133000 152 116 119
0.775612 0.671702 2.120000 152 121 118
0.770855 0.671271 2.107000 152 118 119
0.766465 0.671116 2.095000 150 118 120
0.761709 0.670596 2.082000 149 119 121
0.756953 0.670030 2.069000 149 117 122
0.756953 0.673652 2.069000 149 118 124
0.752563 0.673346 2.057000 150 119 126
0.739392 0.665099 2.021000 151 120 122
0.735002 0.664667 2.009000 151 121 117
0.726587 0.660534 1.986000 152 121 119
0.722563 0.660333 1.975000 152 122 121
0.718538 0.660093 1.964000 153 121 120
0.714148 0.659477 1.952000 156 119 120
0.710124 0.659158 1.941000 159 122 122
0.706465 0.659142 1.931000 154 125 125
0.706465 0.662522 1.931000 150 124 124
0.698416 0.658316 1.909000 150 123 123
0.694758 0.658192 1.899000 151 123 122
0.683416 0.650717 1.868000 152 123 121
0.679758 0.650486 1.858000 153 122 123
0.679758 0.653738 1.858000 151 122 125
0.672441 0.649919 1.838000 149 123 126
0.668782 0.649583 1.828000 151 126 126
0.668782 0.652783 1.828000 153 124 126
0.665489 0.652753 1.819000 152 124 126
0.658538 0.649086 1.800000 152 124 125
0.654880 0.648613 1.790000 154 125 124
0.651587 0.648469 1.781000 156 125 126
0.648294 0.648294 1.772000 158 126 128
0.645002 0.648088 1.763000 160 125 130
0.639880 0.646003 1.749000 156 124 132
0.635123 0.644240 1.736000 152 124 129
0.632197 0.644296 1.728000 151 125 127
0.628904 0.643950 1.719000 151 124 129
0.625977 0.643948 1.711000 150 122 131
0.622684 0.643540 1.702000 150 121 131
0.616831 0.640442 1.686000 152 124 132
0.610611 0.636906 1.669000 154 123 134
0.607684 0.636760 1.661000 155 120 136
0.604758 0.636587 1.653000 156 121 136
0.601831 0.636386 1.645000 156 125 136
0.599270 0.636545 1.638000 156 125 134
0.593416 0.633166 1.622000 155 127 133
0.590855 0.633261 1.615000 155 124 133
0.587928 0.632937 1.607000 155 125 134
0.585367 0.632981 1.600000 155 123 131
0.579879 0.629821 1.585000 154 122 128
0.579879 0.632596 1.585000 154 125 131
0.577318 0.632564 1.578000 150 126 134
0.574758 0.632508 1.571000 146 127 134
0.569270 0.629193 1.556000 150 128 134
0.561953 0.623794 1.536000 154 128 138
0.561953 0.626483 1.536000 153 125 142
0.561953 0.629172 1.536000 152 126 138
0.556831 0.626101 1.522000 148 131 135
0.554270 0.625874 1.515000 145 130 134
0.549514 0.623133 1.502000 149 129 133
0.549514 0.625762 1.502000 154 129 133
0.547318 0.625881 1.496000 154 128 133
1.338082 -1.299851 3.640000 124 94 73
1.338082 -1.293479 3.640000 125 92 76
1.338082 -1.287108 3.640000 126 91 77
1.338082 -1.280736 3.640000 126 90 79
1.338082 -1.274364 3.640000 126 90 77
1.324113 -1.254755 3.602000 126 92 76
1.338082 -1.261620 3.640000 126 94 77
1.338082 -1.255249 3.640000 126 94 79
1.338082 -1.248877 3.640000 126 94 82
1.338082 -1.242505 3.640000 126 95 85
1.338082 -1.236133 3.640000 127 94 82
1.338082 -1.229761 3.640000 127 95 79
1.338082 -1.223389 3.640000 128 94 78
1.338082 -1.217018 3.640000 127 95 77
1.338082 -1.210646 3.640000 125 97 78
1.338082 -1.204274 3.640000 129 94 80
1.338082 -1.197902 3.640000 132 92 79
1.338082 -1.191530 3.640000 135 95 78
1.338082 -1.185158 3.640000 139 97 77
1.338082 -1.178787 3.640000 136 94 77
1.338082 -1.172415 3.640000 133 93 78
1.338082 -1.166043 3.640000 130 97 79
1.352419 -1.172096 3.679000 128 100 78
1.352419 -1.165656 3.679000 129 100 77
1.352419 -1.159216 3.679000 130 101 79
1.352419 -1.152776 3.679000 132 99 81
1.352419 -1.146336 3.679000 133 97 79
1.352419 -1.139896 3.679000 134 96 78
1.338082 -1.121440 3.640000 135 99 80
1.338082 -1.115068 3.640000 136 102 82
1.324113 -1.097123 3.602000 138 103 82
1.324113 -1.090817 3.602000 138 98 83
1.324113 -1.084512 3.602000 139 96 82
1.324113 -1.078207 3.602000 138 100 82
1.324113 -1.071901 3.602000 138 103 82
1.338082 -1.076838 3.640000 135 103 82
1.338082 -1.070466 3.640000 132 104 82
1.338082 -1.064094 3.640000 137 104 83
1.338082 -1.057722 3.640000 142 104 86
1.338082 -1.051350 3.640000 139 100 89
1.338082 -1.044978 3.640000 137 100 94
1.338082 -1.038607 3.640000 137 101 100
1.338082 -1.032235 3.640000 137 103 96
1.338082 -1.025863 3.640000 137 102 93
1.338082 -1.019491 3.640000 138 101 97
1.338082 -1.013119 3.640000 136 100 102
1.338082 -1.006748 3.640000 135 100 98
1.338082 -1.000376 3.640000 138 101 95
1.338082 -0.994004 3.640000 142 101 95
1.338082 -0.987632 3.640000 141 101 96
1.338082 -0.981260 3.640000 141 100 92
1.338082 -0.974889 3.640000 137 101 89
1.338082 -0.968517 3.640000 134 103 88
1.338082 -0.962145 3.640000 136 102 87
1.338082 -0.955773 3.640000 139 103 86
1.338082 -0.949401 3.640000 139 104 85
1.352419 -0.953133 3.679000 139 105 87
1.352419 -0.946693 3.679000 135 103 90
1.338082 -0.930286 3.640000 132 104 87
1.352419 -0.933813 3.679000 127 97 84
1.352419 -0.927373 3.679000 122 89 82
1.338082 -0.911170 3.640000 116 84 80
1.338082 -0.904798 3.640000 111 83 67
1.338082 -0.898427 3.640000 107 75 54
1.352419 -0.901613 3.679000 103 61 43
1.352419 -0.895172 3.679000 103 54 32
1.366755 -0.898154 3.718000 104 52 25
1.381827 -0.901478 3.759000 107 52 18
1.381827 -0.894898 3.759000 111 53 28
1.396899 -0.898007 3.800000 116 53 39
1.396899 -0.891355 3.800000 120 51 32
1.396899 -0.884703 3.800000 117 56 25
1.396899 -0.878051 3.800000 114 59 29
1.396899 -0.871399 3.800000 116 55 34
1.396899 -0.864747 3.800000 119 51 32
1.396899 -0.858095 3.800000 117 56 31
1.381827 -0.842257 3.759000 115 62 25
1.381827 -0.835676 3.759000 115 65 19
1.381827 -0.829096 3.759000 116 67 15
1.381827 -0.822516 3.759000 114 61 11
1.396899 -0.824836 3.800000 113 60 17
1.396899 -0.818184 3.800000 111 60 23
1.396899 -0.811532 3.800000 109 62 20
1.396899 -0.804880 3.800000 110 62 18
1.396899 -0.798228 3.800000 111 62 19
1.396899 -0.791576 3.800000 111 63 20
1.381827 -0.776455 3.759000 111 64 20
1.381827 -0.769875 3.759000 111 63 21
1.366755 -0.754970 3.718000 112 64 22
1.366755 -0.748461 3.718000 113 63 24
1.366755 -0.741953 3.718000 115 63 28
1.366755 -0.735445 3.718000 113 61 33
1.366755 -0.728936 3.718000 112 59 32
1.366755 -0.722428 3.718000 112 59 31
1.381827 -0.723814 3.759000 112 60 32
1.381827 -0.717234 3.759000 113 61 34
1.366755 -0.702903 3.718000 114 62 33
1.381827 -0.704074 3.759000 114 62 33
1.366755 -0.689886 3.718000 114 59 43
1.366755 -0.683378 3.718000 112 58 54
1.366755 -0.676869 3.718000 111 59 43
1.366755 -0.670361 3.718000 116 58 33
1.366755 -0.663853 3.718000 121 54 31
1.366755 -0.657344 3.718000 118 59 30
1.366755 -0.650836 3.718000 115 60 37
1.366755 -0.644328 3.718000 116 61 45
1.366755 -0.637819 3.718000 117 63 36
1.366755 -0.631311 3.718000 117 61 28
1.366755 -0.624802 3.718000 118 60 29
1.366755 -0.618294 3.718000 117 63 30
1.366755 -0.611786 3.718000 117 64 25
1.366755 -0.605277 3.718000 117 64 20
1.366755 -0.598769 3.718000 118 62 23
1.366755 -0.592261 3.718000 116 65 26
1.366755 -0.585752 3.718000 115 69 27
1.366755 -0.579244 3.718000 114 62 28
1.352419 -0.566728 3.679000 114 58 26
1.352419 -0.560288 3.679000 116 59 25
1.366755 -0.559719 3.718000 119 59 22
1.352419 -0.547408 3.679000 116 59 20
1.352419 -0.540968 3.679000 114 60 31
1.366755 -0.540194 3.718000 114 61 42
1.352419 -0.528087 3.679000 115 59 36
1.366755 -0.527177 3.718000 115 60 30
1.366755 -0.520669 3.718000 115 58 25
1.352419 -0.508767 3.679000 114 62 21
1.352419 -0.502327 3.679000 113 64 25
1.352419 -0.495887 3.679000 114 64 30
1.352419 -0.489447 3.679000 116 67 25
1.352419 -0.483007 3.679000 117 65 20
1.352419 -0.476567 3.679000 119 63 15
1.352419 -0.470126 3.679000 118 64 10
1.352419 -0.463686 3.679000 117 67 16
1.352419 -0.457246 3.679000 113 69 22
1.352419 -0.450806 3.679000 109 72 26
1.352419 -0.444366 3.679000 113 68 30
1.352419 -0.437926 3.679000 118 67 32
1.352419 -0.431486 3.679000 119 66 35
1.352419 -0.425046 3.679000 120 63 30
1.352419 -0.418606 3.679000 116 63 25
1.352419 -0.412166 3.679000 113 64 22
1.352419 -0.405726 3.679000 116 68 20
1.352419 -0.399285 3.679000 119 72 23
1.352419 -0.392845 3.679000 114 69 26
1.352419 -0.386405 3.679000 109 69 23
1.352419 -0.379965 3.679000 113 68 20
1.352419 -0.373525 3.679000 118 69 21
1.352419 -0.367085 3.679000 119 67 23
1.352419 -0.360645 3.679000 120 65 23
1.352419 -0.354205 3.679000 120 62 24
1.352419 -0.347765 3.679000 120 61 29
1.352419 -0.341325 3.679000 120 64 34
1.352419 -0.334885 3.679000 121 64 33
1.352419 -0.328445 3.679000 119 66 32
1.352419 -0.322004 3.679000 118 67 24
1.352419 -0.315564 3.679000 119 63 17
1.352419 -0.309124 3.679000 120 63 21
1.352419 -0.302684 3.679000 120 65 25
1.352419 -0.296244 3.679000 120 67 25
1.352419 -0.289804 3.679000 120 65 26
1.352419 -0.283364 3.679000 121 65 22
1.352419 -0.276924 3.679000 120 67 19
1.352419 -0.270484 3.679000 120 69 26
1.352419 -0.264044 3.679000 119 68 33
1.352419 -0.257604 3.679000 118 67 28
1.352419 -0.251163 3.679000 120 69 24
1.352419 -0.244723 3.679000 122 71 27
1.352419 -0.238283 3.679000 122 69 30
1.352419 -0.231843 3.679000 122 68 32
1.352419 -0.225403 3.679000 121 68 34
1.352419 -0.218963 3.679000 120 69 29
1.352419 -0.212523 3.679000 119 68 25
1.352419 -0.206083 3.679000 118 67 16
1.352419 -0.199643 3.679000 119 68 8
1.352419 -0.193203 3.679000 120 71 19
1.352419 -0.186763 3.679000 116 69 30
1.352419 -0.180322 3.679000 113 68 26
1.352419 -0.173882 3.679000 117 68 22
1.352419 -0.167442 3.679000 120 70 21
1.352419 -0.161002 3.679000 120 70 20
1.352419 -0.154562 3.679000 121 73 31
1.352419 -0.148122 3.679000 120 70 43
1.352419 -0.141682 3.679000 119 70 37
1.352419 -0.135242 3.679000 122 73 32
1.352419 -0.128802 3.679000 125 76 37
1.352419 -0.122362 3.679000 124 72 42
1.352419 -0.115922 3.679000 123 71 36
1.352419 -0.109481 3.679000 122 71 30
1.352419 -0.103041 3.679000 122 70 30
1.352419 -0.096601 3.679000 123 71 30
1.352419 -0.090161 3.679000 124 70 34
1.352419 -0.083721 3.679000 124 71 39
1.352419 -0.077281 3.679000 125 71 39
1.352419 -0.070841 3.679000 127 69 39
1.352419 -0.064401 3.679000 129 70 44
1.352419 -0.057961 3.679000 127 69 49
1.352419 -0.051521 3.679000 126 65 45
1.352419 -0.045081 3.679000 124 66 42
1.352419 -0.038641 3.679000 123 66 36
1.352419 -0.032200 3.679000 124 71 30
1.352419 -0.025760 3.679000 125 76 29
1.352419 -0.019320 3.679000 124 75 29
1.352419 -0.012880 3.679000 124 73 38
1.352419 -0.006440 3.679000 123 73 47
1.352419 -0.000000 3.679000 122 73 43
1.352419 0.006440 3.679000 122 72 39
1.352419 0.012880 3.679000 122 72 33
1.338082 0.019116 3.640000 121 76 28
1.338082 0.025487 3.640000 121 79 27
1.338082 0.031859 3.640000 123 77 26
1.338082 0.038231 3.640000 125 77 28
1.338082 0.044603 3.640000 126 75 31
1.338082 0.050975 3.640000 127 76 33
1.352419 0.057961 3.679000 130 77 35
1.352419 0.064401 3.679000 132 77 43
1.352419 0.070841 3.679000 129 75 51
1.352419 0.077281 3.679000 127 74 45
1.352419 0.083721 3.679000 126 75 39
1.352419 0.090161 3.679000 126 78 42
1.352419 0.096601 3.679000 124 75 45
1.352419 0.103042 3.679000 123 74 42
1.352419 0.109482 3.679000 125 76 39
1.338082 0.114693 3.640000 127 77 32
1.338082 0.121065 3.640000 127 77 25
1.338082 0.127436 3.640000 127 77 36
1.338082 0.133808 3.640000 127 77 47
1.338082 0.140180 3.640000 127 77 44
1.338082 0.146552 3.640000 129 77 42
1.352419 0.154562 3.679000 130 78 45
1.352419 0.161002 3.679000 132 79 48
1.352419 0.167442 3.679000 134 79 41
1.352419 0.173883 3.679000 131 79 34
1.352419 0.180323 3.679000 129 82 41
1.352419 0.186763 3.679000 127 82 49
1.352419 0.193203 3.679000 126 85 44
1.352419 0.199643 3.679000 131 80 39
1.352419 0.206083 3.679000 136 80 38
1.352419 0.212523 3.679000 133 80 38
1.352419 0.218963 3.679000 130 81 40
1.338082 0.223014 3.640000 129 78 42
1.338082 0.229386 3.640000 129 76 40
1.338082 0.235757 3.640000 129 79 39
1.338082 0.242129 3.640000 130 80 39
1.338082 0.248501 3.640000 131 78 40
1.338082 0.254873 3.640000 133 79 41
1.338082 0.261245 3.640000 129 73 43
1.338082 0.267617 3.640000 125 71 41
1.338082 0.273988 3.640000 129 75 40
1.338082 0.280360 3.640000 132 79 37
1.338082 0.286732 3.640000 130 77 35
1.338082 0.293104 3.640000 129 77 36
1.338082 0.299476 3.640000 128 78 37
1.338082 0.305847 3.640000 128 78 33
1.338082 0.312219 3.640000 129 79 30
1.338082 0.318591 3.640000 130 79 37
1.338082 0.324963 3.640000 130 78 45
1.338082 0.331335 3.640000 130 80 45
1.338082 0.337707 3.640000 129 79 46
1.338082 0.344078 3.640000 129 79 45
1.338082 0.350450 3.640000 129 76 44
1.338082 0.356822 3.640000 130 74 44
1.338082 0.363194 3.640000 128 74 45
1.338082 0.369566 3.640000 127 78 42
1.338082 0.375937 3.640000 131 78 39
1.338082 0.382309 3.640000 136 78 38
1.338082 0.388681 3.640000 132 76 37
1.338082 0.395053 3.640000 129 76 39
1.338082 0.401425 3.640000 131 76 41
1.338082 0.407797 3.640000 133 78 43
1.338082 0.414168 3.640000 132 78 46
1.338082 0.420540 3.640000 132 79 46
1.338082 0.426912 3.640000 132 78 46
1.352419 0.437926 3.679000 132 78 47
1.352419 0.444366 3.679000 132 76 48
1.352419 0.450806 3.679000 133 73 48
1.352419 0.457246 3.679000 134 77 49
1.352419 0.463687 3.679000 135 80 46
1.352419 0.470127 3.679000 132 79 43
1.338082 0.471515 3.640000 129 78 46
1.338082 0.477887 3.640000 132 78 50
1.338082 0.484258 3.640000 135 78 47
1.338082 0.490630 3.640000 132 80 44
1.338082 0.497002 3.640000 130 81 43
1.338082 0.503374 3.640000 128 81 42
1.338082 0.509746 3.640000 126 82 42
1.338082 0.516118 3.640000 130 82 42
1.338082 0.522489 3.640000 135 84 44
1.338082 0.528861 3.640000 134 82 46
1.338082 0.535233 3.640000 132 80 46
1.324113 0.535951 3.602000 131 80 47
1.324113 0.542256 3.602000 129 81 54
1.324113 0.548561 3.602000 131 79 62
1.324113 0.554867 3.602000 133 79 53
1.338082 0.567092 3.640000 134 79 45
1.338082 0.573464 3.640000 134 80 55
1.338082 0.579836 3.640000 130 79 65
1.352419 0.592488 3.679000 127 79 54
1.352419 0.598928 3.679000 129 80 44
1.338082 0.598951 3.640000 132 81 47
1.338082 0.605323 3.640000 131 81 50
1.338082 0.611695 3.640000 131 81 50
1.338082 0.618067 3.640000 132 79 51
1.338082 0.624439 3.640000 133 79 48
1.338082 0.630810 3.640000 132 79 45
1.338082 0.637182 3.640000 132 80 48
1.338082 0.643554 3.640000 133 80 51
1.338082 0.649926 3.640000 134 83 45
1.338082 0.656298 3.640000 107 78 39
1.324113 0.655751 3.602000 79 56 36
1.324113 0.662057 3.602000 51 24 34
1.338082 0.675413 3.640000 23 1 22
1.338082 0.681785 3.640000 30 9 10
1.338082 0.688157 3.640000 37 15 10
