ply
format ascii 1.0
element vertex 1226
property float x
property float y
property float z
property uchar red
property uchar green
property uchar blue
end_header
0.408171 0.640561 1.702000 172 134 153
0.406253 0.640515 1.694000 172 135 154
0.404334 0.640442 1.686000 173 135 154
0.402176 0.639958 1.677000 175 136 154
0.402176 0.642894 1.677000 173 136 154
0.400257 0.642749 1.669000 171 138 154
0.396420 0.639481 1.653000 171 138 155
0.392823 0.636545 1.638000 171 139 153
0.390904 0.636289 1.630000 170 145 152
0.388986 0.636006 1.622000 170 141 150
0.387307 0.636088 1.615000 164 137 148
0.383710 0.632981 1.600000 158 137 147
0.381791 0.632603 1.592000 164 140 147
0.380112 0.632596 1.585000 171 142 150
0.378434 0.632564 1.578000 168 142 154
0.376755 0.632508 1.571000 166 144 154
0.373158 0.629193 1.556000 162 146 153
0.371479 0.629074 1.549000 158 142 154
0.368361 0.626483 1.536000 165 140 155
0.368361 0.629172 1.536000 173 143 156
0.366682 0.628981 1.529000 178 151 157
0.365004 0.628766 1.522000 183 150 157
0.363325 0.628526 1.515000 175 148 158
0.363325 0.631178 1.515000 167 139 156
0.360207 0.628391 1.502000 167 138 155
0.637501 0.720653 2.639000 163 120 128
0.627838 0.714279 2.599000 159 124 130
0.623248 0.713574 2.580000 155 122 130
0.618417 0.712524 2.560000 158 123 130
0.609479 0.706642 2.523000 161 125 130
0.609479 0.711058 2.523000 159 126 130
0.605130 0.710371 2.505000 158 127 126
0.600782 0.709620 2.487000 159 125 122
0.600782 0.713973 2.487000 159 124 130
0.596434 0.713128 2.469000 155 124 138
0.592086 0.712219 2.451000 152 125 136
0.583872 0.706570 2.417000 154 125 134
0.583872 0.710801 2.417000 156 126 134
0.579766 0.710003 2.400000 156 125 134
0.564064 0.694861 2.335000 157 125 137
0.560440 0.694459 2.320000 157 125 141
0.552951 0.689186 2.289000 157 127 134
0.549328 0.688650 2.274000 159 129 128
0.545704 0.688062 2.259000 160 130 131
0.542081 0.687422 2.244000 159 128 135
0.538699 0.687036 2.230000 159 129 136
0.531693 0.681955 2.201000 158 128 138
0.528311 0.681445 2.187000 158 129 139
0.525171 0.681200 2.174000 159 128 140
0.521789 0.680595 2.160000 161 128 138
0.518649 0.680257 2.147000 164 131 137
0.515267 0.679555 2.133000 167 135 136
0.508986 0.674960 2.107000 165 133 136
0.506087 0.674783 2.095000 164 132 137
0.499806 0.670030 2.069000 163 130 138
0.499806 0.673652 2.069000 162 129 139
0.494009 0.669418 2.045000 163 132 141
0.491110 0.669048 2.033000 164 135 142
0.488211 0.668637 2.021000 166 134 144
0.488211 0.672175 2.021000 168 135 143
0.482655 0.668023 1.998000 163 131 142
0.479756 0.667487 1.986000 159 129 142
0.477099 0.667247 1.975000 155 131 142
0.477099 0.670704 1.975000 152 132 141
0.471543 0.666310 1.952000 157 131 141
0.468885 0.665953 1.941000 161 135 141
0.463812 0.662109 1.920000 162 137 141
0.456082 0.654379 1.888000 162 139 142
0.456082 0.657684 1.888000 163 136 143
0.448835 0.650486 1.858000 164 135 144
0.448835 0.653738 1.858000 165 135 146
0.446420 0.653455 1.848000 167 137 148
0.444004 0.653136 1.838000 169 137 150
0.441588 0.652783 1.828000 171 138 151
0.439414 0.652753 1.819000 168 137 153
0.436998 0.652331 1.809000 165 136 150
0.434824 0.652236 1.800000 166 138 148
0.432409 0.651746 1.790000 168 140 147
0.432409 0.654880 1.790000 167 138 146
0.430234 0.654705 1.781000 166 140 149
0.428060 0.654498 1.772000 168 139 153
0.419364 0.644240 1.736000 169 139 152
0.415257 0.640940 1.719000 171 137 152
0.411150 0.637581 1.702000 174 137 153
0.411150 0.640561 1.702000 172 136 154
0.409218 0.640515 1.694000 171 136 153
0.407285 0.640442 1.686000 174 135 152
0.405111 0.639958 1.677000 177 135 153
0.405111 0.642894 1.677000 173 136 154
0.401246 0.639668 1.661000 170 139 154
0.399314 0.639481 1.653000 170 137 154
0.397381 0.639265 1.645000 170 134 153
0.393757 0.636289 1.630000 172 141 152
0.391825 0.636006 1.622000 175 142 148
0.390134 0.636088 1.615000 168 137 145
0.386510 0.632981 1.600000 161 134 143
0.384578 0.632603 1.592000 166 138 142
0.382887 0.632596 1.585000 170 145 148
0.381196 0.632564 1.578000 169 143 155
0.379505 0.632508 1.571000 168 145 155
0.375881 0.629193 1.556000 165 145 156
0.374190 0.629074 1.549000 162 144 156
0.372499 0.628930 1.542000 166 140 156
0.371050 0.629172 1.536000 171 134 156
0.369359 0.628981 1.529000 173 143 156
0.367668 0.628766 1.522000 175 149 157
0.365977 0.628526 1.515000 171 143 159
0.364528 0.628678 1.509000 167 138 157
0.362837 0.628391 1.502000 167 139 156
0.642120 0.720653 2.639000 169 123 129
0.632387 0.714279 2.599000 164 133 131
0.627764 0.713574 2.580000 160 126 130
0.627764 0.718090 2.580000 158 123 129
0.613895 0.706642 2.523000 157 124 129
0.609515 0.705986 2.505000 157 126 130
0.609515 0.710371 2.505000 158 127 127
0.605136 0.709620 2.487000 159 128 125
0.605136 0.713973 2.487000 161 126 130
0.600756 0.713128 2.469000 158 125 135
0.592240 0.707279 2.434000 155 125 134
0.588103 0.706570 2.417000 155 126 134
0.583967 0.705802 2.400000 156 127 133
0.583967 0.710003 2.400000 156 128 133
0.564501 0.690397 2.320000 157 125 136
0.560608 0.689669 2.304000 157 121 139
0.556958 0.689186 2.289000 157 126 135
0.553309 0.688650 2.274000 160 130 131
0.553309 0.692631 2.274000 163 128 133
0.546009 0.687422 2.244000 161 126 135
0.542602 0.687036 2.230000 159 127 136
0.535546 0.681955 2.201000 158 127 137
0.532140 0.681445 2.187000 157 129 137
0.528977 0.681200 2.174000 158 131 137
0.525570 0.680595 2.160000 159 131 136
0.525570 0.684376 2.160000 160 131 136
0.519001 0.679555 2.133000 162 132 135
0.512674 0.674960 2.107000 163 132 134
0.509754 0.674783 2.095000 164 130 135
0.503428 0.670030 2.069000 162 129 136
0.503428 0.673652 2.069000 160 129 138
0.500508 0.673346 2.057000 162 131 140
0.494669 0.669048 2.033000 164 131 141
0.491749 0.668637 2.021000 163 132 142
0.488829 0.668183 2.009000 163 133 142
0.486152 0.668023 1.998000 161 131 142
0.483233 0.667487 1.986000 159 129 143
0.480556 0.667247 1.975000 159 131 144
0.480556 0.670704 1.975000 159 132 143
0.477880 0.670407 1.964000 161 133 143
0.472283 0.665953 1.941000 163 134 142
0.467173 0.662109 1.920000 162 135 142
0.459387 0.654379 1.888000 162 135 143
0.454521 0.650717 1.868000 163 135 145
0.452088 0.650486 1.858000 165 134 145
0.452088 0.653738 1.858000 167 135 146
0.449654 0.653455 1.848000 169 136 147
0.447221 0.653136 1.838000 171 137 149
0.444788 0.652783 1.828000 174 138 150
0.442598 0.652753 1.819000 170 137 151
0.440165 0.652331 1.809000 167 138 148
0.437975 0.652236 1.800000 168 142 146
0.435542 0.651746 1.790000 170 140 143
0.435542 0.654880 1.790000 168 139 141
0.433352 0.654705 1.781000 166 137 146
0.431162 0.654498 1.772000 168 140 151
0.422403 0.644240 1.736000 171 138 151
0.418266 0.640940 1.719000 173 137 151
0.416320 0.640953 1.711000 176 138 152
0.414130 0.640561 1.702000 173 138 153
0.412183 0.640515 1.694000 171 137 152
0.410237 0.640442 1.686000 175 136 152
0.408047 0.639958 1.677000 179 135 151
0.406100 0.639827 1.669000 174 135 151
0.404154 0.639668 1.661000 169 137 152
0.400261 0.636386 1.645000 169 138 152
0.398557 0.636545 1.638000 169 139 152
0.396611 0.636289 1.630000 175 146 151
0.394664 0.636006 1.622000 181 141 150
0.392961 0.636088 1.615000 173 138 149
0.389311 0.632981 1.600000 165 136 148
0.387365 0.632603 1.592000 167 136 148
0.385661 0.632596 1.585000 170 138 151
0.382255 0.629758 1.571000 170 143 155
0.380308 0.629287 1.563000 171 144 155
0.378605 0.629193 1.556000 169 147 155
0.376902 0.629074 1.549000 167 144 154
0.375199 0.628930 1.542000 168 143 153
0.373739 0.629172 1.536000 169 141 154
0.373739 0.631861 1.536000 168 141 156
0.372036 0.631658 1.529000 168 142 157
0.370332 0.631430 1.522000 167 139 158
0.368629 0.631178 1.515000 167 140 154
0.365466 0.628391 1.502000 167 144 151
0.646740 0.720653 2.639000 159 119 130
0.636937 0.714279 2.599000 159 125 132
0.636937 0.718829 2.599000 158 128 130
0.632281 0.718090 2.580000 157 125 128
0.622968 0.711963 2.542000 156 125 129
0.613900 0.705986 2.505000 155 127 130
0.609489 0.705266 2.487000 155 129 129
0.605078 0.704484 2.469000 157 126 128
0.605078 0.708806 2.469000 159 127 130
0.600667 0.707929 2.451000 157 126 132
0.596500 0.707279 2.434000 156 125 133
0.592334 0.706570 2.417000 157 126 134
0.588168 0.705802 2.400000 159 128 133
0.588168 0.710003 2.400000 158 128 132
0.568563 0.690397 2.320000 157 128 134
0.564641 0.689669 2.304000 155 125 137
0.560965 0.689186 2.289000 154 126 135
0.557289 0.688650 2.274000 154 128 134
0.553613 0.688062 2.259000 155 127 135
0.549937 0.687422 2.244000 156 126 136
0.546506 0.687036 2.230000 157 126 136
0.542830 0.686292 2.215000 156 127 137
0.535968 0.681445 2.187000 155 130 135
0.532782 0.681200 2.174000 156 132 134
0.529351 0.680595 2.160000 157 135 135
0.526165 0.680257 2.147000 156 132 136
0.522734 0.679555 2.133000 156 132 134
0.516363 0.674960 2.107000 161 131 133
0.513422 0.674783 2.095000 166 130 134
0.510236 0.674240 2.082000 160 129 135
0.507050 0.673652 2.069000 155 130 137
0.504109 0.673346 2.057000 159 131 140
0.501168 0.672997 2.045000 162 129 140
0.498227 0.672607 2.033000 162 133 141
0.495287 0.672175 2.021000 163 137 142
0.486709 0.664010 1.986000 162 132 143
0.486709 0.667487 1.986000 161 126 145
0.486709 0.670963 1.986000 161 129 147
0.484013 0.670704 1.975000 161 132 146
0.478377 0.666310 1.952000 163 133 145
0.475681 0.665953 1.941000 165 134 144
0.470534 0.662109 1.920000 163 134 144
0.460241 0.650913 1.878000 162 134 145
0.457791 0.650717 1.868000 163 133 147
0.455340 0.650486 1.858000 165 132 147
0.455340 0.653738 1.858000 166 134 147
0.452889 0.653455 1.848000 167 136 147
0.452889 0.656690 1.848000 168 137 148
0.447988 0.652783 1.828000 170 140 148
0.445782 0.652753 1.819000 167 138 149
0.443332 0.652331 1.809000 165 138 147
0.441126 0.652236 1.800000 165 138 145
0.441126 0.655387 1.800000 164 139 140
0.438675 0.654880 1.790000 165 136 136
0.436470 0.654705 1.781000 166 131 143
0.434264 0.654498 1.772000 167 134 150
0.425442 0.644240 1.736000 169 136 150
0.421275 0.640940 1.719000 171 137 150
0.419315 0.640953 1.711000 172 140 151
0.417109 0.640561 1.702000 171 139 152
0.415149 0.640515 1.694000 169 139 152
0.413188 0.640442 1.686000 171 137 152
0.410982 0.639958 1.677000 173 136 150
0.409022 0.639827 1.669000 170 136 149
0.407061 0.639668 1.661000 168 137 150
0.403140 0.636386 1.645000 167 139 151
0.401425 0.636545 1.638000 167 140 151
0.399464 0.636289 1.630000 170 142 151
0.397504 0.636006 1.622000 174 141 152
0.395788 0.636088 1.615000 166 139 153
0.392112 0.632981 1.600000 159 138 153
0.390151 0.632603 1.592000 165 135 154
0.388436 0.632596 1.585000 172 128 154
0.385005 0.629758 1.571000 170 138 155
0.383044 0.629287 1.563000 169 142 155
0.381329 0.629193 1.556000 168 143 155
0.379613 0.629074 1.549000 166 143 152
0.377898 0.628930 1.542000 165 143 150
0.376428 0.629172 1.536000 164 146 153
0.376428 0.631861 1.536000 166 143 157
0.374712 0.631658 1.529000 168 141 157
0.372997 0.631430 1.522000 168 139 157
0.371281 0.631178 1.515000 167 140 151
0.369811 0.631320 1.509000 167 141 146
0.651359 0.720653 2.639000 150 118 128
0.646423 0.719776 2.619000 153 120 129
0.641487 0.718829 2.599000 157 124 128
0.636797 0.718090 2.580000 156 127 128
0.627418 0.711963 2.542000 156 126 130
0.627418 0.716413 2.542000 154 128 132
0.622728 0.715475 2.523000 152 126 132
0.618285 0.714756 2.505000 154 123 133
0.609400 0.708806 2.469000 157 125 130
0.604957 0.707929 2.451000 157 128 126
0.600761 0.707279 2.434000 157 127 129
0.596565 0.706570 2.417000 160 127 132
0.592369 0.705802 2.400000 163 128 132
0.584224 0.700240 2.367000 160 129 132
0.576326 0.694861 2.335000 157 127 133
0.572624 0.694459 2.320000 154 126 134
0.564972 0.689186 2.289000 152 127 134
0.561270 0.688650 2.274000 149 129 134
0.557568 0.688062 2.259000 147 127 136
0.553865 0.687422 2.244000 151 127 138
0.550410 0.687036 2.230000 156 127 137
0.546707 0.686292 2.215000 154 126 137
0.539796 0.681445 2.187000 153 128 136
0.536588 0.681200 2.174000 154 133 135
0.533132 0.680595 2.160000 156 133 135
0.533132 0.684376 2.160000 153 133 135
0.526468 0.679555 2.133000 150 131 133
0.520051 0.674960 2.107000 159 130 131
0.517089 0.674783 2.095000 168 130 132
0.513880 0.674240 2.082000 159 128 133
0.510672 0.673652 2.069000 151 131 135
0.507710 0.673346 2.057000 156 134 137
0.504748 0.672997 2.045000 161 133 139
0.498824 0.668637 2.021000 162 134 140
0.498824 0.672175 2.021000 163 135 142
0.493147 0.668023 1.998000 163 137 144
0.490186 0.667487 1.986000 163 132 147
0.490186 0.670963 1.986000 163 130 150
0.487471 0.670704 1.975000 164 132 148
0.481794 0.666310 1.952000 165 135 146
0.479079 0.665953 1.941000 167 135 144
0.473895 0.662109 1.920000 164 136 143
0.465997 0.654379 1.888000 162 134 147
0.463529 0.654201 1.878000 163 133 151
0.458593 0.650486 1.858000 165 133 145
0.458593 0.653738 1.858000 165 134 139
0.456124 0.653455 1.848000 166 136 143
0.453656 0.653136 1.838000 166 138 147
0.451188 0.652783 1.828000 166 139 148
0.448967 0.652753 1.819000 165 138 149
0.446498 0.652331 1.809000 164 137 147
0.446498 0.655498 1.809000 161 136 146
0.444277 0.655387 1.800000 159 137 144
0.441809 0.654880 1.790000 162 136 142
0.439587 0.654705 1.781000 166 134 145
0.435145 0.651174 1.763000 167 132 149
0.426506 0.641271 1.728000 168 135 150
0.424284 0.640940 1.719000 168 138 151
0.422310 0.640953 1.711000 169 139 151
0.418114 0.637550 1.694000 168 141 152
0.418114 0.640515 1.694000 168 139 152
0.416139 0.640442 1.686000 167 137 152
0.413918 0.639958 1.677000 167 137 148
0.411943 0.639827 1.669000 167 138 144
0.409969 0.639668 1.661000 167 139 147
0.406020 0.636386 1.645000 166 141 150
0.404292 0.636545 1.638000 166 141 149
0.402317 0.636289 1.630000 166 142 149
0.400343 0.636006 1.622000 167 142 151
0.398615 0.636088 1.615000 160 141 152
0.394913 0.632981 1.600000 154 140 153
0.392938 0.632603 1.592000 164 141 155
0.391211 0.632596 1.585000 174 137 156
0.387755 0.629758 1.571000 171 141 157
0.385780 0.629287 1.563000 168 141 156
0.384053 0.629193 1.556000 167 143 155
0.382325 0.629074 1.549000 166 142 153
0.380597 0.628930 1.542000 162 141 152
0.379116 0.629172 1.536000 159 144 157
0.379116 0.631861 1.536000 164 144 161
0.377389 0.631658 1.529000 169 141 159
0.375661 0.631430 1.522000 168 139 157
0.373933 0.631178 1.515000 168 141 154
0.370724 0.628391 1.502000 168 143 151
0.651008 0.719776 2.619000 155 121 126
0.641313 0.713574 2.580000 157 124 127
0.636342 0.712524 2.560000 158 125 128
0.631868 0.711963 2.542000 159 126 131
0.627145 0.711058 2.523000 157 126 134
0.618196 0.705266 2.487000 154 125 136
0.613722 0.704484 2.469000 156 123 139
0.609248 0.703638 2.451000 157 122 130
0.605022 0.703018 2.434000 157 126 121
0.605022 0.707279 2.434000 156 129 126
0.600796 0.706570 2.417000 157 127 131
0.596570 0.705802 2.400000 158 130 131
0.588368 0.700240 2.367000 156 129 132
0.580413 0.694861 2.335000 155 128 132
0.576685 0.694459 2.320000 154 127 132
0.568979 0.689186 2.289000 153 127 133
0.565250 0.688650 2.274000 152 128 135
0.561522 0.688062 2.259000 151 128 138
0.557793 0.687422 2.244000 155 127 141
0.554313 0.687036 2.230000 159 129 139
0.550585 0.686292 2.215000 157 126 137
0.543625 0.681445 2.187000 155 123 136
0.540393 0.681200 2.174000 159 130 136
0.540393 0.685006 2.174000 162 133 135
0.536913 0.684376 2.160000 158 132 134
0.530202 0.679555 2.133000 154 132 132
0.523739 0.674960 2.107000 160 132 130
0.520756 0.674783 2.095000 165 133 131
0.514293 0.670030 2.069000 160 132 132
0.514293 0.673652 2.069000 155 135 133
0.511311 0.673346 2.057000 159 134 135
0.508328 0.672997 2.045000 163 135 137
0.505345 0.672607 2.033000 163 134 140
0.499379 0.668183 2.009000 163 134 143
0.493662 0.664010 1.986000 165 135 146
0.490928 0.663790 1.975000 167 135 149
0.493662 0.670963 1.986000 165 132 153
0.488193 0.666969 1.964000 164 134 150
0.485211 0.666310 1.952000 164 135 147
0.482476 0.665953 1.941000 164 138 144
0.477256 0.662109 1.920000 162 136 142
0.469302 0.654379 1.888000 159 136 148
0.469302 0.657684 1.888000 162 135 155
0.466816 0.657488 1.878000 165 134 143
0.459359 0.650220 1.848000 165 134 132
0.456873 0.649919 1.838000 165 136 139
0.454388 0.649583 1.828000 166 142 146
0.452151 0.649569 1.819000 167 140 147
0.452151 0.652753 1.819000 165 137 149
0.449665 0.652331 1.809000 164 136 148
0.449665 0.655498 1.809000 163 136 148
0.447428 0.655387 1.800000 163 137 148
0.444942 0.654880 1.790000 168 137 148
0.442705 0.654705 1.781000 173 139 148
0.438231 0.651174 1.763000 170 136 149
0.429531 0.641271 1.728000 167 135 151
0.427294 0.640940 1.719000 165 137 153
0.425305 0.640953 1.711000 163 139 152
0.423068 0.640561 1.702000 167 139 152
0.421079 0.640515 1.694000 170 141 152
0.419091 0.640442 1.686000 167 138 152
0.416854 0.639958 1.677000 163 139 146
0.416854 0.642894 1.677000 164 138 140
0.412876 0.639668 1.661000 166 140 144
0.408899 0.636386 1.645000 166 142 149
0.407159 0.636545 1.638000 166 144 148
0.405171 0.636289 1.630000 168 146 148
0.403182 0.636006 1.622000 171 145 150
0.401442 0.636088 1.615000 164 142 152
0.397714 0.632981 1.600000 158 142 154
0.395725 0.632603 1.592000 164 140 156
0.393985 0.632596 1.585000 170 141 158
0.390505 0.629758 1.571000 167 141 160
0.388516 0.629287 1.563000 164 141 157
0.386777 0.629193 1.556000 165 142 155
0.385036 0.629074 1.549000 166 143 155
0.383296 0.628930 1.542000 165 142 155
0.381805 0.629172 1.536000 163 145 160
0.381805 0.631861 1.536000 168 143 166
0.380065 0.631658 1.529000 173 141 161
0.378325 0.631430 1.522000 172 140 157
0.375094 0.628678 1.509000 170 142 156
0.373354 0.628391 1.502000 170 142 156
0.653089 0.717028 2.609000 157 122 125
0.645829 0.713574 2.580000 158 124 126
0.645829 0.718090 2.580000 160 126 128
0.636317 0.711963 2.542000 163 125 130
0.631561 0.711058 2.523000 160 125 132
0.627055 0.710371 2.505000 157 124 133
0.618044 0.704484 2.469000 157 122 134
0.613538 0.703638 2.451000 158 122 130
0.609282 0.703018 2.434000 157 126 125
0.609282 0.707279 2.434000 156 127 128
0.609282 0.711540 2.434000 154 125 131
0.605027 0.710801 2.417000 153 128 130
0.596766 0.705270 2.384000 153 129 130
0.588506 0.699623 2.351000 154 128 129
0.580746 0.694459 2.320000 154 127 128
0.572986 0.689186 2.289000 155 128 130
0.569231 0.688650 2.274000 155 131 133
0.565476 0.688062 2.259000 156 128 136
0.561722 0.687422 2.244000 159 127 138
0.561722 0.691350 2.244000 162 128 137
0.558217 0.690940 2.230000 160 129 135
0.550958 0.685808 2.201000 158 128 133
0.547453 0.685274 2.187000 163 133 132
0.544199 0.685006 2.174000 169 132 133
0.540694 0.684376 2.160000 164 132 134
0.533936 0.679555 2.133000 159 132 133
0.527427 0.674960 2.107000 161 133 132
0.524424 0.674783 2.095000 163 133 132
0.517915 0.670030 2.069000 161 133 132
0.517915 0.673652 2.069000 160 131 133
0.514911 0.673346 2.057000 163 132 135
0.514911 0.676947 2.057000 166 132 135
0.508904 0.672607 2.033000 165 134 135
0.502896 0.668183 2.009000 164 134 140
0.497139 0.664010 1.986000 167 135 144
0.494385 0.663790 1.975000 171 133 147
0.491631 0.663531 1.964000 168 131 149
0.488628 0.662893 1.952000 165 133 146
0.485874 0.662556 1.941000 163 135 143
0.483371 0.662522 1.931000 162 135 139
0.480617 0.662109 1.920000 159 137 136
0.475361 0.658192 1.899000 157 136 143
0.472607 0.657684 1.888000 161 137 149
0.467601 0.653987 1.868000 165 134 144
0.462594 0.650220 1.848000 165 133 139
0.460091 0.649919 1.838000 165 139 143
0.457588 0.649583 1.828000 166 154 147
0.455335 0.649569 1.819000 168 142 150
0.455335 0.652753 1.819000 166 137 153
0.452832 0.652331 1.809000 164 137 151
0.452832 0.655498 1.809000 166 137 149
0.450579 0.655387 1.800000 168 137 149
0.448076 0.654880 1.790000 174 138 149
0.443570 0.651396 1.772000 180 138 149
0.441317 0.651174 1.763000 173 138 149
0.432556 0.641271 1.728000 166 137 153
0.428300 0.637958 1.711000 162 138 157
0.426047 0.637581 1.702000 158 138 152
0.424045 0.637550 1.694000 165 136 146
0.424045 0.640515 1.694000 173 137 151
0.422042 0.640442 1.686000 166 136 156
0.419789 0.639958 1.677000 160 136 150
0.419789 0.642894 1.677000 162 135 145
0.415784 0.639668 1.661000 165 139 147
0.411779 0.636386 1.645000 165 143 149
0.410027 0.636545 1.638000 166 146 149
0.408024 0.636289 1.630000 170 154 148
0.406021 0.636006 1.622000 175 147 149
0.404269 0.636088 1.615000 169 143 149
0.402267 0.635750 1.607000 163 141 152
0.400514 0.635782 1.600000 164 138 155
0.396760 0.632596 1.585000 166 140 155
0.395007 0.632564 1.578000 163 141 155
0.391253 0.629287 1.563000 160 141 154
0.389500 0.629193 1.556000 163 141 153
0.387748 0.629074 1.549000 167 140 153
0.385996 0.628930 1.542000 167 141 154
0.385996 0.631630 1.542000 168 140 157
0.384494 0.631861 1.536000 173 143 160
0.382742 0.631658 1.529000 178 142 158
0.380989 0.631430 1.522000 175 141 156
0.379237 0.631178 1.515000 173 141 156
0.375983 0.628391 1.502000 173 142 156
0.655135 0.714279 2.599000 156 123 124
0.650346 0.713574 2.580000 157 124 126
0.645304 0.712524 2.560000 159 123 128
0.640767 0.711963 2.542000 161 123 129
0.635978 0.711058 2.523000 159 124 130
0.626903 0.705266 2.487000 157 125 130
0.617828 0.699348 2.451000 157 122 130
0.617828 0.703638 2.451000 158 121 130
0.613543 0.703018 2.434000 157 125 130
0.609258 0.702339 2.417000 156 128 131
0.609258 0.706570 2.417000 155 129 132
0.604973 0.705802 2.400000 155 129 130
0.592621 0.695507 2.351000 155 128 128
0.592621 0.699623 2.351000 155 129 126
0.584807 0.694459 2.320000 155 127 124
0.576993 0.689186 2.289000 155 128 128
0.573212 0.688650 2.274000 154 129 132
0.569431 0.688062 2.259000 154 128 134
0.565650 0.687422 2.244000 157 128 136
0.565650 0.691350 2.244000 160 130 135
0.562121 0.690940 2.230000 159 129 134
0.551282 0.681445 2.187000 158 130 131
0.551282 0.685274 2.187000 160 130 128
0.548005 0.685006 2.174000 162 132 131
0.548005 0.688811 2.174000 160 131 135
0.537670 0.679555 2.133000 159 133 135
0.528091 0.671116 2.095000 160 133 135
0.524814 0.670596 2.082000 162 134 133
0.521537 0.670030 2.069000 159 131 132
0.521537 0.673652 2.069000 156 125 134
0.521537 0.677274 2.069000 160 128 136
0.518512 0.676947 2.057000 164 130 133
0.515487 0.676577 2.045000 163 132 131
0.506413 0.668183 2.009000 163 135 137
0.503388 0.667688 1.997000 164 135 143
0.497842 0.663790 1.975000 165 134 144
0.495069 0.663531 1.964000 164 132 146
0.492045 0.662893 1.952000 164 134 142
0.489272 0.662556 1.941000 163 132 139
0.486751 0.662522 1.931000 162 131 135
0.483978 0.662109 1.920000 161 134 131
0.481205 0.661658 1.909000 160 137 137
0.478685 0.661516 1.899000 164 135 144
0.473391 0.657488 1.878000 169 134 145
0.465829 0.650220 1.848000 166 133 147
0.463308 0.649919 1.838000 164 136 148
0.460788 0.649583 1.828000 164 140 149
0.458519 0.649569 1.819000 165 138 153
0.458519 0.652753 1.819000 163 139 158
0.455998 0.652331 1.809000 161 141 154
0.455998 0.655498 1.809000 164 138 150
0.453730 0.655387 1.800000 167 138 150
0.451209 0.654880 1.790000 170 137 151
0.446672 0.651396 1.772000 174 139 150
0.444403 0.651174 1.763000 170 138 150
0.435580 0.641271 1.728000 165 138 156
0.433312 0.640940 1.719000 163 138 162
0.431295 0.640953 1.711000 162 139 151
0.429027 0.640561 1.702000 167 136 141
0.427010 0.640515 1.694000 172 136 151
0.424993 0.640442 1.686000 168 136 161
0.422725 0.639958 1.677000 164 136 155
0.420708 0.639827 1.669000 166 136 150
0.418692 0.639668 1.661000 169 138 150
0.414658 0.636386 1.645000 166 141 150
0.412894 0.636545 1.638000 163 145 149
0.410877 0.636289 1.630000 166 146 149
0.408861 0.636006 1.622000 170 146 148
0.407096 0.636088 1.615000 167 143 147
0.405080 0.635750 1.607000 165 143 150
0.403315 0.635782 1.600000 165 139 154
0.401299 0.635390 1.592000 165 140 152
0.396005 0.629758 1.571000 164 140 151
0.393989 0.629287 1.563000 163 143 151
0.392224 0.629193 1.556000 164 139 151
0.390460 0.629074 1.549000 166 137 152
0.388695 0.628930 1.542000 165 137 154
0.387183 0.629172 1.536000 164 134 154
0.387183 0.631861 1.536000 168 139 155
0.385418 0.631658 1.529000 173 143 155
0.383654 0.631430 1.522000 172 142 155
0.380377 0.628678 1.509000 171 142 155
0.377100 0.625881 1.496000 171 141 156
0.657147 0.711531 2.589000 155 125 125
0.649786 0.708042 2.560000 157 123 126
0.649786 0.712524 2.560000 158 122 127
0.645217 0.711963 2.542000 159 123 129
0.631257 0.700913 2.487000 158 126 131
0.622119 0.695057 2.451000 157 124 133
0.617804 0.694497 2.434000 158 121 135
0.617804 0.698758 2.434000 159 122 133
0.617804 0.703018 2.434000 158 125 131
0.613489 0.702339 2.417000 157 129 133
0.613489 0.706570 2.417000 157 135 135
0.609174 0.705802 2.400000 157 129 132
0.600798 0.700240 2.367000 156 126 129
0.592676 0.694861 2.335000 156 127 128
0.584807 0.689669 2.304000 155 127 127
0.581000 0.689186 2.289000 155 127 130
0.573385 0.684108 2.259000 153 129 133
0.569578 0.683493 2.244000 152 128 134
0.566024 0.683133 2.230000 155 129 136
0.566024 0.687036 2.230000 159 129 136
0.558663 0.681955 2.201000 158 130 136
0.555110 0.681445 2.187000 158 129 134
0.551810 0.681200 2.174000 156 128 133
0.551810 0.685006 2.174000 155 129 134
0.548257 0.684376 2.160000 157 130 135
0.541403 0.679555 2.133000 159 131 135
0.538104 0.679124 2.120000 160 135 136
0.531758 0.674783 2.095000 161 133 135
0.528458 0.674240 2.082000 157 132 135
0.525159 0.673652 2.069000 153 129 136
0.525159 0.677274 2.069000 158 128 137
0.522113 0.676947 2.057000 163 130 136
0.519067 0.676577 2.045000 162 131 135
0.512975 0.672175 2.021000 162 134 137
0.509929 0.671700 2.009000 161 136 140
0.501300 0.663790 1.975000 160 134 141
0.498507 0.663531 1.964000 161 132 143
0.492670 0.659158 1.941000 163 132 141
0.492670 0.662556 1.941000 163 131 139
0.490131 0.662522 1.931000 163 130 137
0.487339 0.662109 1.920000 163 132 135
0.484547 0.661658 1.909000 164 134 139
0.482009 0.661516 1.899000 168 134 143
0.476679 0.657488 1.878000 173 133 147
0.469064 0.650220 1.848000 168 131 151
0.463988 0.646383 1.828000 163 132 150
0.463988 0.649583 1.828000 163 133 148
0.461703 0.649569 1.819000 163 137 151
0.459165 0.649164 1.809000 161 140 154
0.459165 0.652331 1.809000 159 139 151
0.459165 0.655498 1.809000 162 137 149
0.459165 0.658664 1.809000 166 137 149
0.456881 0.658538 1.800000 167 136 149
0.452058 0.654705 1.781000 169 138 149
0.447489 0.651174 1.763000 167 138 149
0.438605 0.641271 1.728000 165 138 153
0.436321 0.640940 1.719000 165 140 157
0.434290 0.640953 1.711000 166 137 151
0.434290 0.643948 1.711000 169 133 145
0.432006 0.643540 1.702000 172 135 150
0.429975 0.643480 1.694000 170 138 156
0.427945 0.643393 1.686000 168 138 152
0.425660 0.642894 1.677000 171 138 148
0.421599 0.639668 1.661000 174 138 149
0.419569 0.639481 1.653000 167 141 151
0.415761 0.636545 1.638000 160 141 153
0.413731 0.636289 1.630000 162 142 155
0.411700 0.636006 1.622000 165 143 153
0.411700 0.638845 1.622000 166 143 152
0.407893 0.635750 1.607000 167 140 155
0.406116 0.635782 1.600000 166 138 159
0.406116 0.638582 1.600000 165 139 154
0.400532 0.632564 1.578000 165 139 148
0.396725 0.629287 1.563000 166 140 151
0.394948 0.629193 1.556000 165 138 155
0.393171 0.629074 1.549000 165 136 154
0.391394 0.628930 1.542000 162 136 153
0.389871 0.629172 1.536000 160 136 154
0.389871 0.631861 1.536000 164 136 154
0.388095 0.631658 1.529000 169 140 154
0.386318 0.631430 1.522000 169 145 155
0.384541 0.631178 1.515000 169 142 154
0.381241 0.628391 1.502000 169 140 154
0.659378 0.709058 2.580000 156 121 127
0.654267 0.708042 2.560000 162 121 126
0.654267 0.712524 2.560000 160 122 126
0.649667 0.711963 2.542000 159 123 129
0.631010 0.695840 2.469000 158 123 132
0.626410 0.695057 2.451000 157 124 136
0.622065 0.694497 2.434000 159 122 140
0.622065 0.698758 2.434000 161 124 136
0.622065 0.703018 2.434000 159 125 132
0.617720 0.702339 2.417000 157 129 135
0.617720 0.706570 2.417000 158 129 139
0.613375 0.705802 2.400000 159 127 135
0.604941 0.700240 2.367000 158 126 131
0.596763 0.694861 2.335000 158 127 130
0.592929 0.694459 2.320000 157 126 130
0.585007 0.689186 2.289000 156 126 132
0.581173 0.688650 2.274000 155 127 135
0.573506 0.683493 2.244000 154 129 135
0.573506 0.687422 2.244000 157 129 136
0.569928 0.687036 2.230000 160 127 137
0.566094 0.686292 2.215000 159 128 138
0.558938 0.681445 2.187000 159 129 138
0.558938 0.685274 2.187000 158 129 138
0.558938 0.689102 2.187000 158 129 136
0.552038 0.684376 2.160000 159 129 135
0.548715 0.684015 2.147000 161 129 136
0.541815 0.679124 2.120000 160 128 138
0.538492 0.678648 2.107000 160 134 138
0.532103 0.674240 2.082000 158 132 138
0.528781 0.673652 2.069000 156 133 138
0.528781 0.677274 2.069000 160 131 139
0.525714 0.676947 2.057000 163 132 139
0.522647 0.676577 2.045000 164 132 139
0.519580 0.676166 2.033000 164 134 138
0.513446 0.671700 2.009000 163 135 138
0.507568 0.667487 1.986000 161 136 139
0.498879 0.659477 1.952000 162 133 140
0.496067 0.659158 1.941000 163 132 139
0.496067 0.662556 1.941000 162 132 139
0.493512 0.662522 1.931000 161 127 139
0.493512 0.665903 1.931000 162 130 139
0.487889 0.661658 1.909000 162 133 140
0.485333 0.661516 1.899000 165 133 142
0.482522 0.660989 1.888000 168 134 149
0.472299 0.650220 1.848000 163 131 156
0.467187 0.646383 1.828000 159 129 152
0.464887 0.646384 1.819000 161 135 148
0.464887 0.649569 1.819000 163 139 149
0.462332 0.649164 1.809000 162 139 150
0.462332 0.652331 1.809000 162 140 149
0.462332 0.655498 1.809000 164 138 149
0.460031 0.655387 1.800000 167 138 148
0.460031 0.658538 1.800000 169 139 148
0.455176 0.654705 1.781000 171 141 148
0.448275 0.647850 1.754000 168 138 148
0.441630 0.641271 1.728000 166 138 150
0.439330 0.640940 1.719000 166 138 152
0.439330 0.643950 1.719000 167 137 151
0.437285 0.643948 1.711000 170 135 150
0.434985 0.643540 1.702000 173 135 150
0.432941 0.643480 1.694000 169 137 151
0.430896 0.643393 1.686000 165 140 148
0.428596 0.642894 1.677000 168 137 146
0.426551 0.642749 1.669000 171 137 149
0.422462 0.639481 1.653000 167 139 153
0.418629 0.636545 1.638000 163 139 157
0.416584 0.636289 1.630000 165 140 161
0.414539 0.636006 1.622000 167 141 159
0.414539 0.638845 1.622000 169 139 157
0.410706 0.635750 1.607000 171 139 161
0.410706 0.638563 1.607000 169 139 165
0.408917 0.638582 1.600000 167 139 155
0.405083 0.635370 1.585000 168 140 146
0.399461 0.629287 1.563000 170 142 152
0.397672 0.629193 1.556000 168 138 159
0.395883 0.629074 1.549000 167 136 156
0.394094 0.628930 1.542000 165 137 153
0.392560 0.629172 1.536000 163 140 153
0.392560 0.631861 1.536000 165 138 154
0.390771 0.631658 1.529000 168 139 154
0.388982 0.631430 1.522000 168 141 155
0.387193 0.631178 1.515000 169 142 154
0.383871 0.628391 1.502000 169 141 153
0.679077 0.716033 2.639000 149 119 126
0.679077 0.720653 2.639000 147 119 125
0.673930 0.719776 2.619000 157 118 125
0.663895 0.713574 2.580000 168 121 126
0.663895 0.718090 2.580000 163 125 127
0.654116 0.711963 2.542000 159 124 128
0.639964 0.700913 2.487000 158 122 130
0.630700 0.695057 2.451000 157 122 133
0.626325 0.694497 2.434000 160 122 136
0.626325 0.698758 2.434000 164 123 133
0.626325 0.703018 2.434000 161 125 130
0.621951 0.702339 2.417000 158 126 132
0.621951 0.706570 2.417000 160 126 134
0.617576 0.705802 2.400000 162 126 132
0.613459 0.705270 2.384000 161 127 130
0.604968 0.699623 2.351000 160 126 128
0.596991 0.694459 2.320000 159 127 127
0.589013 0.689186 2.289000 158 126 130
0.585154 0.688650 2.274000 157 126 134
0.581294 0.688062 2.259000 157 128 134
0.577434 0.687422 2.244000 159 132 134
0.573831 0.687036 2.230000 162 129 135
0.569972 0.686292 2.215000 161 127 137
0.562766 0.681445 2.187000 160 129 138
0.562766 0.685274 2.187000 160 130 140
0.559421 0.685006 2.174000 161 129 137
0.555819 0.684376 2.160000 162 128 134
0.552474 0.684015 2.147000 164 125 134
0.548871 0.683289 2.133000 161 114 134
0.542181 0.678648 2.107000 159 127 136
0.535748 0.674240 2.082000 159 131 138
0.532402 0.673652 2.069000 160 132 138
0.529314 0.673346 2.057000 162 133 138
0.529314 0.676947 2.057000 164 133 138
0.523139 0.672607 2.033000 165 134 138
0.520051 0.672175 2.021000 167 134 138
0.516963 0.671700 2.009000 165 134 137
0.511045 0.667487 1.986000 163 132 138
0.508214 0.667247 1.975000 163 132 139
0.502295 0.662893 1.952000 164 135 138
0.499465 0.662556 1.941000 162 140 137
0.499465 0.665953 1.941000 160 132 141
0.496892 0.665903 1.931000 160 130 144
0.491231 0.661658 1.909000 161 131 141
0.488657 0.661516 1.899000 162 131 137
0.485827 0.660989 1.888000 163 132 143
0.470387 0.643183 1.828000 159 132 149
0.470387 0.646383 1.828000 156 133 148
0.470387 0.649583 1.828000 159 141 146
0.468071 0.649569 1.819000 163 139 147
0.468071 0.652753 1.819000 164 140 149
0.465498 0.652331 1.809000 165 138 148
0.465498 0.655498 1.809000 166 137 147
0.463182 0.655387 1.800000 168 138 146
0.460609 0.654880 1.790000 171 142 146
0.455977 0.651396 1.772000 174 139 146
0.451345 0.647850 1.754000 170 137 146
0.446714 0.644240 1.736000 167 138 148
0.444655 0.644296 1.728000 167 137 150
0.442339 0.643950 1.719000 168 137 150
0.440280 0.643948 1.711000 171 136 150
0.437965 0.643540 1.702000 175 136 151
0.435906 0.643480 1.694000 168 137 152
0.433847 0.643393 1.686000 162 137 150
0.431531 0.642894 1.677000 165 134 148
0.429473 0.642749 1.669000 168 137 149
0.425356 0.639481 1.653000 167 140 151
0.421496 0.636545 1.638000 167 139 152
0.419437 0.636289 1.630000 168 138 154
0.417379 0.636006 1.622000 169 138 153
0.415577 0.636088 1.615000 172 135 153
0.415577 0.638915 1.615000 175 138 156
0.413519 0.638563 1.607000 172 143 160
0.411718 0.638582 1.600000 169 141 154
0.407858 0.635370 1.585000 172 143 149
0.404255 0.632508 1.571000 175 140 152
0.400395 0.629193 1.556000 172 137 156
0.398594 0.629074 1.549000 169 137 152
0.396793 0.628930 1.542000 167 137 148
0.395249 0.629172 1.536000 166 138 150
0.395249 0.631861 1.536000 166 139 153
0.393448 0.631658 1.529000 167 139 153
0.391646 0.631430 1.522000 168 140 154
0.388301 0.628678 1.509000 169 141 152
0.384956 0.625881 1.496000 169 143 151
0.685251 0.717661 2.645000 150 121 126
0.683696 0.720653 2.639000 150 119 124
0.678515 0.719776 2.619000 156 119 123
0.668411 0.713574 2.580000 162 120 125
0.668411 0.718090 2.580000 160 123 128
0.658566 0.711963 2.542000 158 126 128
0.648980 0.705986 2.505000 156 122 128
0.634990 0.695057 2.451000 155 122 130
0.630586 0.694497 2.434000 156 122 133
0.630586 0.698758 2.434000 157 123 131
0.630586 0.703018 2.434000 157 125 129
0.626182 0.702339 2.417000 158 127 129
0.626182 0.706570 2.417000 159 126 129
0.621778 0.705802 2.400000 160 125 129
0.613228 0.700240 2.367000 159 125 129
0.609083 0.699623 2.351000 159 126 127
0.601052 0.694459 2.320000 159 126 125
0.593020 0.689186 2.289000 159 127 129
0.589134 0.688650 2.274000 160 127 133
0.585248 0.688062 2.259000 161 128 132
0.581362 0.687422 2.244000 161 130 132
0.577735 0.687036 2.230000 160 131 134
0.577735 0.690940 2.230000 160 129 136
0.566595 0.681445 2.187000 160 130 139
0.566595 0.685274 2.187000 160 129 142
0.563227 0.685006 2.174000 160 130 138
0.559600 0.684376 2.160000 160 129 134
0.556232 0.684015 2.147000 161 130 132
0.552605 0.683289 2.133000 161 127 131
0.549237 0.682835 2.120000 160 131 135
0.539392 0.674240 2.082000 163 131 139
0.536024 0.673652 2.069000 165 133 138
0.532915 0.673346 2.057000 164 134 137
0.529806 0.672997 2.045000 164 134 137
0.526697 0.672607 2.033000 164 133 138
0.523589 0.672175 2.021000 165 134 137
0.520480 0.671700 2.009000 164 131 137
0.517630 0.671520 1.998000 162 129 138
0.511671 0.667247 1.975000 162 132 139
0.505713 0.662893 1.952000 162 137 137
0.502863 0.662556 1.941000 159 139 136
0.502863 0.665953 1.941000 156 134 143
0.500272 0.665903 1.931000 158 131 150
0.497422 0.665470 1.920000 160 131 141
0.491982 0.661516 1.899000 161 132 133
0.489132 0.660989 1.888000 163 134 138
0.476178 0.646701 1.838000 161 133 143
0.476178 0.649919 1.838000 159 132 144
0.473587 0.649583 1.828000 162 136 145
0.471256 0.649569 1.819000 165 138 146
0.468665 0.649164 1.809000 166 137 148
0.468665 0.652331 1.809000 168 135 146
0.466333 0.652236 1.800000 166 135 145
0.463742 0.651746 1.790000 164 135 145
0.461411 0.651587 1.781000 166 137 145
0.459079 0.651396 1.772000 169 138 144
0.454416 0.647850 1.754000 165 138 144
0.449752 0.644240 1.736000 161 140 146
0.447680 0.644296 1.728000 164 138 149
0.445348 0.643950 1.719000 167 138 150
0.445348 0.646959 1.719000 169 137 151
0.443276 0.646943 1.711000 171 136 152
0.438871 0.643480 1.694000 168 137 153
0.436799 0.643393 1.686000 164 140 152
0.434467 0.642894 1.677000 167 139 151
0.432395 0.642749 1.669000 170 138 150
0.430322 0.642576 1.661000 168 139 149
0.426177 0.639265 1.645000 167 140 148
0.424363 0.639412 1.638000 167 139 148
0.420218 0.636006 1.622000 168 140 148
0.418405 0.636088 1.615000 170 138 149
0.418405 0.638915 1.615000 172 137 152
0.416332 0.638563 1.607000 170 139 155
0.414518 0.638582 1.600000 168 139 153
0.410632 0.635370 1.585000 170 139 152
0.404933 0.629287 1.563000 172 139 153
0.403119 0.629193 1.556000 169 138 154
0.401306 0.629074 1.549000 167 139 149
0.399492 0.628930 1.542000 165 139 144
0.397938 0.629172 1.536000 163 139 148
0.397938 0.631861 1.536000 165 139 152
0.396124 0.631658 1.529000 167 139 152
0.394311 0.631430 1.522000 168 139 153
0.389129 0.625762 1.502000 169 140 151
0.387575 0.625881 1.496000 169 140 150
0.691707 0.719561 2.652000 152 122 126
0.688316 0.720653 2.639000 153 120 125
0.683100 0.719776 2.619000 155 121 125
0.677883 0.718829 2.599000 157 122 127
0.672927 0.718090 2.580000 157 124 129
0.663016 0.711963 2.542000 157 123 128
0.658060 0.711058 2.523000 155 121 127
0.648671 0.705266 2.487000 153 122 132
0.634847 0.694497 2.434000 151 124 136
0.634847 0.698758 2.434000 150 124 132
0.634847 0.703018 2.434000 154 127 128
0.630413 0.702339 2.417000 158 126 129
0.630413 0.706570 2.417000 158 126 129
0.625979 0.705802 2.400000 158 125 129
0.621806 0.705270 2.384000 158 124 130
0.613198 0.699623 2.351000 159 125 129
0.605113 0.694459 2.320000 159 126 128
0.597027 0.689186 2.289000 160 128 130
0.593115 0.688650 2.274000 163 128 132
0.589203 0.688062 2.259000 166 129 132
0.585290 0.687422 2.244000 162 132 131
0.581639 0.687036 2.230000 159 131 133
0.581639 0.690940 2.230000 159 130 135
0.577726 0.690170 2.215000 160 129 136
0.570423 0.685274 2.187000 159 129 138
0.563381 0.680595 2.160000 159 129 135
0.559990 0.680257 2.147000 159 130 133
0.556339 0.679555 2.133000 159 131 130
0.552948 0.679124 2.120000 160 134 127
0.549557 0.678648 2.107000 162 131 132
0.543037 0.674240 2.082000 166 129 137
0.539646 0.673652 2.069000 171 131 135
0.536516 0.673346 2.057000 167 138 132
0.533386 0.672997 2.045000 164 135 136
0.530256 0.672607 2.033000 164 131 141
0.527126 0.672175 2.021000 164 131 137
0.523996 0.671700 2.009000 163 129 134
0.521127 0.671520 1.998000 162 130 135
0.515128 0.667247 1.975000 161 130 136
0.509129 0.662893 1.952000 160 135 135
0.506260 0.662556 1.941000 156 145 134
0.506260 0.665953 1.941000 152 134 139
0.503652 0.665903 1.931000 155 130 144
0.500783 0.665470 1.920000 159 131 139
0.495306 0.661516 1.899000 161 132 135
0.495306 0.664840 1.899000 163 134 138
0.487220 0.657257 1.868000 162 136 142
0.482004 0.653455 1.848000 162 134 143
0.476787 0.649583 1.828000 164 133 145
0.474440 0.649569 1.819000 167 136 147
0.471832 0.649164 1.809000 169 138 150
0.471832 0.652331 1.809000 171 135 147
0.469484 0.652236 1.800000 166 133 145
0.466876 0.651746 1.790000 161 135 144
0.464528 0.651587 1.781000 162 136 143
0.459834 0.648088 1.763000 164 137 144
0.457486 0.647850 1.754000 159 137 145
0.452791 0.644240 1.736000 155 138 147
0.450705 0.644296 1.728000 160 137 149
0.448357 0.643950 1.719000 166 137 149
0.448357 0.646959 1.719000 167 138 149
0.443923 0.643540 1.702000 168 137 150
0.441837 0.643480 1.694000 167 138 151
0.439750 0.643393 1.686000 167 141 148
0.437403 0.642894 1.677000 169 144 146
0.435316 0.642749 1.669000 172 141 146
0.433230 0.642576 1.661000 170 139 147
0.431143 0.642374 1.653000 168 139 145
0.429056 0.642145 1.645000 167 139 143
0.425144 0.639143 1.630000 167 139 145
0.421232 0.636088 1.615000 168 141 148
0.421232 0.638915 1.615000 170 140 150
0.419145 0.638563 1.607000 169 137 152
0.417319 0.638582 1.600000 168 137 152
0.413407 0.635370 1.585000 168 137 152
0.409755 0.632508 1.571000 169 138 152
0.407669 0.632023 1.563000 167 140 153
0.404017 0.629074 1.549000 165 141 149
0.404017 0.631785 1.549000 163 144 146
0.402191 0.631630 1.542000 161 141 149
0.398801 0.628981 1.529000 164 139 152
0.396975 0.628766 1.522000 167 138 152
0.395149 0.628526 1.515000 168 138 152
0.393584 0.628678 1.509000 169 139 152
0.390193 0.625881 1.496000 169 140 151
0.698187 0.721460 2.659000 149 121 126
0.692936 0.720653 2.639000 153 121 127
0.692936 0.725272 2.639000 154 121 128
0.682433 0.718829 2.599000 155 124 129
0.682433 0.723379 2.599000 155 122 131
0.672192 0.717005 2.560000 154 121 129
0.662477 0.711058 2.523000 153 122 127
0.657750 0.710371 2.505000 153 124 133
0.639108 0.694497 2.434000 153 124 140
0.639108 0.698758 2.434000 153 124 134
0.634644 0.698108 2.417000 157 125 128
0.634644 0.702339 2.417000 162 127 129
0.634644 0.706570 2.417000 160 126 130
0.630180 0.705802 2.400000 158 125 130
0.621515 0.700240 2.367000 157 124 131
0.613113 0.694861 2.335000 157 125 131
0.609174 0.694459 2.320000 156 126 132
0.601034 0.689186 2.289000 156 131 132
0.601034 0.693193 2.289000 159 130 132
0.597096 0.692631 2.274000 162 131 131
0.593157 0.692017 2.259000 160 131 131
0.589218 0.691350 2.244000 159 132 132
0.585542 0.690940 2.230000 161 130 134
0.574252 0.681445 2.187000 162 130 134
0.574252 0.685274 2.187000 158 129 134
0.570838 0.685006 2.174000 154 129 133
0.563749 0.680257 2.147000 156 131 132
0.560073 0.679555 2.133000 159 133 128
0.556659 0.679124 2.120000 159 132 124
0.553246 0.678648 2.107000 159 133 130
0.546681 0.674240 2.082000 161 128 136
0.543268 0.673652 2.069000 163 125 132
0.540117 0.673346 2.057000 162 133 128
0.536966 0.672997 2.045000 162 138 136
0.533815 0.672607 2.033000 162 134 144
0.530664 0.672175 2.021000 162 130 137
0.527513 0.671700 2.009000 161 130 131
0.524625 0.671520 1.998000 160 132 132
0.518586 0.667247 1.975000 161 131 134
0.512546 0.662893 1.952000 161 131 133
0.509658 0.662556 1.941000 159 134 132
0.509658 0.665953 1.941000 156 130 135
0.507032 0.665903 1.931000 158 130 139
0.504144 0.665470 1.920000 159 131 138
0.498630 0.661516 1.899000 160 132 137
0.498630 0.664840 1.899000 162 135 139
0.490490 0.657257 1.868000 162 135 142
0.487864 0.656991 1.858000 162 136 143
0.485239 0.656690 1.848000 164 135 145
0.479987 0.652783 1.828000 166 136 149
0.477624 0.652753 1.819000 167 136 153
0.474998 0.652331 1.809000 169 136 149
0.472635 0.652236 1.800000 166 135 145
0.470009 0.651746 1.790000 163 137 143
0.467646 0.651587 1.781000 164 136 142
0.465283 0.651396 1.772000 166 137 144
0.460557 0.647850 1.754000 163 140 146
0.455830 0.644240 1.736000 160 141 147
0.453730 0.644296 1.728000 163 138 149
0.451366 0.643950 1.719000 166 138 148
0.449266 0.643948 1.711000 166 138 148
0.446903 0.643540 1.702000 166 138 148
0.444802 0.643480 1.694000 167 139 149
0.442702 0.643393 1.686000 168 142 145
0.440338 0.642894 1.677000 172 143 141
0.438238 0.642749 1.669000 176 145 143
0.436137 0.642576 1.661000 172 140 146
0.431936 0.639265 1.645000 169 138 142
0.430098 0.639412 1.638000 169 138 139
0.427997 0.639143 1.630000 169 139 143
0.424059 0.636088 1.615000 171 143 147
0.421958 0.635750 1.607000 174 148 148
0.420120 0.635782 1.600000 171 142 149
0.418019 0.635390 1.592000 169 137 151
0.416181 0.635370 1.585000 169 138 153
0.412505 0.632508 1.571000 168 139 152
0.410405 0.632023 1.563000 167 140 152
0.406729 0.629074 1.549000 166 141 150
0.404891 0.628930 1.542000 165 142 148
0.404891 0.631630 1.542000 164 143 150
0.403315 0.631861 1.536000 166 140 152
0.399639 0.628766 1.522000 167 139 152
0.397801 0.628526 1.515000 169 138 152
0.396226 0.628678 1.509000 172 138 152
0.392812 0.625881 1.496000 172 139 153
0.697555 0.716033 2.639000 147 121 126
0.697555 0.720653 2.639000 154 121 126
0.697555 0.725272 2.639000 154 121 127
0.692269 0.724361 2.619000 154 121 126
0.686982 0.723379 2.599000 153 122 125
0.671915 0.711963 2.542000 152 122 125
0.662135 0.705986 2.505000 152 122 125
0.657378 0.705266 2.487000 153 123 130
0.643368 0.694497 2.434000 154 124 135
0.638875 0.693877 2.417000 156 122 132
0.638875 0.698108 2.417000 161 123 129
0.638875 0.702339 2.417000 167 125 130
0.634381 0.701601 2.400000 163 127 131
0.630152 0.701096 2.384000 159 124 133
0.625659 0.700240 2.367000 157 123 134
0.621429 0.699623 2.351000 155 124 132
0.617200 0.698949 2.335000 154 125 131
0.609006 0.693702 2.304000 153 125 130
0.605041 0.693193 2.289000 155 130 129
0.601076 0.692631 2.274000 158 129 132
0.597111 0.692017 2.259000 159 131 135
0.593147 0.691350 2.244000 160 130 134
0.589446 0.690940 2.230000 162 129 134
0.585481 0.690170 2.215000 165 129 134
0.578080 0.685274 2.187000 157 131 135
0.574644 0.685006 2.174000 149 130 133
0.570943 0.684376 2.160000 154 133 132
0.567507 0.684015 2.147000 159 132 130
0.567507 0.687773 2.147000 158 131 128
0.563806 0.687022 2.133000 157 130 133
0.550326 0.674240 2.082000 156 126 138
0.546889 0.673652 2.069000 155 128 135
0.540546 0.669418 2.045000 157 133 132
0.537374 0.669048 2.033000 160 134 136
0.534202 0.668637 2.021000 160 138 141
0.534202 0.672175 2.021000 160 132 136
0.531030 0.671700 2.009000 159 131 132
0.528122 0.671520 1.998000 159 131 133
0.522043 0.667247 1.975000 161 133 135
0.515963 0.662893 1.952000 163 132 134
0.513056 0.662556 1.941000 162 131 134
0.513056 0.665953 1.941000 161 130 136
0.513056 0.669351 1.941000 160 130 139
0.507505 0.665470 1.920000 160 131 138
0.501954 0.661516 1.899000 160 133 137
0.501954 0.664840 1.899000 161 135 138
0.491117 0.653738 1.858000 162 136 139
0.488474 0.653455 1.848000 163 135 141
0.485830 0.653136 1.838000 164 135 143
0.483187 0.652783 1.828000 166 135 146
0.480808 0.652753 1.819000 166 136 149
0.478165 0.652331 1.809000 167 136 147
0.475786 0.652236 1.800000 166 136 144
0.473143 0.651746 1.790000 165 136 143
0.470764 0.651587 1.781000 166 136 141
0.468385 0.651396 1.772000 168 138 143
0.463627 0.647850 1.754000 167 145 145
0.458869 0.644240 1.736000 166 140 149
0.456755 0.644296 1.728000 166 138 153
0.454376 0.643950 1.719000 167 137 148
0.452261 0.643948 1.711000 165 138 144
0.449882 0.643540 1.702000 164 137 147
0.447767 0.643480 1.694000 167 139 150
0.445653 0.643393 1.686000 170 141 147
0.443274 0.642894 1.677000 175 143 144
0.443274 0.645830 1.677000 180 143 146
0.439045 0.642576 1.661000 175 141 148
0.436930 0.642374 1.653000 170 138 148
0.434816 0.642145 1.645000 171 138 147
0.428736 0.636006 1.622000 172 140 147
0.426886 0.636088 1.615000 175 145 148
0.424771 0.635750 1.607000 178 145 149
0.422921 0.635782 1.600000 174 148 150
0.420806 0.635390 1.592000 171 141 152
0.417106 0.632564 1.578000 169 142 153
0.415255 0.632508 1.571000 168 139 152
0.413141 0.632023 1.563000 168 140 151
0.410233 0.630292 1.552000 168 140 149
0.409440 0.631785 1.549000 168 141 147
0.409440 0.634497 1.549000 168 141 149
0.406004 0.631861 1.536000 168 140 151
0.404154 0.631658 1.529000 168 139 151
0.402303 0.631430 1.522000 171 139 151
0.400453 0.631178 1.515000 175 138 153
0.397017 0.628391 1.502000 175 141 156
0.707496 0.716805 2.659000 143 121 125
0.707496 0.721460 2.659000 148 120 126
0.702175 0.720653 2.639000 154 121 126
0.702175 0.725272 2.639000 153 120 127
0.702175 0.729892 2.639000 153 120 123
0.702175 0.734512 2.639000 151 121 120
0.676365 0.711963 2.542000 148 123 122
0.666520 0.705986 2.505000 153 122 124
0.652152 0.695057 2.451000 158 123 127
0.647629 0.694497 2.434000 157 122 131
0.647629 0.698758 2.434000 156 120 130
0.643106 0.698108 2.417000 158 122 130
0.643106 0.702339 2.417000 161 123 131
0.638582 0.701601 2.400000 159 124 133
0.634325 0.701096 2.384000 158 123 135
0.629802 0.700240 2.367000 156 124 138
0.621287 0.694861 2.335000 155 126 134
0.621287 0.698949 2.335000 152 124 130
0.613039 0.693702 2.304000 150 115 128
0.609048 0.693193 2.289000 153 123 127
0.605057 0.692631 2.274000 157 127 133
0.601066 0.692017 2.259000 157 128 140
0.597075 0.691350 2.244000 158 129 137
0.589358 0.686292 2.215000 160 129 134
0.585633 0.685808 2.201000 162 129 135
