ply
format ascii 1.0
element vertex 1298
property float x
property float y
property float z
property uchar red
property uchar green
property uchar blue
end_header
0.458193 0.189387 1.745000 37 50 21
0.458193 0.192441 1.745000 37 39 19
0.458193 0.195496 1.745000 36 51 23
0.458193 0.198551 1.745000 35 38 28
0.458193 0.201605 1.745000 35 44 26
0.458193 0.204660 1.745000 32 34 25
0.458193 0.207714 1.745000 30 44 26
0.458193 0.210769 1.745000 27 34 28
0.458193 0.213824 1.745000 25 43 25
0.458193 0.216878 1.745000 26 31 22
0.458193 0.219933 1.745000 26 33 24
0.458193 0.222988 1.745000 24 27 27
0.458193 0.226042 1.745000 22 31 29
0.458193 0.229097 1.745000 22 24 32
0.458193 0.232151 1.745000 22 26 31
0.458193 0.235206 1.745000 21 21 30
0.458193 0.238261 1.745000 21 21 34
0.458193 0.241315 1.745000 21 17 39
0.458193 0.244370 1.745000 21 14 38
0.458193 0.247425 1.745000 22 14 38
0.455830 0.249187 1.736000 24 10 35
0.455830 0.252226 1.736000 24 14 32
0.455830 0.255265 1.736000 24 13 24
0.455830 0.258304 1.736000 25 15 17
0.455830 0.261343 1.736000 26 11 19
0.455830 0.264382 1.736000 30 16 21
0.455830 0.267421 1.736000 35 12 13
0.455830 0.270459 1.736000 31 16 5
0.455830 0.273498 1.736000 28 1 15
0.458193 0.277971 1.745000 28 11 25
0.458193 0.281025 1.745000 27 1 29
0.458193 0.284080 1.745000 26 11 33
0.458193 0.287135 1.745000 25 1 30
0.451366 0.285865 1.719000 23 10 28
0.470009 0.338407 1.790000 22 12 20
0.474998 0.345165 1.809000 25 21 25
0.470009 0.344673 1.790000 29 14 27
0.470009 0.347807 1.790000 33 25 29
0.458193 0.342118 1.745000 36 13 15
0.458193 0.345172 1.745000 32 22 2
0.458193 0.348227 1.745000 28 12 12
0.465283 0.372226 1.772000 35 26 24
0.465283 0.375328 1.772000 37 29 29
0.465283 0.378430 1.772000 40 30 28
0.465283 0.381532 1.772000 40 34 27
0.465283 0.384634 1.772000 40 36 26
0.465283 0.387736 1.772000 35 37 26
0.465283 0.390838 1.772000 30 37 25
0.467646 0.395940 1.781000 22 21 25
0.470009 0.401075 1.790000 13 16 32
0.470009 0.404208 1.790000 12 11 39
0.467646 0.405293 1.781000 11 12 27
0.467646 0.408411 1.781000 12 9 16
0.467646 0.411529 1.781000 14 11 15
0.467646 0.445823 1.781000 46 48 35
0.467646 0.448940 1.781000 49 52 32
0.467646 0.452058 1.781000 49 53 30
0.467646 0.455176 1.781000 50 56 30
0.467646 0.458293 1.781000 53 54 30
0.467646 0.461411 1.781000 57 51 32
0.470009 0.466876 1.790000 54 49 34
0.470009 0.470009 1.790000 51 50 36
0.467646 0.470764 1.781000 52 48 39
0.467646 0.473881 1.781000 53 49 47
0.490490 0.683416 1.868000 80 72 42
0.487864 0.683010 1.858000 86 79 64
0.485239 0.682569 1.848000 80 71 87
0.485239 0.685804 1.848000 75 64 77
0.479987 0.681582 1.828000 71 60 68
0.479987 0.684782 1.828000 68 60 60
0.477624 0.684594 1.819000 60 62 52
0.474998 0.683998 1.809000 52 67 46
0.474998 0.687164 1.809000 42 38 40
0.474998 0.690331 1.809000 32 15 34
0.474998 0.693498 1.809000 30 15 28
0.474998 0.696664 1.809000 27 17 24
0.474998 0.699831 1.809000 26 16 20
0.474998 0.702997 1.809000 25 17 15
0.470764 -0.692116 1.781000 30 16 11
0.473143 -0.692480 1.790000 32 17 9
0.473143 -0.689347 1.790000 35 15 9
0.473143 -0.686214 1.790000 34 14 9
0.473143 -0.683080 1.790000 34 14 7
0.470764 -0.676528 1.781000 34 16 6
0.473143 -0.676813 1.790000 35 15 6
0.470764 -0.670293 1.781000 35 15 5
0.470764 -0.667175 1.781000 35 15 10
0.468385 -0.660702 1.772000 32 17 15
0.468385 -0.657600 1.772000 30 16 11
0.468385 -0.654498 1.772000 31 17 7
0.468385 -0.651396 1.772000 32 18 8
0.468385 -0.648294 1.772000 31 18 9
0.468385 -0.645192 1.772000 31 18 8
0.468385 -0.642090 1.772000 34 20 7
0.468385 -0.638989 1.772000 37 18 8
0.468385 -0.635887 1.772000 36 17 9
0.468385 -0.632785 1.772000 35 16 9
0.470764 -0.632881 1.781000 35 15 9
0.468385 -0.626581 1.772000 36 15 8
0.470764 -0.626646 1.781000 36 17 7
0.468385 -0.620377 1.772000 37 17 8
0.470764 -0.620411 1.781000 35 18 10
0.468385 -0.614173 1.772000 34 21 8
0.468385 -0.611072 1.772000 34 23 7
0.468385 -0.607970 1.772000 35 20 8
0.468385 -0.604868 1.772000 34 19 10
0.468385 -0.601766 1.772000 33 18 10
0.468385 -0.598664 1.772000 36 17 10
0.468385 -0.595562 1.772000 40 18 9
0.466006 -0.589451 1.763000 37 19 8
0.466006 -0.586365 1.763000 35 17 14
0.468385 -0.586257 1.772000 36 16 20
0.468385 -0.583155 1.772000 38 17 13
0.468385 -0.580053 1.772000 36 18 6
0.468385 -0.576951 1.772000 35 18 6
0.468385 -0.573849 1.772000 35 21 7
0.468385 -0.570747 1.772000 35 21 9
0.468385 -0.567645 1.772000 35 19 12
0.468385 -0.564543 1.772000 35 20 12
0.468385 -0.561441 1.772000 35 22 13
0.468385 -0.558340 1.772000 36 22 13
0.468385 -0.555238 1.772000 38 24 14
0.468385 -0.552136 1.772000 41 22 13
0.470764 -0.551822 1.781000 41 20 13
0.470764 -0.548705 1.781000 41 20 10
0.470764 -0.545587 1.781000 41 19 8
0.468385 -0.539728 1.772000 41 20 10
0.468385 -0.536626 1.772000 40 20 13
0.468385 -0.533524 1.772000 40 20 13
0.468385 -0.530423 1.772000 39 23 14
0.468385 -0.527321 1.772000 38 23 12
0.468385 -0.524219 1.772000 37 24 11
0.468385 -0.521117 1.772000 37 23 14
0.470764 -0.520646 1.781000 36 23 17
0.470764 -0.517528 1.781000 36 22 17
0.468385 -0.511811 1.772000 37 24 17
0.468385 -0.508709 1.772000 39 24 16
0.468385 -0.505607 1.772000 39 25 15
0.468385 -0.502506 1.772000 39 24 13
0.468385 -0.499404 1.772000 39 25 12
0.468385 -0.496302 1.772000 39 23 10
0.468385 -0.493200 1.772000 39 22 9
0.470764 -0.492587 1.781000 39 24 12
0.468385 -0.486996 1.772000 40 26 15
0.470764 -0.486352 1.781000 42 22 14
0.470764 -0.483234 1.781000 42 21 14
0.470764 -0.480117 1.781000 43 22 13
0.470764 -0.476999 1.781000 41 24 12
0.470764 -0.473881 1.781000 39 23 12
0.468385 -0.468385 1.772000 41 25 12
0.468385 -0.465283 1.772000 43 23 12
0.468385 -0.462181 1.772000 45 24 11
0.470764 -0.461411 1.781000 47 25 13
0.470764 -0.458293 1.781000 46 27 15
0.470764 -0.455176 1.781000 45 28 16
0.473143 -0.454342 1.790000 45 29 17
0.470764 -0.448940 1.781000 45 28 16
0.470764 -0.445823 1.781000 44 29 15
0.470764 -0.442705 1.781000 43 30 16
0.470764 -0.439587 1.781000 44 30 17
0.470764 -0.436470 1.781000 46 30 18
0.470764 -0.433352 1.781000 45 31 18
0.468385 -0.428060 1.772000 44 31 18
0.468385 -0.424958 1.772000 45 30 17
0.468385 -0.421856 1.772000 46 30 18
0.466006 -0.416628 1.763000 47 33 18
0.466006 -0.413542 1.763000 49 32 19
0.463627 -0.408360 1.754000 49 33 21
0.466006 -0.407369 1.763000 49 32 20
0.466006 -0.404283 1.763000 49 34 19
0.466006 -0.401197 1.763000 49 33 22
0.466006 -0.398111 1.763000 49 34 25
0.466006 -0.395025 1.763000 50 34 24
0.466006 -0.391939 1.763000 50 34 24
0.461248 -0.384882 1.745000 50 35 27
0.466006 -0.385766 1.763000 49 34 30
0.466006 -0.382680 1.763000 48 36 28
0.466006 -0.379594 1.763000 49 35 27
0.463627 -0.374586 1.754000 51 35 26
0.463627 -0.371516 1.754000 51 36 25
0.466006 -0.370336 1.763000 52 37 26
0.466006 -0.367250 1.763000 52 40 27
0.461248 -0.360445 1.745000 53 37 27
0.461248 -0.357391 1.745000 54 37 26
0.461248 -0.354336 1.745000 56 38 31
0.461248 -0.351282 1.745000 58 39 36
0.461248 -0.348227 1.745000 60 40 37
0.461248 -0.345172 1.745000 59 43 38
0.466006 -0.345647 1.763000 58 42 36
0.461248 -0.339063 1.745000 56 41 34
0.466006 -0.339474 1.763000 55 42 32
0.461248 -0.332954 1.745000 56 44 31
0.461248 -0.329899 1.745000 58 43 36
0.466006 -0.330216 1.763000 58 44 41
0.463627 -0.325460 1.754000 59 45 37
0.461248 -0.320735 1.745000 60 47 34
0.461248 -0.317681 1.745000 61 46 37
0.461248 -0.314626 1.745000 61 46 40
0.458869 -0.309965 1.736000 61 46 41
0.458869 -0.306926 1.736000 62 48 42
0.458869 -0.303887 1.736000 63 48 45
0.461248 -0.302408 1.745000 62 50 49
0.461248 -0.299353 1.745000 61 50 46
0.461248 -0.296298 1.745000 63 50 43
0.461248 -0.293244 1.745000 65 50 44
0.461248 -0.290189 1.745000 65 52 46
0.461248 -0.287135 1.745000 65 53 43
0.458869 -0.282615 1.736000 66 56 41
0.458869 -0.279576 1.736000 68 55 45
0.458869 -0.276537 1.736000 69 55 49
0.458869 -0.273498 1.736000 70 56 51
0.458869 -0.270459 1.736000 71 58 52
0.461248 -0.268807 1.745000 73 58 50
0.456755 -0.263163 1.728000 72 58 47
0.458869 -0.261343 1.736000 72 59 47
0.458869 -0.258304 1.736000 75 63 48
0.458869 -0.255265 1.736000 78 62 50
0.461248 -0.253534 1.745000 77 62 52
0.461248 -0.250479 1.745000 77 64 56
0.458869 -0.246148 1.736000 78 65 60
0.461248 -0.244370 1.745000 79 66 60
0.461248 -0.241315 1.745000 79 70 61
0.461248 -0.238261 1.745000 80 71 62
0.461248 -0.235206 1.745000 82 71 64
0.458869 -0.230954 1.736000 85 72 63
0.458869 -0.227915 1.736000 86 76 63
0.461248 -0.226042 1.745000 88 76 67
0.461248 -0.222987 1.745000 88 77 71
0.461248 -0.219933 1.745000 88 78 72
0.461248 -0.216878 1.745000 90 79 74
0.461248 -0.213824 1.745000 92 80 75
0.463627 -0.211856 1.754000 94 83 77
0.463627 -0.208786 1.754000 96 84 78
0.463627 -0.205715 1.754000 98 87 79
0.466006 -0.203685 1.763000 100 87 82
0.466006 -0.200599 1.763000 101 89 85
0.466006 -0.197512 1.763000 102 90 85
0.466006 -0.194426 1.763000 103 93 86
0.466006 -0.191340 1.763000 105 94 87
0.466006 -0.188254 1.763000 106 96 89
0.461248 -0.183277 1.745000 108 96 91
0.461248 -0.180223 1.745000 110 98 92
0.461248 -0.177168 1.745000 112 99 93
0.461248 -0.174113 1.745000 115 103 94
0.466006 -0.172823 1.763000 118 104 95
0.466006 -0.169737 1.763000 118 106 96
0.466006 -0.166651 1.763000 119 107 100
0.466006 -0.163565 1.763000 121 109 103
0.466006 -0.160479 1.763000 123 109 104
0.466006 -0.157393 1.763000 124 112 105
0.466006 -0.154307 1.763000 125 112 105
0.461248 -0.149677 1.745000 127 114 104
0.461248 -0.146622 1.745000 130 116 108
0.461248 -0.143567 1.745000 131 118 112
0.461248 -0.140513 1.745000 132 119 113
0.461248 -0.137458 1.745000 133 121 114
0.461248 -0.134403 1.745000 134 121 117
0.461248 -0.131349 1.745000 135 123 120
0.461248 -0.128294 1.745000 137 123 119
0.461248 -0.125240 1.745000 137 124 119
0.461248 -0.122185 1.745000 138 124 120
0.461248 -0.119130 1.745000 138 124 121
0.461248 -0.116076 1.745000 138 125 121
0.461248 -0.113021 1.745000 138 126 121
0.461248 -0.109966 1.745000 138 125 122
0.461248 -0.106912 1.745000 138 126 123
0.461248 -0.103857 1.745000 138 127 124
0.461248 -0.100802 1.745000 137 128 126
0.461248 -0.097748 1.745000 136 127 126
0.461248 -0.094693 1.745000 138 129 126
0.458869 -0.091166 1.736000 140 129 127
0.461248 -0.088584 1.745000 140 130 127
0.461248 -0.085529 1.745000 141 129 126
0.461248 -0.082475 1.745000 140 129 125
0.461248 -0.079420 1.745000 140 129 127
0.461248 -0.076366 1.745000 138 129 129
0.461248 -0.073311 1.745000 137 128 124
0.461248 -0.070256 1.745000 137 128 120
0.458869 -0.066855 1.736000 138 128 121
0.458869 -0.063816 1.736000 138 129 123
0.458869 -0.060777 1.736000 139 128 124
0.458869 -0.057738 1.736000 137 128 126
0.458869 -0.054700 1.736000 135 127 126
0.461248 -0.051929 1.745000 135 127 126
0.461248 -0.048874 1.745000 136 127 125
0.461248 -0.045819 1.745000 136 127 125
0.461248 -0.042765 1.745000 136 126 125
0.461248 -0.039710 1.745000 135 124 125
0.461248 -0.036655 1.745000 135 124 123
0.461248 -0.033601 1.745000 134 123 122
0.461248 -0.030546 1.745000 133 123 122
0.461248 -0.027492 1.745000 134 123 123
0.461248 -0.024437 1.745000 135 121 122
0.461248 -0.021382 1.745000 133 118 121
0.461248 -0.018328 1.745000 132 118 120
0.466006 -0.015431 1.763000 130 118 119
0.466006 -0.012344 1.763000 129 118 117
0.466006 -0.009258 1.763000 128 117 115
0.466006 -0.006172 1.763000 127 117 113
0.461248 -0.003055 1.745000 126 117 111
0.461248 -0.000000 1.745000 126 115 110
0.461248 0.003055 1.745000 125 115 109
0.461248 0.006109 1.745000 125 115 108
0.461248 0.009164 1.745000 123 113 108
0.461248 0.012219 1.745000 122 111 107
0.466006 0.015431 1.763000 121 109 107
0.461248 0.018328 1.745000 121 107 105
0.461248 0.021382 1.745000 118 105 104
0.461248 0.024437 1.745000 116 104 102
0.466006 0.027775 1.763000 114 103 101
0.461248 0.030546 1.745000 113 100 99
0.461248 0.033601 1.745000 112 97 97
0.461248 0.036656 1.745000 112 97 93
0.466006 0.040120 1.763000 109 98 89
0.463627 0.042985 1.754000 107 97 92
0.463627 0.046056 1.754000 106 97 96
0.463627 0.049126 1.754000 105 96 93
0.461248 0.051929 1.745000 104 94 90
0.461248 0.054983 1.745000 103 92 88
0.461248 0.058038 1.745000 101 90 87
0.458869 0.060777 1.736000 100 89 85
0.458869 0.063816 1.736000 98 87 83
0.458869 0.066855 1.736000 97 87 83
0.458869 0.069894 1.736000 96 87 83
0.458869 0.072933 1.736000 95 85 80
0.461248 0.076366 1.745000 93 85 77
0.461248 0.079420 1.745000 91 83 75
0.461248 0.082475 1.745000 90 83 74
0.461248 0.085529 1.745000 90 82 75
0.461248 0.088584 1.745000 91 81 77
0.461248 0.091639 1.745000 93 80 76
0.461248 0.094693 1.745000 90 78 74
0.461248 0.097748 1.745000 88 77 78
0.461248 0.100803 1.745000 86 77 82
0.461248 0.103857 1.745000 85 76 77
0.461248 0.106912 1.745000 84 77 72
0.461248 0.109966 1.745000 83 76 69
0.461248 0.113021 1.745000 82 77 66
0.461248 0.116076 1.745000 81 75 66
0.461248 0.119130 1.745000 84 76 67
0.461248 0.122185 1.745000 88 74 71
0.458869 0.124594 1.736000 83 76 74
0.458869 0.127633 1.736000 78 74 67
0.461248 0.131349 1.745000 77 76 60
0.461248 0.134403 1.745000 77 73 58
0.461248 0.137458 1.745000 74 73 57
0.461248 0.140513 1.745000 71 73 51
0.461248 0.143567 1.745000 70 75 45
0.461248 0.146622 1.745000 70 71 45
0.461248 0.149677 1.745000 68 71 45
0.461248 0.152731 1.745000 67 67 46
0.461248 0.155786 1.745000 66 68 47
0.461248 0.158840 1.745000 66 65 47
0.461248 0.161895 1.745000 64 68 47
0.461248 0.164950 1.745000 63 63 45
0.461248 0.168004 1.745000 69 65 43
0.461248 0.171059 1.745000 76 61 41
0.461248 0.174114 1.745000 74 63 40
0.461248 0.177168 1.745000 73 60 39
0.461248 0.180223 1.745000 73 62 39
0.458869 0.182332 1.736000 73 59 39
0.456755 0.184517 1.728000 73 63 40
0.458869 0.188410 1.736000 73 55 37
0.458869 0.191449 1.736000 72 56 33
0.458869 0.194488 1.736000 72 53 38
0.458869 0.197526 1.736000 70 56 42
0.458869 0.200565 1.736000 68 49 38
0.458869 0.203604 1.736000 61 50 34
0.458869 0.206643 1.736000 54 49 37
0.458869 0.209682 1.736000 51 51 41
0.458869 0.212721 1.736000 49 48 35
0.458869 0.215760 1.736000 48 49 29
0.458869 0.218799 1.736000 47 44 30
0.458869 0.221837 1.736000 45 44 30
0.458869 0.224876 1.736000 43 41 31
0.458869 0.227915 1.736000 42 41 32
0.458869 0.230954 1.736000 42 37 31
0.458869 0.233993 1.736000 41 38 31
0.458869 0.237032 1.736000 40 34 34
0.458869 0.240071 1.736000 39 33 38
0.458869 0.243109 1.736000 38 30 36
0.458869 0.246148 1.736000 38 34 35
0.458869 0.249187 1.736000 38 31 30
0.458869 0.252226 1.736000 36 32 25
0.456755 0.254089 1.728000 34 29 21
0.458869 0.258304 1.736000 33 29 18
0.456755 0.260138 1.728000 32 27 20
0.456755 0.263163 1.728000 31 27 23
0.456755 0.266188 1.728000 30 27 17
0.458869 0.270459 1.736000 26 27 11
0.458869 0.273498 1.736000 23 17 14
0.456755 0.275263 1.728000 22 3 17
0.458869 0.279576 1.736000 21 11 17
0.458869 0.282615 1.736000 17 1 18
0.456755 0.284337 1.728000 14 10 18
0.452261 0.284535 1.711000 8 1 18
0.452261 0.287530 1.711000 2 11 12
0.452261 0.290525 1.711000 6 1 6
0.449882 0.291976 1.702000 10 9 9
0.449882 0.294956 1.702000 14 1 13
0.449882 0.297935 1.702000 19 9 9
0.461248 0.317681 1.745000 11 7 13
0.461248 0.320735 1.745000 11 2 9
0.468385 0.328800 1.772000 12 8 11
0.468385 0.331902 1.772000 6 4 13
0.468385 0.335004 1.772000 1 11 17
0.461248 0.332954 1.745000 7 5 21
0.458869 0.334276 1.736000 14 10 23
0.461248 0.339063 1.745000 7 3 25
0.458869 0.340353 1.736000 1 9 16
0.458869 0.343392 1.736000 7 7 8
0.456755 0.344835 1.728000 14 10 14
0.456755 0.347859 1.728000 12 9 21
0.454376 0.355075 1.719000 22 14 12
0.454376 0.358084 1.719000 24 15 10
0.454376 0.361093 1.719000 26 17 14
0.456755 0.366009 1.728000 28 20 19
0.458869 0.370742 1.736000 31 20 18
0.461248 0.375719 1.745000 30 26 18
0.461248 0.378773 1.745000 30 25 15
0.468385 0.387736 1.772000 27 30 13
0.461248 0.384883 1.745000 24 21 14
0.468385 0.393940 1.772000 20 16 15
0.470764 0.399058 1.781000 16 12 20
0.470764 0.402176 1.781000 15 14 25
0.468385 0.403245 1.772000 14 10 16
0.468385 0.406347 1.772000 16 12 8
0.468385 0.409449 1.772000 19 10 9
0.461248 0.406265 1.745000 20 14 9
0.468385 0.440468 1.772000 42 38 17
0.468385 0.443570 1.772000 44 47 26
0.468385 0.446672 1.772000 47 44 27
0.468385 0.449774 1.772000 47 59 28
0.470764 0.455176 1.781000 47 47 28
0.470764 0.458293 1.781000 56 62 28
0.470764 0.461411 1.781000 66 46 27
0.470764 0.464529 1.781000 58 50 26
0.470764 0.467646 1.781000 51 44 29
0.470764 0.470764 1.781000 52 45 32
0.470764 0.473881 1.781000 53 43 36
0.470764 0.476999 1.781000 57 45 41
0.488474 0.679334 1.848000 93 75 58
0.485830 0.678876 1.838000 85 74 71
0.483187 0.678382 1.828000 77 68 65
0.483187 0.681582 1.828000 74 59 58
0.480808 0.681410 1.819000 71 58 54
0.478165 0.680831 1.809000 64 56 51
0.475786 0.680595 1.800000 58 60 46
0.473143 0.679947 1.790000 48 60 41
0.473143 0.683080 1.790000 39 35 34
0.473143 0.686214 1.790000 34 16 27
0.470764 0.685881 1.781000 29 15 25
0.470764 0.688999 1.781000 27 15 23
0.473143 0.695614 1.790000 25 16 19
0.473881 -0.692116 1.781000 30 16 9
0.473881 -0.688999 1.781000 31 17 5
0.473881 -0.685881 1.781000 33 17 7
0.473881 -0.682763 1.781000 33 15 9
0.471487 -0.676211 1.772000 34 13 6
0.471487 -0.673109 1.772000 34 15 4
0.471487 -0.670007 1.772000 35 17 3
0.471487 -0.666906 1.772000 34 16 2
0.471487 -0.663804 1.772000 33 15 5
0.471487 -0.660702 1.772000 31 16 9
0.471487 -0.657600 1.772000 30 16 6
0.471487 -0.654498 1.772000 31 17 4
0.471487 -0.651396 1.772000 32 20 3
0.471487 -0.648294 1.772000 32 18 2
0.471487 -0.645192 1.772000 31 19 3
0.471487 -0.642090 1.772000 33 19 5
0.471487 -0.638989 1.772000 35 19 7
0.471487 -0.635887 1.772000 35 17 9
0.471487 -0.632785 1.772000 36 17 9
0.471487 -0.629683 1.772000 36 16 9
0.469092 -0.623399 1.763000 36 15 9
0.464303 -0.613979 1.745000 35 16 10
0.469092 -0.617226 1.763000 34 17 10
0.471487 -0.617275 1.772000 34 19 10
0.469092 -0.611054 1.763000 34 23 8
0.469092 -0.607968 1.763000 34 22 7
0.469092 -0.604882 1.763000 35 21 8
0.469092 -0.601796 1.763000 34 19 10
0.469092 -0.598710 1.763000 33 18 10
0.469092 -0.595623 1.763000 34 18 10
0.469092 -0.592537 1.763000 36 19 8
0.464303 -0.583433 1.745000 36 18 6
0.466697 -0.583372 1.754000 36 17 8
0.469092 -0.583279 1.763000 37 16 10
0.469092 -0.580193 1.763000 37 17 6
0.469092 -0.577107 1.763000 37 18 2
0.469092 -0.574021 1.763000 37 19 4
0.469092 -0.570934 1.763000 36 21 7
0.469092 -0.567848 1.763000 35 24 9
0.464303 -0.558996 1.745000 35 21 12
0.464303 -0.555941 1.745000 35 21 12
0.464303 -0.552887 1.745000 35 22 13
0.464303 -0.549832 1.745000 36 23 13
0.464303 -0.546777 1.745000 37 22 14
0.464303 -0.543723 1.745000 38 22 13
0.464303 -0.540668 1.745000 38 22 13
0.464303 -0.537614 1.745000 39 24 8
0.464303 -0.534559 1.745000 40 21 3
0.464303 -0.531504 1.745000 41 21 7
0.464303 -0.528450 1.745000 41 19 12
0.464303 -0.525395 1.745000 41 17 13
0.466697 -0.525034 1.754000 39 21 14
0.464303 -0.519286 1.745000 38 24 11
0.469092 -0.521556 1.763000 37 23 9
0.469092 -0.518470 1.763000 37 23 11
0.471487 -0.518015 1.772000 36 22 14
0.471487 -0.514913 1.772000 36 22 13
0.471487 -0.511811 1.772000 38 22 13
0.469092 -0.506126 1.763000 40 22 14
0.461908 -0.495336 1.736000 39 23 15
0.464303 -0.494849 1.745000 38 24 12
0.469092 -0.496867 1.763000 37 23 9
0.469092 -0.493781 1.763000 37 25 9
0.469092 -0.490695 1.763000 36 23 9
0.471487 -0.490098 1.772000 36 24 11
0.471487 -0.486996 1.772000 38 21 14
0.429713 -0.441021 1.615000 40 20 13
0.431575 -0.440093 1.622000 39 19 13
0.431575 -0.437254 1.622000 39 21 11
0.431575 -0.434415 1.622000 38 20 9
0.473881 -0.473881 1.781000 38 21 9
0.471487 -0.468385 1.772000 40 21 9
0.471487 -0.465283 1.772000 42 23 7
0.471487 -0.462181 1.772000 42 22 6
0.471487 -0.459079 1.772000 43 25 9
0.471487 -0.455977 1.772000 42 25 13
0.471487 -0.452875 1.772000 42 28 10
0.429713 -0.409923 1.615000 43 26 8
0.431575 -0.408861 1.622000 44 27 8
0.429713 -0.404269 1.615000 43 27 9
0.429713 -0.401442 1.615000 43 31 11
0.473881 -0.439587 1.781000 43 29 14
0.473881 -0.436470 1.781000 44 29 15
0.471487 -0.431162 1.772000 43 30 16
0.471487 -0.428060 1.772000 42 34 15
0.471487 -0.424958 1.772000 43 30 14
0.471487 -0.421856 1.772000 44 30 16
0.469092 -0.416628 1.763000 46 30 18
0.469092 -0.413542 1.763000 48 31 17
0.469092 -0.410456 1.763000 47 30 17
0.469092 -0.407369 1.763000 46 31 14
0.469092 -0.404283 1.763000 47 31 12
0.469092 -0.401197 1.763000 48 31 18
0.469092 -0.398111 1.763000 48 32 25
0.471487 -0.397041 1.772000 49 36 23
0.469092 -0.391939 1.763000 49 35 21
0.464303 -0.384882 1.745000 49 39 23
0.469092 -0.385766 1.763000 48 36 26
0.466697 -0.380727 1.754000 48 38 23
0.464303 -0.375719 1.745000 49 36 21
0.464303 -0.372664 1.745000 51 36 21
0.464303 -0.369609 1.745000 53 35 22
0.464303 -0.366555 1.745000 55 36 23
0.464303 -0.363500 1.745000 53 37 25
0.464303 -0.360445 1.745000 52 37 24
0.464303 -0.357391 1.745000 53 38 23
0.464303 -0.354336 1.745000 54 41 28
0.464303 -0.351282 1.745000 56 40 34
0.461908 -0.346431 1.736000 57 40 34
0.461908 -0.343392 1.736000 57 41 34
0.461908 -0.340353 1.736000 57 43 34
0.461908 -0.337314 1.736000 56 41 34
0.461908 -0.334275 1.736000 55 42 33
0.461908 -0.331237 1.736000 56 43 32
0.461908 -0.328198 1.736000 58 44 35
0.461908 -0.325159 1.736000 58 44 38
0.461908 -0.322120 1.736000 59 45 36
0.461908 -0.319081 1.736000 59 45 34
0.461908 -0.316042 1.736000 60 45 37
0.461908 -0.313003 1.736000 60 45 40
0.459779 -0.308536 1.728000 60 46 40
0.461908 -0.306926 1.736000 61 47 41
0.461908 -0.303887 1.736000 62 48 42
0.461908 -0.300848 1.736000 61 49 44
0.461908 -0.297809 1.736000 61 51 42
0.461908 -0.294770 1.736000 63 51 41
0.461908 -0.291731 1.736000 65 50 43
0.461908 -0.288692 1.736000 65 51 45
0.461908 -0.285654 1.736000 65 53 44
0.461908 -0.282615 1.736000 66 54 44
0.459779 -0.278288 1.728000 68 55 46
0.459779 -0.275263 1.728000 68 54 49
0.459779 -0.272238 1.728000 69 55 47
0.461908 -0.270459 1.736000 70 57 46
0.461908 -0.267420 1.736000 72 59 46
0.457385 -0.261793 1.719000 72 58 47
0.459779 -0.260138 1.728000 72 59 46
0.459779 -0.257113 1.728000 74 62 46
0.461908 -0.255265 1.736000 76 64 47
0.461908 -0.252226 1.736000 76 63 49
0.459779 -0.248039 1.728000 77 65 54
0.461908 -0.246148 1.736000 78 65 60
0.459779 -0.241989 1.728000 79 66 59
0.459779 -0.238964 1.728000 80 69 59
0.459779 -0.235939 1.728000 81 72 60
0.457385 -0.231701 1.719000 82 71 62
0.459779 -0.229890 1.728000 84 71 61
0.457385 -0.225683 1.719000 85 75 61
0.461908 -0.224876 1.736000 86 78 67
0.461908 -0.221837 1.736000 87 78 73
0.461908 -0.218798 1.736000 87 79 72
0.461908 -0.215760 1.736000 89 79 72
0.461908 -0.212721 1.736000 92 80 74
0.461908 -0.209682 1.736000 93 82 76
0.464303 -0.207714 1.745000 95 83 76
0.461908 -0.203604 1.736000 97 85 77
0.464303 -0.201605 1.745000 98 86 80
0.464303 -0.198550 1.745000 99 88 83
0.464303 -0.195496 1.745000 100 90 83
0.464303 -0.192441 1.745000 102 92 84
0.461908 -0.188410 1.736000 103 94 86
0.461908 -0.185371 1.736000 105 94 89
0.461908 -0.182332 1.736000 107 95 90
0.461908 -0.179293 1.736000 109 96 92
0.461908 -0.176254 1.736000 111 97 93
0.461908 -0.173215 1.736000 114 101 94
0.464303 -0.171059 1.745000 117 103 94
0.464303 -0.168004 1.745000 118 105 95
0.464303 -0.164950 1.745000 119 106 99
0.464303 -0.161895 1.745000 121 107 103
0.464303 -0.158840 1.745000 122 109 103
0.464303 -0.155786 1.745000 123 111 104
0.461908 -0.151943 1.736000 124 113 104
0.461908 -0.148905 1.736000 126 113 105
0.461908 -0.145866 1.736000 129 114 108
0.461908 -0.142827 1.736000 130 116 112
0.461908 -0.139788 1.736000 131 118 113
0.461908 -0.136749 1.736000 132 120 115
0.461908 -0.133710 1.736000 133 121 117
0.461908 -0.130671 1.736000 134 122 119
0.461908 -0.127632 1.736000 136 122 119
0.461908 -0.124594 1.736000 136 123 119
0.461908 -0.121555 1.736000 137 125 119
0.461908 -0.118516 1.736000 136 124 120
0.461908 -0.115477 1.736000 136 125 120
0.461908 -0.112438 1.736000 137 125 121
0.461908 -0.109399 1.736000 138 125 122
0.461908 -0.106360 1.736000 138 126 123
0.461908 -0.103322 1.736000 138 128 125
0.461908 -0.100283 1.736000 137 127 127
0.461908 -0.097244 1.736000 137 126 126
0.459779 -0.093771 1.728000 138 128 125
0.457385 -0.090273 1.719000 140 130 124
0.459779 -0.087721 1.728000 142 130 124
0.461908 -0.085088 1.736000 143 130 124
0.461908 -0.082049 1.736000 142 129 125
0.461908 -0.079011 1.736000 141 130 128
0.459779 -0.075622 1.728000 139 129 132
0.461908 -0.072933 1.736000 138 130 128
0.461908 -0.069894 1.736000 138 129 124
0.459779 -0.066547 1.728000 139 129 124
0.459779 -0.063522 1.728000 139 129 124
0.459779 -0.060497 1.728000 139 129 125
0.459779 -0.057472 1.728000 139 128 126
0.459779 -0.054448 1.728000 138 128 126
0.461908 -0.051661 1.736000 138 128 126
0.461908 -0.048622 1.736000 137 128 125
0.461908 -0.045583 1.736000 137 127 125
0.461908 -0.042544 1.736000 137 127 126
0.461908 -0.039505 1.736000 137 125 127
0.461908 -0.036466 1.736000 138 126 128
0.461908 -0.033428 1.736000 136 124 130
0.461908 -0.030389 1.736000 135 124 127
0.461908 -0.027350 1.736000 134 123 125
0.461908 -0.024311 1.736000 134 123 123
0.461908 -0.021272 1.736000 133 120 122
0.461908 -0.018233 1.736000 132 119 121
0.464303 -0.015273 1.745000 130 119 120
0.464303 -0.012218 1.745000 129 119 117
0.461908 -0.009117 1.736000 128 118 115
0.461908 -0.006078 1.736000 127 118 113
0.461908 -0.003039 1.736000 126 117 111
0.461908 -0.000000 1.736000 126 116 110
0.461908 0.003039 1.736000 125 116 110
0.461908 0.006078 1.736000 124 116 109
0.461908 0.009117 1.736000 123 114 108
0.461908 0.012156 1.736000 122 112 106
0.464303 0.015273 1.745000 121 109 105
0.461908 0.018233 1.736000 120 108 104
0.464303 0.021382 1.745000 118 106 104
0.464303 0.024437 1.745000 116 105 102
0.464303 0.027492 1.745000 114 103 101
0.461908 0.030389 1.736000 112 102 100
0.461908 0.033428 1.736000 111 99 99
0.461908 0.036466 1.736000 111 99 96
0.461908 0.039505 1.736000 109 98 93
0.461908 0.042544 1.736000 108 97 93
0.461908 0.045583 1.736000 106 96 94
0.461908 0.048622 1.736000 105 97 91
0.461908 0.051661 1.736000 104 94 89
0.459779 0.054448 1.728000 103 92 88
0.461908 0.057739 1.736000 101 90 87
0.459779 0.060497 1.728000 99 89 85
0.459779 0.063522 1.728000 98 87 84
0.459779 0.066547 1.728000 97 87 83
0.457385 0.069210 1.719000 96 86 83
0.459779 0.072597 1.728000 95 85 80
0.461908 0.075972 1.736000 93 84 78
0.461908 0.079011 1.736000 91 84 77
0.461908 0.082049 1.736000 90 82 76
0.461908 0.085088 1.736000 90 82 78
0.461908 0.088127 1.736000 90 81 81
0.461908 0.091166 1.736000 90 80 78
0.461908 0.094205 1.736000 88 78 76
0.461908 0.097244 1.736000 87 78 76
0.461908 0.100283 1.736000 86 77 76
0.461908 0.103322 1.736000 86 77 74
0.461908 0.106360 1.736000 85 76 72
0.461908 0.109399 1.736000 84 75 70
0.461908 0.112438 1.736000 83 74 68
0.461908 0.115477 1.736000 82 74 68
0.461908 0.118516 1.736000 83 73 68
0.461908 0.121555 1.736000 85 70 66
0.461908 0.124594 1.736000 82 71 65
0.461908 0.127633 1.736000 79 69 64
0.461908 0.130671 1.736000 79 70 64
0.461908 0.133710 1.736000 78 69 65
0.461908 0.136749 1.736000 76 70 66
0.461908 0.139788 1.736000 75 71 60
0.461908 0.142827 1.736000 74 69 54
0.461908 0.145866 1.736000 73 65 53
0.461908 0.148905 1.736000 73 66 53
0.461908 0.151943 1.736000 73 65 53
0.461908 0.154982 1.736000 72 65 53
0.461908 0.158021 1.736000 71 65 54
0.461908 0.161060 1.736000 69 64 55
0.461908 0.164099 1.736000 68 62 53
0.461908 0.167138 1.736000 71 61 52
0.461908 0.170177 1.736000 74 58 49
0.461908 0.173216 1.736000 72 59 47
0.461908 0.176254 1.736000 70 58 48
0.461908 0.179293 1.736000 71 57 50
0.457385 0.180547 1.719000 71 55 53
0.457385 0.183556 1.719000 70 56 57
0.457385 0.186565 1.719000 69 54 52
0.459779 0.190566 1.728000 69 54 48
0.459779 0.193591 1.728000 69 52 52
0.459779 0.196616 1.728000 67 51 57
0.459779 0.199641 1.728000 65 48 50
0.459779 0.202666 1.728000 62 49 43
0.459779 0.205691 1.728000 59 52 48
0.459779 0.208716 1.728000 56 50 54
0.459779 0.211741 1.728000 54 50 45
0.459779 0.214765 1.728000 55 50 37
0.461908 0.218799 1.736000 56 51 35
0.459779 0.220815 1.728000 53 48 34
0.461908 0.224876 1.736000 51 49 33
0.461908 0.227915 1.736000 49 46 32
0.459779 0.229890 1.728000 48 46 32
0.459779 0.232915 1.728000 47 44 32
0.459779 0.235939 1.728000 46 46 34
0.459779 0.238964 1.728000 45 42 37
0.459779 0.241989 1.728000 44 41 34
0.459779 0.245014 1.728000 44 42 32
0.459779 0.248039 1.728000 44 49 25
0.459779 0.251064 1.728000 43 43 19
0.457385 0.252765 1.719000 42 45 19
0.459779 0.257114 1.728000 41 40 19
0.457385 0.258783 1.719000 40 43 22
0.459779 0.263163 1.728000 39 39 25
0.457385 0.264802 1.719000 39 42 21
0.457385 0.267811 1.719000 37 38 17
0.457385 0.270820 1.719000 35 39 13
0.457385 0.273829 1.719000 34 31 9
0.459779 0.278288 1.728000 33 42 6
0.457385 0.279847 1.719000 31 32 4
0.457385 0.282856 1.719000 29 40 6
0.455256 0.284535 1.711000 26 32 8
0.452861 0.286018 1.702000 23 41 10
0.452861 0.288997 1.702000 25 30 12
0.452861 0.291976 1.702000 28 36 10
0.452861 0.294956 1.702000 29 28 9
0.452861 0.297935 1.702000 30 34 8
0.452861 0.300914 1.702000 26 27 8
0.455256 0.305501 1.711000 21 32 12
0.457385 0.309938 1.719000 22 24 16
0.457385 0.312947 1.719000 22 26 16
0.457385 0.315957 1.719000 22 21 17
0.461908 0.322120 1.736000 22 26 14
0.461908 0.325159 1.736000 19 21 12
0.461908 0.328198 1.736000 16 23 15
0.459779 0.329710 1.728000 18 19 18
0.457385 0.331002 1.719000 21 19 19
0.459779 0.335760 1.728000 17 15 21
0.457385 0.337020 1.719000 14 15 18
0.457385 0.340029 1.719000 17 14 15
0.457385 0.343039 1.719000 20 12 17
0.457385 0.346048 1.719000 19 13 20
0.457385 0.349057 1.719000 18 12 16
0.457385 0.352066 1.719000 20 13 13
0.457385 0.355075 1.719000 23 8 7
0.459779 0.359959 1.728000 23 12 1
0.455256 0.359413 1.711000 24 7 5
0.455256 0.362408 1.711000 20 13 9
0.455256 0.365403 1.711000 17 7 9
0.455256 0.368398 1.711000 19 17 9
0.457385 0.373130 1.719000 22 10 5
0.461908 0.379859 1.736000 21 15 1
0.461908 0.382897 1.736000 20 4 3
0.461908 0.385936 1.736000 17 9 6
0.461908 0.388975 1.736000 14 4 8
0.461908 0.392014 1.736000 13 6 11
0.461908 0.395053 1.736000 12 3 6
0.461908 0.398092 1.736000 13 5 1
0.459779 0.399282 1.728000 14 4 3
0.455256 0.398349 1.711000 14 8 5
0.455256 0.401344 1.711000 15 7 5
0.455256 0.404339 1.711000 14 9 6
0.455256 0.407334 1.711000 14 3 3
0.461908 0.416325 1.736000 19 13 1
0.461908 0.419364 1.736000 24 9 7
0.469092 0.438231 1.763000 28 7 9
0.461908 0.434558 1.736000 26 19 17
0.469092 0.444403 1.763000 24 19 21
0.471487 0.449774 1.772000 28 24 26
0.471487 0.452875 1.772000 32 12 26
0.473881 0.458293 1.781000 35 25 27
0.473881 0.461411 1.781000 37 22 23
0.473881 0.464529 1.781000 38 30 19
0.473881 0.467646 1.781000 38 32 22
0.473881 0.470764 1.781000 40 32 25
0.473881 0.473881 1.781000 42 33 26
0.471487 0.474589 1.772000 44 34 27
0.471487 0.477691 1.772000 47 32 26
0.471487 0.511811 1.772000 48 50 34
0.471487 0.514913 1.772000 48 55 32
0.471487 0.518015 1.772000 52 53 30
0.471487 0.521117 1.772000 56 56 29
0.473881 0.526881 1.781000 57 54 28
0.471487 0.527321 1.772000 58 54 27
0.471487 0.530423 1.772000 58 54 26
0.473881 0.536234 1.781000 57 56 28
0.486387 0.675182 1.828000 79 74 56
0.483992 0.675042 1.819000 77 76 52
0.483992 0.678226 1.819000 73 66 49
0.481331 0.677664 1.809000 69 57 49
0.481331 0.680831 1.809000 65 55 50
0.478937 0.680595 1.800000 61 59 46
0.478937 0.683745 1.800000 53 55 43
0.476276 0.683080 1.790000 46 50 35
0.473881 0.682763 1.781000 38 33 27
0.473881 0.685881 1.781000 30 12 26
0.473881 0.688999 1.781000 26 14 26
0.473881 0.692116 1.781000 23 18 22
0.472178 -0.685121 1.763000 30 17 8
0.474589 -0.685517 1.772000 31 20 5
0.472178 -0.678949 1.763000 32 18 7
0.474589 -0.679313 1.772000 33 18 10
0.472178 -0.672777 1.763000 34 15 7
0.472178 -0.669691 1.763000 34 16 4
0.464947 -0.656396 1.736000 35 16 6
0.464947 -0.653357 1.736000 33 17 9
0.467357 -0.653689 1.745000 31 16 9
0.467357 -0.650635 1.745000 30 17 9
0.467357 -0.647580 1.745000 30 16 7
0.467357 -0.644525 1.745000 31 17 6
0.472178 -0.648088 1.763000 33 17 8
0.472178 -0.645002 1.763000 32 17 10
0.464947 -0.632085 1.736000 32 18 7
0.467357 -0.632307 1.745000 32 21 5
0.467357 -0.629252 1.745000 33 19 6
0.467357 -0.626198 1.745000 35 17 7
0.467357 -0.623143 1.745000 38 17 7
0.464947 -0.616890 1.736000 37 17 7
0.464947 -0.613851 1.736000 36 16 10
0.464947 -0.610813 1.736000 34 15 13
0.464947 -0.607774 1.736000 32 17 11
0.467357 -0.607870 1.745000 33 20 10
0.467357 -0.604815 1.745000 35 21 11
0.467357 -0.601761 1.745000 35 21 13
0.464947 -0.595618 1.736000 35 21 11
0.464947 -0.592579 1.736000 34 20 10
0.464947 -0.589540 1.736000 33 18 10
0.467357 -0.589542 1.745000 33 18 10
0.467357 -0.586488 1.745000 33 18 8
0.467357 -0.583433 1.745000 35 19 6
0.467357 -0.580378 1.745000 38 17 8
0.467357 -0.577324 1.745000 37 16 10
0.467357 -0.574269 1.745000 37 17 7
0.467357 -0.571214 1.745000 38 19 4
0.467357 -0.568160 1.745000 39 20 6
0.467357 -0.565105 1.745000 37 22 9
0.467357 -0.562051 1.745000 36 21 11
0.464947 -0.556113 1.736000 35 21 14
0.464947 -0.553074 1.736000 35 21 12
0.464947 -0.550035 1.736000 36 23 10
0.464947 -0.546996 1.736000 37 22 12
0.464947 -0.543957 1.736000 36 22 13
0.464947 -0.540919 1.736000 36 21 13
0.464947 -0.537880 1.736000 36 22 12
0.464947 -0.534841 1.736000 37 22 9
0.464947 -0.531802 1.736000 39 21 5
0.464947 -0.528763 1.736000 41 20 8
0.464947 -0.525724 1.736000 42 19 12
0.464947 -0.522685 1.736000 43 18 13
0.464947 -0.519646 1.736000 40 21 14
0.464947 -0.516608 1.736000 38 22 12
0.464947 -0.513569 1.736000 37 22 11
0.464947 -0.510530 1.736000 37 22 14
0.464947 -0.507491 1.736000 36 23 17
0.464947 -0.504452 1.736000 36 22 15
0.464947 -0.501413 1.736000 39 22 13
0.464947 -0.498374 1.736000 42 22 12
0.464947 -0.495336 1.736000 40 23 11
0.464947 -0.492297 1.736000 38 22 11
0.469768 -0.494331 1.754000 36 20 10
0.472178 -0.493781 1.763000 35 20 10
0.432540 -0.449502 1.615000 34 23 10
0.432540 -0.446675 1.615000 34 18 9
0.432540 -0.443848 1.615000 36 16 9
0.432540 -0.441021 1.615000 39 16 11
0.434415 -0.440093 1.622000 37 15 13
0.434415 -0.437254 1.622000 35 16 11
0.434415 -0.434415 1.622000 36 17 10
0.434415 -0.431575 1.622000 38 16 9
0.432540 -0.426886 1.615000 39 15 9
0.430397 -0.421958 1.607000 41 17 8
0.452359 -0.440533 1.689000 40 19 8
0.452359 -0.437576 1.689000 39 19 10
0.432540 -0.415577 1.615000 39 21 12
0.432540 -0.412750 1.615000 40 21 10
0.432540 -0.409923 1.615000 41 21 9
0.432540 -0.407096 1.615000 43 21 10
0.432540 -0.404269 1.615000 43 23 11
0.432540 -0.401442 1.615000 43 24 11
0.432540 -0.398615 1.615000 42 27 12
0.432540 -0.395788 1.615000 42 25 11
0.432540 -0.392961 1.615000 41 27 11
0.432540 -0.390134 1.615000 41 27 12
0.474589 -0.424958 1.772000 42 29 14
0.474589 -0.421856 1.772000 43 25 15
0.472178 -0.416628 1.763000 45 27 17
0.472178 -0.413542 1.763000 47 25 15
0.428522 -0.372506 1.600000 45 27 14
0.469768 -0.405290 1.754000 44 27 12
0.472178 -0.404283 1.763000 45 30 10
0.472178 -0.401197 1.763000 47 28 14
0.472178 -0.398111 1.763000 47 30 17
0.472178 -0.395025 1.763000 48 30 18
0.472178 -0.391939 1.763000 48 34 19
0.447806 -0.368781 1.672000 48 34 20
0.472178 -0.385766 1.763000 48 36 22
0.472178 -0.382680 1.763000 49 34 22
0.467357 -0.375719 1.745000 50 36 23
0.467357 -0.372664 1.745000 51 33 22
0.467357 -0.369609 1.745000 54 34 21
0.467357 -0.366555 1.745000 58 33 22
0.468429 -0.364333 1.749000 54 36 23
0.467357 -0.360445 1.745000 51 35 22
0.467357 -0.357391 1.745000 52 38 22
0.467357 -0.354336 1.745000 53 39 26
0.464947 -0.349470 1.736000 54 42 31
0.464947 -0.346431 1.736000 55 41 33
0.464947 -0.343392 1.736000 55 41 36
0.464947 -0.340353 1.736000 56 41 35
0.462804 -0.335760 1.728000 55 41 34
0.462804 -0.332735 1.728000 55 42 31
0.460394 -0.327993 1.719000 57 45 28
0.462804 -0.326685 1.728000 59 44 33
0.462804 -0.323660 1.728000 59 45 38
0.462804 -0.320636 1.728000 59 45 37
0.464947 -0.319081 1.736000 59 46 37
0.464947 -0.316042 1.736000 59 45 39
0.460394 -0.309938 1.719000 59 45 42
0.460394 -0.306929 1.719000 59 45 41
0.462804 -0.305511 1.728000 60 46 41
0.462804 -0.302486 1.728000 62 48 41
0.462804 -0.299462 1.728000 61 50 42
0.462804 -0.296437 1.728000 61 51 41
0.462804 -0.293412 1.728000 63 53 41
0.462804 -0.290387 1.728000 65 50 43
0.462804 -0.287362 1.728000 65 50 45
0.462804 -0.284337 1.728000 65 52 44
0.462804 -0.281312 1.728000 66 55 44
0.462804 -0.278288 1.728000 68 54 46
0.460394 -0.273829 1.719000 68 54 49
0.460394 -0.270820 1.719000 68 54 47
0.460394 -0.267811 1.719000 70 56 46
0.460394 -0.264802 1.719000 72 57 47
0.460394 -0.261793 1.719000 72 59 48
0.460394 -0.258783 1.719000 72 59 48
0.460394 -0.255774 1.719000 73 62 48
0.460394 -0.252765 1.719000 74 63 49
0.460394 -0.249756 1.719000 76 64 51
0.460394 -0.246747 1.719000 78 64 56
0.460394 -0.243738 1.719000 78 65 61
0.460394 -0.240729 1.719000 79 67 60
0.460394 -0.237720 1.719000 80 70 59
0.460394 -0.234711 1.719000 82 71 62
0.458251 -0.230623 1.711000 82 73 65
0.458251 -0.227628 1.711000 83 73 64
0.458251 -0.224633 1.711000 84 76 63
0.460394 -0.222674 1.719000 85 77 67
0.460394 -0.219665 1.719000 86 78 71
0.460394 -0.216656 1.719000 87 79 72
0.460394 -0.213647 1.719000 89 80 74
0.462804 -0.211740 1.728000 92 80 76
0.460394 -0.207629 1.719000 93 82 77
0.460394 -0.204619 1.719000 95 83 77
0.460394 -0.201610 1.719000 96 85 77
0.460394 -0.198601 1.719000 97 86 79
0.464947 -0.197526 1.736000 98 89 81
0.462804 -0.193591 1.728000 99 90 82
0.464947 -0.191449 1.736000 100 92 84
0.462804 -0.187542 1.728000 102 92 87
0.462804 -0.184517 1.728000 104 93 90
0.462804 -0.181492 1.728000 106 94 91
0.462804 -0.178467 1.728000 108 97 92
0.462804 -0.175442 1.728000 111 97 92
0.462804 -0.172417 1.728000 113 101 93
0.464947 -0.170177 1.736000 116 102 93
0.464947 -0.167138 1.736000 118 105 93
0.462804 -0.163343 1.728000 120 105 97
0.462804 -0.160318 1.728000 121 107 101
0.462804 -0.157293 1.728000 122 109 102
0.462804 -0.154268 1.728000 123 112 104
0.462804 -0.151243 1.728000 124 112 105
0.460394 -0.147446 1.719000 126 114 105
0.460394 -0.144437 1.719000 128 114 109
0.460394 -0.141428 1.719000 129 117 113
0.462804 -0.139144 1.728000 130 118 114
0.462804 -0.136119 1.728000 131 120 115
0.462804 -0.133094 1.728000 132 121 116
0.462804 -0.130069 1.728000 133 123 117
0.462804 -0.127044 1.728000 135 122 118
0.462804 -0.124019 1.728000 135 124 118
0.462804 -0.120995 1.728000 136 124 119
0.462804 -0.117970 1.728000 135 124 120
0.462804 -0.114945 1.728000 135 124 121
0.462804 -0.111920 1.728000 136 126 122
0.462804 -0.108895 1.728000 138 125 123
0.462804 -0.105870 1.728000 138 125 124
0.460394 -0.102310 1.719000 138 127 125
0.460394 -0.099301 1.719000 138 128 126
0.460394 -0.096291 1.719000 138 126 124
0.460394 -0.093282 1.719000 139 128 122
0.460394 -0.090273 1.719000 141 129 123
0.460394 -0.087264 1.719000 143 131 123
0.460394 -0.084255 1.719000 146 130 124
0.460394 -0.081246 1.719000 144 129 125
0.460394 -0.078237 1.719000 142 129 127
0.462804 -0.075622 1.728000 140 130 129
0.462804 -0.072597 1.728000 139 129 126
0.462804 -0.069572 1.728000 139 129 124
0.460394 -0.066200 1.719000 140 129 124
0.460394 -0.063191 1.719000 140 129 124
0.460394 -0.060182 1.719000 140 128 125
0.460394 -0.057173 1.719000 141 128 126
0.460394 -0.054164 1.719000 142 128 128
0.462804 -0.051423 1.728000 140 129 129
0.462804 -0.048398 1.728000 139 128 127
0.464947 -0.045583 1.736000 138 127 125
0.464947 -0.042544 1.736000 138 126 124
0.464947 -0.039505 1.736000 140 125 122
0.464947 -0.036466 1.736000 142 125 125
0.464947 -0.033428 1.736000 139 125 127
0.464947 -0.030389 1.736000 137 124 125
0.462804 -0.027224 1.728000 135 125 124
0.462804 -0.024199 1.728000 134 123 123
0.462804 -0.021174 1.728000 133 122 123
0.462804 -0.018149 1.728000 133 120 123
0.462804 -0.015124 1.728000 131 120 124
0.462804 -0.012099 1.728000 129 119 119
0.462804 -0.009075 1.728000 128 119 115
0.462804 -0.006050 1.728000 127 118 113
0.462804 -0.003025 1.728000 126 117 111
0.462804 -0.000000 1.728000 126 116 112
0.462804 0.003025 1.728000 125 117 112
0.462804 0.006050 1.728000 124 116 113
0.462804 0.009075 1.728000 123 115 114
0.464947 0.012156 1.736000 123 112 111
0.464947 0.015194 1.736000 121 110 107
0.462804 0.018149 1.728000 119 108 105
0.464947 0.021272 1.736000 118 106 104
0.464947 0.024311 1.736000 117 105 102
0.464947 0.027350 1.736000 114 102 101
0.462804 0.030249 1.728000 111 101 99
0.462804 0.033274 1.728000 111 99 98
0.462804 0.036298 1.728000 111 99 95
0.462804 0.039323 1.728000 110 98 92
0.462804 0.042348 1.728000 109 97 92
0.462804 0.045373 1.728000 107 96 92
0.462804 0.048398 1.728000 105 95 90
0.462804 0.051423 1.728000 104 94 88
0.460394 0.054164 1.719000 103 92 87
0.460394 0.057173 1.719000 100 89 85
0.460394 0.060182 1.719000 98 88 85
0.460394 0.063191 1.719000 97 88 84
0.460394 0.066200 1.719000 97 87 83
0.460394 0.069210 1.719000 96 86 83
0.458251 0.071883 1.711000 95 84 80
0.460394 0.075228 1.719000 93 83 78
0.462804 0.078646 1.728000 91 83 77
0.460394 0.081246 1.719000 90 82 76
0.460394 0.084255 1.719000 90 81 77
0.462804 0.087721 1.728000 88 81 79
0.462804 0.090746 1.728000 87 79 77
0.462804 0.093771 1.728000 87 79 76
0.462804 0.096796 1.728000 87 77 75
0.462804 0.099821 1.728000 87 76 74
0.462804 0.102845 1.728000 87 77 73
0.464947 0.106360 1.736000 86 77 72
0.464947 0.109399 1.736000 85 75 70
0.464947 0.112438 1.736000 84 73 68
0.464947 0.115477 1.736000 83 73 69
0.464947 0.118516 1.736000 82 72 70
0.464947 0.121555 1.736000 82 71 67
0.462804 0.124019 1.728000 81 71 65
0.462804 0.127044 1.728000 81 68 64
0.462804 0.130069 1.728000 80 68 63
0.462804 0.133094 1.728000 80 68 64
0.462804 0.136119 1.728000 79 67 65
0.462804 0.139144 1.728000 79 66 61
0.462804 0.142169 1.728000 78 65 56
0.462804 0.145194 1.728000 77 64 54
0.462804 0.148218 1.728000 78 63 52
0.462804 0.151243 1.728000 80 63 53
0.462804 0.154268 1.728000 78 63 54
0.460394 0.156474 1.719000 76 62 53
0.460394 0.159483 1.719000 75 61 52
0.462804 0.163343 1.728000 74 60 51
0.460394 0.165501 1.719000 73 60 50
0.460394 0.168510 1.719000 73 58 48
0.462804 0.172417 1.728000 70 57 46
0.458251 0.173716 1.711000 68 56 47
0.458251 0.176711 1.711000 69 56 47
0.458251 0.179706 1.711000 70 55 49
0.458251 0.182701 1.711000 67 55 52
0.460394 0.186565 1.719000 65 54 48
0.460394 0.189574 1.719000 66 54 45
0.460394 0.192583 1.719000 67 52 47
0.460394 0.195592 1.719000 65 50 49
0.462804 0.199641 1.728000 63 49 45
0.462804 0.202666 1.728000 63 49 41
0.462804 0.205691 1.728000 64 50 45
0.460394 0.207629 1.719000 61 50 48
0.462804 0.211741 1.728000 59 49 44
0.462804 0.214765 1.728000 62 50 40
0.462804 0.217790 1.728000 65 49 38
0.462804 0.220815 1.728000 62 49 36
0.462804 0.223840 1.728000 59 49 36
0.462804 0.226865 1.728000 56 49 37
0.462804 0.229890 1.728000 54 47 39
0.462804 0.232915 1.728000 53 49 41
0.462804 0.235939 1.728000 53 47 39
0.462804 0.238964 1.728000 52 49 38
0.462804 0.241989 1.728000 51 45 37
0.462804 0.245014 1.728000 51 47 35
0.462804 0.248039 1.728000 51 47 32
0.462804 0.251064 1.728000 51 49 28
0.460394 0.252765 1.719000 51 46 26
0.460394 0.255774 1.719000 50 46 25
0.460394 0.258783 1.719000 49 44 27
0.460394 0.261793 1.719000 48 45 29
0.460394 0.264802 1.719000 48 43 26
0.458251 0.266564 1.711000 47 45 23
0.458251 0.269560 1.711000 47 42 21
0.458251 0.272555 1.711000 46 43 20
0.460394 0.276838 1.719000 46 42 17
0.458251 0.278545 1.711000 45 46 15
0.458251 0.281540 1.711000 45 43 15
0.458251 0.284535 1.711000 44 46 16
0.455841 0.286018 1.702000 44 42 17
0.455841 0.288997 1.702000 45 43 17
0.455841 0.291976 1.702000 46 39 18
0.455841 0.294956 1.702000 44 41 18
0.455841 0.297935 1.702000 42 38 22
0.455841 0.300914 1.702000 41 42 25
0.458251 0.305501 1.711000 41 37 23
0.458251 0.308496 1.711000 37 37 21
0.458251 0.311491 1.711000 34 33 19
0.458251 0.314486 1.711000 33 33 18
0.460394 0.318966 1.719000 33 33 15
0.460394 0.321975 1.719000 32 34 13
0.460394 0.324984 1.719000 32 31 15
0.460394 0.327993 1.719000 30 30 18
0.458251 0.329462 1.711000 28 27 19
0.458251 0.332457 1.711000 28 26 19
0.458251 0.335452 1.711000 28 23 17
0.458251 0.338447 1.711000 27 24 15
0.458251 0.341442 1.711000 27 22 16
0.458251 0.344437 1.711000 26 21 17
0.458251 0.347432 1.711000 25 22 16
0.458251 0.350427 1.711000 25 23 15
0.458251 0.353423 1.711000 25 21 11
0.455841 0.354543 1.702000 23 21 7
0.455841 0.357522 1.702000 22 20 9
0.455841 0.360502 1.702000 12 21 11
0.455841 0.363481 1.702000 3 21 10
0.455841 0.366460 1.702000 8 25 9
0.458251 0.371393 1.711000 14 21 8
0.460394 0.376139 1.719000 15 18 7
0.462804 0.381133 1.728000 16 15 7
0.462804 0.384158 1.728000 14 12 8
0.462804 0.387183 1.728000 13 11 8
0.462804 0.390208 1.728000 12 6 8
0.462804 0.393232 1.728000 11 9 6
0.460394 0.394193 1.719000 10 3 5
0.458251 0.395354 1.711000 9 9 6
0.458251 0.398349 1.711000 9 9 8
0.458251 0.401344 1.711000 9 11 8
0.458251 0.404339 1.711000 5 7 8
0.458251 0.407334 1.711000 1 10 6
0.458251 0.410330 1.711000 5 6 5
0.458251 0.413325 1.711000 9 10 8
0.458251 0.416320 1.711000 5 3 12
0.460394 0.421275 1.719000 1 9 9
0.464947 0.428480 1.736000 7 4 7
0.464947 0.431519 1.736000 14 9 13
0.464947 0.434558 1.736000 8 5 19
0.464947 0.437597 1.736000 2 12 20
0.462804 0.438605 1.728000 10 7 22
0.462804 0.441630 1.728000 18 10 20
0.474589 0.455977 1.772000 13 6 18
0.474589 0.459079 1.772000 9 14 14
0.467357 0.455139 1.745000 17 16 10
0.474589 0.465283 1.772000 26 19 14
0.476999 0.470764 1.781000 29 21 18
0.474589 0.471487 1.772000 32 22 19
0.474589 0.474589 1.772000 32 26 20
0.472178 0.475264 1.763000 32 24 19
0.467357 0.473467 1.745000 31 29 18
0.467357 0.476521 1.745000 30 25 15
0.467357 0.479576 1.745000 31 29 13
0.464947 0.480141 1.736000 32 28 10
0.464947 0.483180 1.736000 34 41 7
0.467357 0.488740 1.745000 37 33 18
0.467357 0.491794 1.745000 38 45 30
0.467357 0.494849 1.745000 39 34 29
0.472178 0.506126 1.763000 44 36 23
0.474589 0.511811 1.772000 44 50 17
0.474589 0.514913 1.772000 45 39 21
0.474589 0.518015 1.772000 52 51 25
0.474589 0.521117 1.772000 60 42 26
0.474589 0.524219 1.772000 61 60 27
0.474589 0.527321 1.772000 62 43 20
0.472178 0.527729 1.763000 62 58 13
0.474589 0.533524 1.772000 62 44 19
0.476999 0.598587 1.781000 44 41 32
0.476999 0.601705 1.781000 44 46 32
0.472178 0.598710 1.763000 45 43 31
0.472178 0.601796 1.763000 47 44 31
0.474589 0.607970 1.772000 49 43 34
0.474589 0.611072 1.772000 51 44 37
0.474589 0.614174 1.772000 54 44 34
0.487176 0.671858 1.819000 73 73 35
0.487176 0.675042 1.819000 78 72 37
0.484498 0.674497 1.809000 72 72 39
0.484498 0.677664 1.809000 67 58 42
0.482088 0.677444 1.800000 65 51 45
0.482088 0.680595 1.800000 64 51 41
0.479409 0.679947 1.790000 58 53 38
0.476999 0.679646 1.781000 53 53 43
0.474589 0.679313 1.772000 42 54 49
0.474589 0.682415 1.772000 31 30 38
0.474589 0.685517 1.772000 26 12 27
0.474589 0.688619 1.772000 21 15 21
0.470412 -0.678126 1.745000 27 17 7
0.470412 -0.675072 1.745000 29 18 5
0.467986 -0.668551 1.736000 31 18 8
0.467986 -0.665512 1.736000 31 16 11
0.467986 -0.662473 1.736000 32 14 7
0.467986 -0.659434 1.736000 33 15 4
0.465829 -0.653371 1.728000 35 15 10
0.465829 -0.650346 1.728000 33 16 16
0.465829 -0.647321 1.728000 30 17 12
0.467986 -0.647279 1.736000 31 16 9
0.467986 -0.644240 1.736000 32 16 9
0.467986 -0.641201 1.736000 33 16 9
0.470412 -0.641471 1.745000 34 17 14
0.470412 -0.638416 1.745000 34 16 19
0.470412 -0.635362 1.745000 34 15 12
0.467986 -0.629046 1.736000 33 18 5
0.467986 -0.626007 1.736000 32 20 5
0.467986 -0.622968 1.736000 33 18 5
0.467986 -0.619929 1.736000 34 17 5
0.465829 -0.614047 1.728000 34 17 5
0.465829 -0.611023 1.728000 33 17 11
0.465829 -0.607998 1.728000 32 16 17
0.465829 -0.604973 1.728000 31 17 13
0.467986 -0.604735 1.736000 31 19 10
0.467986 -0.601696 1.736000 31 23 14
0.467986 -0.598657 1.736000 34 21 19
0.467986 -0.595618 1.736000 38 22 15
0.465829 -0.589849 1.728000 35 19 11
0.465829 -0.586824 1.728000 32 19 10
0.467986 -0.586502 1.736000 32 18 10
0.467986 -0.583463 1.736000 32 19 8
0.467986 -0.580424 1.736000 34 19 6
0.467986 -0.577385 1.736000 36 19 8
0.467986 -0.574346 1.736000 35 17 10
0.467986 -0.571307 1.736000 35 17 8
0.467986 -0.568268 1.736000 35 18 6
0.467986 -0.565230 1.736000 36 20 8
