ply
format ascii 1.0
element vertex 1314
property float x
property float y
property float z
property uchar red
property uchar green
property uchar blue
end_header
0.519830 0.032901 3.759000 140 134 86
0.519830 0.039481 3.759000 136 114 90
0.519830 0.046061 3.759000 133 128 95
0.519830 0.052641 3.759000 131 108 93
0.514160 0.058575 3.718000 128 122 91
0.519830 0.065801 3.759000 125 102 89
0.519830 0.072381 3.759000 123 120 88
0.525500 0.079823 3.800000 122 100 91
0.519830 0.085542 3.759000 114 114 94
0.519830 0.092122 3.759000 106 96 90
0.525500 0.099779 3.800000 99 107 86
0.525500 0.106431 3.800000 93 90 81
0.525500 0.113082 3.800000 89 97 77
0.525500 0.119734 3.800000 86 82 72
0.525500 0.126386 3.800000 83 85 68
0.525500 0.133038 3.800000 80 73 66
0.525500 0.139690 3.800000 77 67 64
0.525500 0.146342 3.800000 74 69 63
0.525500 0.152994 3.800000 71 69 62
0.519830 0.157923 3.759000 68 64 60
0.519830 0.164503 3.759000 68 61 58
0.519830 0.171083 3.759000 68 60 61
0.519830 0.177664 3.759000 66 59 65
0.519830 0.184244 3.759000 65 57 61
0.519830 0.190824 3.759000 64 57 57
0.525500 0.199557 3.800000 63 58 54
0.525500 0.206209 3.800000 61 58 52
0.519830 0.210564 3.759000 59 55 56
0.514160 0.214776 3.718000 61 54 61
0.508767 0.218963 3.679000 64 55 57
0.508767 0.225403 3.679000 59 55 53
0.508767 0.231843 3.679000 55 53 53
0.508767 0.238283 3.679000 54 54 53
0.508767 0.244724 3.679000 54 54 52
0.508767 0.251164 3.679000 55 55 51
0.508767 0.257604 3.679000 56 52 50
0.508767 0.264044 3.679000 55 50 50
0.508767 0.270484 3.679000 54 49 49
0.508767 0.276924 3.679000 55 50 48
0.503374 0.280360 3.640000 57 50 47
0.508767 0.315565 3.679000 60 50 46
0.514160 0.325418 3.718000 60 48 46
0.514160 0.331926 3.718000 60 47 46
0.519830 0.342167 3.759000 60 47 45
0.519830 0.348747 3.759000 56 47 44
0.519830 0.355327 3.759000 53 47 42
0.519830 0.361907 3.759000 53 46 41
0.519830 0.368487 3.759000 53 45 45
0.519830 0.375068 3.759000 57 44 49
0.519830 0.381648 3.759000 62 42 44
0.519830 0.388228 3.759000 56 42 39
0.514160 0.390502 3.718000 50 43 37
0.514160 0.397010 3.718000 48 42 36
0.514160 0.403518 3.718000 46 42 34
0.514160 0.410027 3.718000 46 39 33
0.514160 0.416535 3.718000 47 42 37
0.514160 0.423043 3.718000 46 39 40
0.508767 0.425046 3.679000 45 39 41
0.508767 0.431486 3.679000 44 38 41
0.508767 0.437926 3.679000 44 40 42
0.508767 0.444366 3.679000 43 37 44
0.514160 0.455585 3.718000 43 38 45
0.514160 0.462094 3.718000 42 36 46
0.508767 0.463687 3.679000 41 39 43
0.514160 0.475110 3.718000 35 38 41
0.514160 0.481619 3.718000 30 41 46
0.508767 0.483007 3.679000 34 40 52
0.508767 0.489447 3.679000 39 40 47
0.508767 0.495887 3.679000 39 37 43
0.508767 0.502327 3.679000 39 38 44
0.508767 0.508767 3.679000 33 39 46
0.508767 0.515207 3.679000 28 37 44
0.508767 0.521647 3.679000 31 32 42
0.508767 0.528087 3.679000 34 32 43
0.508767 0.534528 3.679000 35 30 43
0.508767 0.540968 3.679000 36 32 39
0.508767 0.547408 3.679000 31 29 35
0.508767 0.553848 3.679000 27 32 35
0.508767 0.560288 3.679000 32 32 35
0.508767 0.566728 3.679000 37 33 37
0.514160 0.579244 3.718000 41 30 38
0.514160 0.585753 3.718000 45 31 33
0.514160 0.592261 3.718000 45 31 28
0.508767 0.592488 3.679000 45 33 32
0.508767 0.598928 3.679000 47 29 36
0.508767 0.605369 3.679000 50 30 31
0.508767 0.611809 3.679000 46 28 26
0.514160 0.624803 3.718000 43 29 26
0.514160 0.631311 3.718000 43 30 26
0.514160 0.637819 3.718000 44 29 23
0.514160 0.644328 3.718000 43 28 20
0.519830 0.658013 3.759000 42 28 26
0.525500 0.705102 3.800000 37 28 22
0.519830 0.704074 3.759000 38 31 23
0.519830 0.710654 3.759000 39 30 24
0.519830 0.717234 3.759000 38 31 25
0.519830 0.723814 3.759000 37 27 30
0.508767 0.714850 3.679000 35 25 35
0.514160 0.728936 3.718000 33 28 30
0.514160 0.735445 3.718000 30 30 24
0.508767 0.734170 3.679000 28 29 24
0.508767 0.740610 3.679000 26 25 24
0.503374 0.739131 3.640000 25 26 27
0.503374 0.745503 3.640000 27 26 31
0.503374 0.751875 3.640000 30 26 34
0.498119 0.750331 3.602000 30 25 37
0.498119 0.756636 3.602000 30 28 30
0.498119 0.762942 3.602000 31 26 22
0.498119 0.769247 3.602000 32 28 21
0.498119 0.775552 3.602000 35 28 20
0.498119 0.781858 3.602000 39 27 23
0.498119 0.788163 3.602000 45 28 26
0.503374 0.802850 3.640000 52 28 31
0.503374 0.809221 3.640000 41 27 36
0.503374 0.815593 3.640000 31 21 31
0.503374 0.821965 3.640000 24 17 26
0.503374 0.828337 3.640000 18 15 23
0.503374 0.834709 3.640000 18 14 20
0.503374 0.841080 3.640000 19 13 18
0.503374 0.847452 3.640000 24 14 16
0.503374 0.853824 3.640000 30 12 16
0.503374 0.860196 3.640000 25 10 15
0.503374 0.866568 3.640000 20 12 15
0.503374 0.872940 3.640000 22 14 15
0.503374 0.879311 3.640000 25 15 18
0.498119 0.876437 3.602000 29 17 21
0.503374 0.892055 3.640000 33 16 19
0.503374 0.898427 3.640000 27 19 17
0.498119 0.895353 3.602000 21 20 14
0.498119 0.901658 3.602000 21 23 11
0.498119 0.907964 3.602000 21 19 14
0.503374 0.923914 3.640000 23 17 17
0.503374 0.930286 3.640000 26 14 18
0.503374 0.936658 3.640000 33 17 19
0.503374 0.943030 3.640000 40 28 26
0.503374 0.949401 3.640000 38 35 32
0.508767 0.966014 3.679000 36 40 29
0.544055 -0.258426 3.885000 37 1 25
0.544055 -0.244825 3.885000 41 3 42
0.544055 -0.238024 3.885000 48 24 45
0.544055 -0.231224 3.885000 56 17 42
0.544055 -0.224423 3.885000 58 31 39
0.538034 -0.215213 3.842000 60 28 52
0.532152 -0.206209 3.800000 59 39 65
0.532152 -0.199557 3.800000 58 47 55
0.532152 -0.192905 3.800000 62 49 46
0.532152 -0.186253 3.800000 65 28 67
0.532152 -0.179601 3.800000 66 45 88
0.532152 -0.172949 3.800000 68 31 69
0.532152 -0.166297 3.800000 66 48 50
0.532152 -0.159646 3.800000 64 33 50
0.538034 -0.154685 3.842000 69 49 51
0.538034 -0.147959 3.842000 74 27 50
0.538034 -0.141234 3.842000 71 50 49
0.538034 -0.134508 3.842000 69 29 48
0.538034 -0.127783 3.842000 66 40 48
0.532152 -0.119734 3.800000 64 1 47
0.532152 -0.113082 3.800000 73 40 46
0.538034 -0.107607 3.842000 83 1 47
0.538034 -0.100881 3.842000 86 46 49
0.538034 -0.094156 3.842000 89 1 50
0.538034 -0.087430 3.842000 87 57 52
0.532152 -0.079823 3.800000 85 40 60
0.532152 -0.073171 3.800000 93 76 68
0.532152 -0.066519 3.800000 102 72 77
0.532152 -0.059867 3.800000 104 94 87
0.526410 -0.052641 3.759000 107 86 87
0.526410 -0.046061 3.759000 110 102 87
0.532152 -0.039911 3.800000 114 95 84
0.526410 -0.032901 3.759000 111 104 81
0.526410 -0.026320 3.759000 108 92 82
0.526410 -0.019740 3.759000 112 106 83
0.526410 -0.013160 3.759000 116 95 83
0.532152 -0.006652 3.800000 114 104 83
0.526410 -0.000000 3.759000 112 95 89
0.532152 0.006652 3.800000 114 104 95
0.532152 0.013304 3.800000 115 96 93
0.532152 0.019956 3.800000 113 105 92
0.532152 0.026608 3.800000 111 96 90
0.526410 0.032901 3.759000 110 98 89
0.526410 0.039481 3.759000 109 86 90
0.526410 0.046061 3.759000 107 95 92
0.526410 0.052641 3.759000 105 85 90
0.520669 0.058575 3.718000 102 91 89
0.526410 0.065801 3.759000 98 82 86
0.526410 0.072381 3.759000 99 91 83
0.526410 0.078962 3.759000 99 84 83
0.526410 0.085542 3.759000 95 89 84
0.526410 0.092122 3.759000 91 81 83
0.526410 0.098702 3.759000 88 85 82
0.526410 0.105282 3.759000 85 76 79
0.532152 0.113082 3.800000 82 77 76
0.532152 0.119734 3.800000 79 69 72
0.538034 0.127783 3.842000 76 70 69
0.532152 0.133038 3.800000 73 64 66
0.532152 0.139690 3.800000 71 64 63
0.532152 0.146342 3.800000 68 63 62
0.532152 0.152994 3.800000 66 63 62
0.526410 0.157923 3.759000 64 61 60
0.526410 0.164503 3.759000 64 59 58
0.526410 0.171083 3.759000 65 56 60
0.526410 0.177664 3.759000 63 55 63
0.520669 0.182234 3.718000 61 52 57
0.520669 0.188743 3.718000 61 54 51
0.520669 0.195251 3.718000 60 54 50
0.520669 0.201759 3.718000 58 55 50
0.520669 0.208268 3.718000 56 53 48
0.515207 0.212523 3.679000 58 53 46
0.515207 0.218963 3.679000 60 53 47
0.515207 0.225403 3.679000 57 52 49
0.515207 0.231843 3.679000 54 49 50
0.515207 0.238283 3.679000 54 51 51
0.515207 0.244724 3.679000 53 53 49
0.515207 0.251164 3.679000 54 52 47
0.515207 0.257604 3.679000 56 50 46
0.515207 0.264044 3.679000 54 49 45
0.509746 0.267617 3.640000 53 49 43
0.509746 0.273988 3.640000 53 49 41
0.509746 0.280360 3.640000 53 50 41
0.509746 0.286732 3.640000 54 50 41
0.509746 0.293104 3.640000 55 50 41
0.515207 0.302684 3.679000 55 49 41
0.515207 0.315565 3.679000 54 47 41
0.520669 0.325418 3.718000 54 46 41
0.520669 0.331926 3.718000 54 46 41
0.520669 0.338435 3.718000 54 49 40
0.520669 0.344943 3.718000 52 46 39
0.520669 0.351451 3.718000 50 47 38
0.520669 0.357960 3.718000 49 46 38
0.520669 0.364468 3.718000 49 47 46
0.520669 0.370977 3.718000 51 44 54
0.515207 0.373525 3.679000 53 45 49
0.520669 0.383993 3.718000 50 43 44
0.515207 0.386406 3.679000 47 47 41
0.515207 0.392846 3.679000 46 44 38
0.515207 0.399286 3.679000 45 47 39
0.515207 0.405726 3.679000 45 43 41
0.515207 0.412166 3.679000 46 49 40
0.515207 0.418606 3.679000 45 44 40
0.515207 0.425046 3.679000 45 47 40
0.515207 0.431486 3.679000 44 43 40
0.515207 0.437926 3.679000 44 49 53
0.515207 0.444366 3.679000 43 43 67
0.515207 0.450806 3.679000 42 47 57
0.515207 0.457246 3.679000 43 42 48
0.515207 0.463687 3.679000 44 47 44
0.515207 0.470127 3.679000 40 43 41
0.515207 0.476567 3.679000 37 45 51
0.509746 0.477887 3.640000 40 42 62
0.509746 0.484258 3.640000 43 44 53
0.509746 0.490630 3.640000 47 40 45
0.515207 0.502327 3.679000 50 39 48
0.515207 0.508767 3.679000 44 40 51
0.515207 0.515207 3.679000 39 40 46
0.515207 0.521647 3.679000 43 36 42
0.515207 0.528087 3.679000 48 34 45
0.515207 0.534528 3.679000 45 36 49
0.515207 0.540968 3.679000 43 35 40
0.509746 0.541605 3.640000 44 33 32
0.509746 0.547977 3.640000 46 33 32
0.509746 0.554348 3.640000 44 36 33
0.515207 0.566728 3.679000 42 37 41
0.515207 0.573168 3.679000 47 33 49
0.515207 0.579608 3.679000 52 32 37
0.515207 0.586048 3.679000 49 36 26
0.515207 0.592488 3.679000 46 39 32
0.515207 0.598928 3.679000 46 34 39
0.515207 0.605369 3.679000 47 34 33
0.509746 0.605323 3.640000 44 30 27
0.515207 0.618249 3.679000 41 29 26
0.515207 0.624689 3.679000 40 28 26
0.515207 0.631129 3.679000 40 29 26
0.515207 0.637569 3.679000 39 29 26
0.520669 0.650836 3.718000 38 31 22
0.532152 0.671842 3.800000 38 29 19
0.538034 0.685993 3.842000 39 32 19
0.520669 0.676870 3.718000 35 31 19
0.520669 0.683378 3.718000 34 28 18
0.532152 0.705102 3.800000 34 27 18
0.526410 0.704074 3.759000 34 27 18
0.526410 0.710654 3.759000 35 27 20
0.526410 0.717234 3.759000 35 27 23
0.520669 0.715920 3.718000 35 26 26
0.520669 0.722428 3.718000 34 26 29
0.520669 0.728936 3.718000 33 26 26
0.520669 0.735445 3.718000 34 27 23
0.515207 0.734170 3.679000 35 27 25
0.509746 0.732759 3.640000 32 24 27
0.509746 0.739131 3.640000 29 22 30
0.509746 0.745503 3.640000 30 24 33
0.504424 0.744026 3.602000 32 22 31
0.504424 0.750331 3.602000 33 24 30
0.499243 0.748864 3.565000 34 25 22
0.499243 0.755105 3.565000 33 25 15
0.499243 0.761345 3.565000 32 25 17
0.499243 0.767586 3.565000 34 25 19
0.499243 0.773826 3.565000 36 20 21
0.499243 0.780067 3.565000 40 25 23
0.499243 0.786307 3.565000 45 24 21
0.504424 0.800773 3.602000 36 23 19
0.504424 0.807079 3.602000 28 20 22
0.509746 0.821965 3.640000 22 17 26
0.509746 0.828337 3.640000 17 14 23
0.509746 0.834709 3.640000 16 13 20
0.509746 0.841080 3.640000 16 12 13
0.509746 0.847452 3.640000 20 13 7
0.509746 0.853824 3.640000 25 12 14
0.509746 0.860196 3.640000 21 12 21
0.509746 0.866568 3.640000 17 14 21
0.509746 0.872940 3.640000 19 15 21
0.504424 0.870132 3.602000 21 17 21
0.504424 0.876437 3.602000 24 16 22
0.504424 0.882742 3.602000 27 16 19
0.504424 0.889048 3.602000 22 17 17
0.499243 0.886156 3.565000 17 21 11
0.499243 0.892396 3.565000 18 19 5
0.499243 0.898637 3.565000 20 21 11
0.504424 0.914269 3.602000 20 16 17
0.504424 0.920574 3.602000 21 14 15
0.504424 0.926879 3.602000 22 17 13
0.504424 0.933185 3.602000 23 25 17
0.504424 0.939490 3.602000 26 27 21
0.509746 0.955773 3.640000 28 30 15
0.509746 0.962145 3.640000 29 28 10
0.550856 -0.258426 3.885000 3 33 85
0.550856 -0.244825 3.885000 11 19 80
0.550856 -0.238024 3.885000 21 1 75
0.550856 -0.231224 3.885000 31 13 84
0.544759 -0.221939 3.842000 34 1 93
0.544759 -0.215213 3.842000 38 12 94
0.538804 -0.206209 3.800000 37 3 95
0.532991 -0.190824 3.759000 43 47 64
0.538804 -0.166297 3.800000 44 39 61
0.538804 -0.159646 3.800000 40 29 65
0.538804 -0.152994 3.800000 46 44 70
0.544759 -0.147959 3.842000 53 26 74
0.544759 -0.141234 3.842000 37 33 78
0.544759 -0.134508 3.842000 22 16 70
0.544759 -0.114332 3.842000 1 1 97
0.550856 -0.108811 3.885000 1 23 102
0.557237 -0.103192 3.930000 1 1 108
0.550856 -0.095210 3.885000 1 20 106
0.550856 -0.088409 3.885000 1 1 105
0.544759 -0.080705 3.842000 1 15 90
0.544759 -0.073980 3.842000 20 10 76
0.544759 -0.067254 3.842000 40 33 77
0.538804 -0.059867 3.800000 49 50 79
0.538804 -0.053215 3.800000 58 50 75
0.538804 -0.046563 3.800000 67 65 71
0.538804 -0.039911 3.800000 76 62 69
0.532991 -0.032901 3.759000 69 78 66
0.532991 -0.026320 3.759000 63 62 65
0.532991 -0.019740 3.759000 70 78 64
0.532991 -0.013160 3.759000 77 60 64
0.538804 -0.006652 3.800000 73 67 64
0.538804 -0.000000 3.800000 70 60 67
0.538804 0.006652 3.800000 75 66 69
0.538804 0.013304 3.800000 80 61 64
0.538804 0.019956 3.800000 79 78 59
0.538804 0.026608 3.800000 78 65 63
0.538804 0.033260 3.800000 80 79 67
0.538804 0.039912 3.800000 83 63 70
0.532991 0.046061 3.759000 81 82 73
0.532991 0.052641 3.759000 80 61 71
0.527177 0.058575 3.718000 76 77 69
0.527177 0.065084 3.718000 72 62 65
0.527177 0.071592 3.718000 74 79 62
0.532991 0.078962 3.759000 77 63 64
0.527177 0.084609 3.718000 77 78 67
0.527177 0.091117 3.718000 77 61 65
0.532991 0.098702 3.759000 77 76 63
0.532991 0.105282 3.759000 78 61 59
0.538804 0.113082 3.800000 75 69 55
0.538804 0.119734 3.800000 73 54 50
0.544759 0.127783 3.842000 70 64 46
0.538804 0.133038 3.800000 67 52 44
0.538804 0.139690 3.800000 65 62 42
0.538804 0.146342 3.800000 63 51 42
0.538804 0.152994 3.800000 62 60 42
0.532991 0.157923 3.759000 61 50 41
0.527177 0.162709 3.718000 61 58 40
0.532991 0.171083 3.759000 62 47 40
0.532991 0.177664 3.759000 60 54 41
0.527177 0.182234 3.718000 58 44 37
0.527177 0.188743 3.718000 58 55 32
0.521647 0.193203 3.679000 58 46 36
0.521647 0.199643 3.679000 56 56 39
0.521647 0.206083 3.679000 54 44 36
0.516117 0.210270 3.640000 55 53 33
0.516117 0.216642 3.640000 56 44 37
0.521647 0.225403 3.679000 55 51 41
0.521647 0.231843 3.679000 54 44 41
0.521647 0.238283 3.679000 53 51 41
0.521647 0.244724 3.679000 53 47 39
0.521647 0.251164 3.679000 54 51 38
0.521647 0.257604 3.679000 56 45 44
0.516117 0.261245 3.640000 54 47 49
0.516117 0.267617 3.640000 53 45 41
0.516117 0.273988 3.640000 51 49 34
0.516117 0.280360 3.640000 49 47 40
0.516117 0.286732 3.640000 49 50 47
0.516117 0.293104 3.640000 50 46 37
0.521647 0.302684 3.679000 49 47 28
0.527177 0.312401 3.718000 48 44 35
0.521647 0.315565 3.679000 48 46 43
0.527177 0.325418 3.718000 48 43 43
0.521647 0.328445 3.679000 48 44 43
0.527177 0.338435 3.718000 48 44 33
0.527177 0.344943 3.718000 47 44 24
0.521647 0.347765 3.679000 47 43 31
0.521647 0.354205 3.679000 46 46 38
0.521647 0.360645 3.679000 45 42 43
0.521647 0.367085 3.679000 45 40 48
0.516117 0.369566 3.640000 45 39 37
0.516117 0.375937 3.640000 45 39 27
0.516117 0.382309 3.640000 45 40 31
0.516117 0.388681 3.640000 45 41 36
0.521647 0.399286 3.679000 45 39 31
0.521647 0.405726 3.679000 45 39 27
0.521647 0.412166 3.679000 45 41 31
0.521647 0.418606 3.679000 45 42 34
0.516117 0.420540 3.640000 45 41 29
0.521647 0.431486 3.679000 44 41 25
0.521647 0.437926 3.679000 44 40 39
0.521647 0.444366 3.679000 43 41 53
0.521647 0.450806 3.679000 42 40 47
0.521647 0.457246 3.679000 44 41 41
0.516117 0.458771 3.640000 47 41 41
0.521647 0.470127 3.679000 46 43 41
0.516117 0.471515 3.640000 45 40 41
0.516117 0.477887 3.640000 46 39 42
0.516117 0.484258 3.640000 48 39 40
0.516117 0.490630 3.640000 55 41 39
0.521647 0.502327 3.679000 62 37 40
0.521647 0.508767 3.679000 56 42 41
0.521647 0.515207 3.679000 50 37 39
0.516117 0.516118 3.640000 56 39 37
0.516117 0.522489 3.640000 62 36 38
0.510729 0.523340 3.602000 56 45 39
0.510729 0.529645 3.602000 50 36 32
0.510729 0.535951 3.602000 57 38 26
0.510729 0.542256 3.602000 65 34 28
0.510729 0.548561 3.602000 56 44 30
0.510729 0.554867 3.602000 47 35 33
0.510729 0.561172 3.602000 53 36 37
0.516117 0.573464 3.640000 60 34 30
0.516117 0.579836 3.640000 53 44 24
0.516117 0.586208 3.640000 47 36 27
0.516117 0.592579 3.640000 46 34 30
0.516117 0.598951 3.640000 45 31 28
0.516117 0.605323 3.640000 42 30 26
0.521647 0.618249 3.679000 39 28 26
0.521647 0.624689 3.679000 38 26 26
0.521647 0.631129 3.679000 37 26 24
0.521647 0.637569 3.679000 35 28 22
0.521647 0.644009 3.679000 34 26 20
0.527177 0.657344 3.718000 34 24 19
0.527177 0.663853 3.718000 34 26 18
0.527177 0.670361 3.718000 33 26 18
0.527177 0.676870 3.718000 32 26 20
0.527177 0.683378 3.718000 31 26 21
0.532991 0.697494 3.759000 31 25 21
0.532991 0.704074 3.759000 31 26 20
0.532991 0.710654 3.759000 32 25 20
0.532991 0.717234 3.759000 32 26 21
0.532991 0.723814 3.759000 33 26 23
0.527177 0.722428 3.718000 33 27 25
0.527177 0.728936 3.718000 33 25 23
0.527177 0.735445 3.718000 38 27 21
0.521647 0.734170 3.679000 43 26 23
0.516117 0.732759 3.640000 38 24 24
0.516117 0.739131 3.640000 33 23 31
0.516117 0.745503 3.640000 33 26 38
0.510729 0.744026 3.602000 34 24 33
0.510729 0.750331 3.602000 36 26 29
0.510729 0.756636 3.602000 39 26 28
0.505483 0.755105 3.565000 36 27 27
0.505483 0.761345 3.565000 33 27 23
0.500237 0.759619 3.528000 33 28 20
0.500237 0.765795 3.528000 34 27 22
0.500237 0.771971 3.528000 36 30 24
0.505483 0.786307 3.565000 38 27 29
0.510729 0.800773 3.602000 31 24 34
0.510729 0.807079 3.602000 25 22 30
0.510729 0.813384 3.602000 21 20 26
0.510729 0.819689 3.602000 17 18 22
0.510729 0.825995 3.602000 15 15 18
0.510729 0.832300 3.602000 13 15 16
0.510729 0.838605 3.602000 16 16 14
0.510729 0.844911 3.602000 20 16 22
0.516117 0.860196 3.640000 17 14 31
0.516117 0.866568 3.640000 14 15 28
0.510729 0.863826 3.602000 15 15 25
0.510729 0.870132 3.602000 17 17 29
0.510729 0.876437 3.602000 19 14 33
0.510729 0.882742 3.602000 21 16 26
0.505483 0.879915 3.565000 17 14 20
0.505483 0.886156 3.565000 14 18 15
0.505483 0.892396 3.565000 16 14 11
0.505483 0.898637 3.565000 19 17 16
0.510729 0.914269 3.602000 18 15 21
0.510729 0.920574 3.602000 17 15 21
0.510729 0.926879 3.602000 12 15 21
0.510729 0.933185 3.602000 7 21 27
0.510729 0.939490 3.602000 14 20 33
0.510729 0.945795 3.602000 21 23 25
0.516117 0.962145 3.640000 21 16 18
0.510729 0.958406 3.602000 21 19 21
0.510729 0.964711 3.602000 12 18 24
0.551484 -0.141234 3.842000 80 9 107
0.551484 -0.134508 3.842000 85 1 91
0.557657 -0.115612 3.885000 113 76 148
0.564116 -0.103192 3.930000 122 104 168
0.557657 -0.095210 3.885000 120 77 163
0.557657 -0.088409 3.885000 103 73 158
0.551484 -0.080705 3.842000 86 12 121
0.551484 -0.073980 3.842000 78 6 84
0.551484 -0.067254 3.842000 70 1 78
0.551484 -0.060529 3.842000 62 13 72
0.545456 -0.053215 3.800000 55 1 64
0.545456 -0.046563 3.800000 56 19 56
0.551484 -0.040352 3.842000 57 12 54
0.539571 -0.032901 3.759000 54 23 52
0.545456 -0.026607 3.800000 52 2 48
0.539571 -0.019740 3.759000 53 21 45
0.545456 -0.000000 3.800000 49 13 45
0.545456 0.006652 3.800000 53 21 44
0.545456 0.013304 3.800000 56 4 35
0.545456 0.019956 3.800000 57 22 27
0.545456 0.026608 3.800000 58 7 36
0.545456 0.033260 3.800000 60 23 46
0.539571 0.039481 3.759000 62 5 50
0.539571 0.046061 3.759000 61 22 54
0.533685 0.052067 3.718000 59 3 51
0.533685 0.058575 3.718000 56 23 49
0.533685 0.065084 3.718000 54 12 45
0.528087 0.070841 3.679000 54 25 41
0.533685 0.078100 3.718000 55 11 45
0.533685 0.084609 3.718000 54 25 50
0.533685 0.091117 3.718000 52 11 47
0.533685 0.097625 3.718000 50 27 45
0.533685 0.104134 3.718000 48 23 39
0.539571 0.111862 3.759000 45 27 34
0.545456 0.119734 3.800000 42 17 28
0.545456 0.126386 3.800000 40 25 23
0.545456 0.133038 3.800000 38 19 22
0.545456 0.139690 3.800000 38 25 22
0.545456 0.146342 3.800000 39 19 22
0.545456 0.152994 3.800000 39 25 22
0.539571 0.157923 3.759000 40 21 22
0.539571 0.164503 3.759000 40 25 22
0.539571 0.171083 3.759000 41 20 21
0.539571 0.177664 3.759000 40 23 20
0.539571 0.184244 3.759000 39 18 17
0.533685 0.188743 3.718000 41 23 14
0.528087 0.193203 3.679000 42 21 21
0.528087 0.199643 3.679000 42 23 29
0.522489 0.203898 3.640000 42 17 25
0.522489 0.210270 3.640000 42 23 21
0.522489 0.216642 3.640000 42 21 27
0.522489 0.223014 3.640000 41 25 34
0.528087 0.231843 3.679000 41 27 32
0.528087 0.238283 3.679000 40 28 31
0.528087 0.244724 3.679000 39 34 30
0.528087 0.251164 3.679000 41 30 30
0.528087 0.257604 3.679000 43 34 42
0.528087 0.264044 3.679000 43 37 54
0.522489 0.267617 3.640000 43 37 40
0.522489 0.273988 3.640000 41 39 27
0.522489 0.280360 3.640000 40 39 40
0.522489 0.286732 3.640000 40 39 54
0.522489 0.293104 3.640000 41 37 34
0.522489 0.299476 3.640000 39 40 15
0.528087 0.309124 3.679000 38 37 30
0.528087 0.315565 3.679000 39 40 46
0.533685 0.325418 3.718000 41 36 45
0.533685 0.331926 3.718000 43 40 45
0.533685 0.338435 3.718000 46 39 27
0.533685 0.344943 3.718000 45 39 10
0.528087 0.347765 3.679000 44 35 24
0.528087 0.354205 3.679000 44 39 39
0.528087 0.360645 3.679000 43 36 40
0.522489 0.363194 3.640000 43 36 42
0.522489 0.369566 3.640000 44 34 26
0.522489 0.375937 3.640000 40 35 10
0.517035 0.378318 3.602000 37 34 22
0.517035 0.384623 3.602000 40 36 34
0.522489 0.395053 3.640000 43 31 24
0.522489 0.401425 3.640000 40 34 14
0.522489 0.407797 3.640000 38 35 21
0.522489 0.414168 3.640000 41 38 29
0.522489 0.420540 3.640000 44 34 19
0.528087 0.431486 3.679000 43 35 10
0.528087 0.437926 3.679000 43 31 24
0.522489 0.439656 3.640000 42 34 39
0.528087 0.450806 3.679000 41 31 36
0.522489 0.452399 3.640000 43 35 34
0.522489 0.458771 3.640000 44 35 37
0.522489 0.465143 3.640000 40 36 41
0.522489 0.471515 3.640000 36 34 32
0.522489 0.477887 3.640000 40 35 23
0.522489 0.484258 3.640000 45 32 28
0.522489 0.490630 3.640000 48 32 33
0.522489 0.497002 3.640000 52 26 32
0.528087 0.508767 3.679000 47 32 32
0.522489 0.509746 3.640000 43 30 32
0.522489 0.516118 3.640000 46 30 32
0.522489 0.522489 3.640000 49 26 31
0.511724 0.517964 3.565000 45 30 30
0.511724 0.524205 3.565000 41 27 25
0.517035 0.535951 3.602000 41 28 20
0.506413 0.531116 3.528000 41 24 23
0.501389 0.531961 3.493000 40 28 27
0.501389 0.538076 3.493000 39 26 26
0.496365 0.538737 3.458000 40 27 26
0.517035 0.586393 3.602000 40 28 22
0.517035 0.592699 3.602000 38 26 24
0.517035 0.599004 3.602000 37 26 26
0.522489 0.611695 3.640000 35 27 26
0.522489 0.618067 3.640000 34 24 26
0.522489 0.624439 3.640000 32 24 22
0.522489 0.630810 3.640000 31 24 19
0.517035 0.630530 3.602000 31 24 19
0.522489 0.643554 3.640000 31 23 19
0.522489 0.649926 3.640000 31 23 18
0.522489 0.656298 3.640000 30 22 17
0.528087 0.708410 3.679000 29 26 20
0.528087 0.714850 3.679000 29 25 21
0.528087 0.721290 3.679000 29 22 20
0.533685 0.735445 3.718000 32 24 20
0.506413 0.728740 3.528000 32 25 35
0.506413 0.734916 3.528000 32 25 28
0.511724 0.748864 3.565000 33 26 34
0.506413 0.747268 3.528000 32 27 40
0.506413 0.753443 3.528000 31 30 30
0.506413 0.759619 3.528000 31 29 21
0.501389 0.758198 3.493000 31 32 23
0.501389 0.764312 3.493000 32 30 26
0.506413 0.778146 3.528000 32 33 38
0.506413 0.784322 3.528000 27 27 50
0.506413 0.790498 3.528000 23 27 38
0.506413 0.796674 3.528000 22 23 26
0.506413 0.802849 3.528000 21 25 21
0.506413 0.809025 3.528000 22 19 17
0.511724 0.823750 3.565000 23 19 19
0.511724 0.829991 3.565000 22 18 22
0.511724 0.836231 3.565000 21 23 31
0.517035 0.851216 3.602000 19 18 41
0.522489 0.866568 3.640000 18 20 35
0.517035 0.863826 3.602000 19 20 29
0.517035 0.870132 3.602000 21 24 37
0.511724 0.867434 3.565000 23 20 45
0.511724 0.873675 3.565000 25 21 34
0.506413 0.870783 3.528000 24 20 23
0.506413 0.876959 3.528000 22 25 20
0.511724 0.892396 3.565000 24 21 17
0.511724 0.898637 3.565000 25 21 21
0.511724 0.904877 3.565000 28 19 26
0.517035 0.920574 3.602000 31 17 28
0.517035 0.926879 3.602000 25 20 30
0.517035 0.933185 3.602000 20 26 38
0.517035 0.939490 3.602000 23 25 46
0.517035 0.945795 3.602000 27 26 36
0.517035 0.952101 3.602000 31 21 26
0.517035 0.958406 3.602000 36 17 24
0.511724 0.954802 3.565000 28 20 22
0.511724 0.961042 3.565000 21 20 21
0.506413 0.957244 3.528000 28 29 20
0.506413 0.963419 3.528000 36 41 30
0.558210 -0.134508 3.842000 149 68 172
0.577534 -0.097415 3.975000 240 194 208
0.577534 -0.090457 3.975000 206 202 206
0.552108 0.033260 3.800000 40 1 115
0.546151 0.039481 3.759000 42 56 114
0.546151 0.046061 3.759000 40 1 114
0.540194 0.052067 3.718000 39 53 111
0.540194 0.058575 3.718000 37 1 108
0.534527 0.064401 3.679000 36 54 103
0.534527 0.070841 3.679000 35 1 99
0.534527 0.077281 3.679000 34 50 99
0.540194 0.084609 3.718000 31 1 100
0.540194 0.091117 3.718000 28 48 97
0.552108 0.126386 3.800000 10 1 73
0.552108 0.133038 3.800000 9 43 71
0.552108 0.139690 3.800000 12 1 70
0.552108 0.146342 3.800000 15 42 70
0.552108 0.152994 3.800000 17 1 71
0.546151 0.157923 3.759000 19 40 70
0.546151 0.171083 3.759000 21 37 66
0.546151 0.177664 3.759000 21 1 64
0.546151 0.184244 3.759000 21 36 63
0.540194 0.188743 3.718000 24 1 62
0.534527 0.193203 3.679000 27 36 64
0.534527 0.199643 3.679000 28 1 67
0.528861 0.203898 3.640000 30 32 63
0.528861 0.210270 3.640000 29 1 59
0.528861 0.216642 3.640000 28 31 64
0.528861 0.223014 3.640000 28 1 69
0.528861 0.229386 3.640000 28 31 67
0.528861 0.235757 3.640000 27 1 64
0.534527 0.244724 3.679000 26 29 62
0.534527 0.251164 3.679000 28 1 59
0.534527 0.257604 3.679000 31 35 61
0.534527 0.264044 3.679000 32 30 64
0.528861 0.267617 3.640000 33 38 54
0.517964 0.268343 3.565000 32 31 45
0.523340 0.277433 3.602000 31 35 49
0.523340 0.283739 3.602000 31 31 53
0.523340 0.290044 3.602000 32 39 48
0.534527 0.302684 3.679000 30 39 43
0.528861 0.305847 3.640000 29 35 46
0.534527 0.315565 3.679000 31 42 50
0.540194 0.325418 3.718000 34 35 48
0.540194 0.331926 3.718000 39 42 47
0.540194 0.338435 3.718000 44 37 37
0.540194 0.344943 3.718000 43 40 27
0.534527 0.347765 3.679000 42 34 32
0.528861 0.350450 3.640000 42 40 36
0.528861 0.356822 3.640000 42 31 37
0.528861 0.363194 3.640000 42 37 37
0.523340 0.365707 3.602000 43 28 28
0.523340 0.372013 3.602000 36 34 19
0.517964 0.374432 3.565000 29 30 23
0.517964 0.380673 3.565000 35 39 27
0.528861 0.395053 3.640000 42 30 20
0.528861 0.401425 3.640000 36 34 14
0.528861 0.407797 3.640000 31 31 17
0.528861 0.414168 3.640000 37 41 20
0.534527 0.425046 3.679000 44 32 15
0.534527 0.431486 3.679000 43 37 10
0.534527 0.437926 3.679000 42 29 17
0.534527 0.444366 3.679000 41 35 24
0.534527 0.450806 3.679000 41 29 23
0.534527 0.457246 3.679000 41 36 22
0.528861 0.458771 3.640000 42 29 23
0.528861 0.465143 3.640000 35 34 25
0.523340 0.466592 3.602000 28 30 22
0.523340 0.472898 3.602000 35 35 19
0.528861 0.484258 3.640000 42 28 21
0.528861 0.490630 3.640000 42 30 24
0.528861 0.497002 3.640000 42 24 22
0.528861 0.503374 3.640000 39 30 20
0.528861 0.509746 3.640000 37 25 21
0.523340 0.510730 3.602000 37 26 21
0.528861 0.522489 3.640000 37 21 20
0.512588 0.512589 3.528000 35 24 18
0.512588 0.518764 3.528000 33 21 22
0.507503 0.519732 3.493000 25 25 26
0.507503 0.525847 3.493000 17 21 30
0.502418 0.526631 3.458000 24 21 35
0.497333 0.527293 3.423000 32 20 34
0.502418 0.538737 3.458000 26 22 32
0.528861 0.618067 3.640000 30 21 33
0.528861 0.624439 3.640000 28 19 32
0.523340 0.630530 3.602000 28 20 22
0.523340 0.636836 3.602000 28 22 13
0.517964 0.742624 3.565000 29 24 24
0.512588 0.741092 3.528000 27 24 23
0.512588 0.747268 3.528000 28 28 23
0.507503 0.745969 3.493000 29 26 22
0.507503 0.752083 3.493000 29 26 21
0.507503 0.758198 3.493000 29 25 21
0.507503 0.764312 3.493000 28 26 22
0.507503 0.770427 3.493000 27 24 30
0.507503 0.776541 3.493000 24 24 38
0.512588 0.790498 3.528000 21 23 31
0.512588 0.796674 3.528000 23 21 24
0.512588 0.802849 3.528000 25 20 20
0.512588 0.809025 3.528000 29 17 17
0.512588 0.815201 3.528000 34 17 18
0.512588 0.821377 3.528000 28 17 19
0.517964 0.836231 3.565000 22 18 22
0.523340 0.851216 3.602000 22 17 25
0.523340 0.857521 3.602000 22 18 24
0.517964 0.854953 3.565000 23 22 24
0.517964 0.861194 3.565000 25 21 27
0.517964 0.867434 3.565000 27 21 31
0.517964 0.873675 3.565000 30 20 27
0.512588 0.870783 3.528000 30 23 22
0.512588 0.876959 3.528000 31 22 20
0.512588 0.883134 3.528000 31 24 17
0.512588 0.889310 3.528000 32 22 21
0.517964 0.904877 3.565000 38 26 24
0.517964 0.911118 3.565000 45 19 25
0.523340 0.926879 3.602000 39 24 26
0.523340 0.933185 3.602000 34 23 29
0.523340 0.939490 3.602000 33 31 32
0.523340 0.945795 3.602000 33 25 28
0.523340 0.952101 3.602000 42 26 23
0.512588 0.938716 3.528000 51 21 22
0.512588 0.944892 3.528000 45 27 22
0.512588 0.951068 3.528000 39 25 28
0.512588 0.957244 3.528000 45 42 35
0.507503 0.953862 3.493000 51 52 39
0.507503 0.959976 3.493000 53 70 43
0.512588 0.975771 3.528000 55 61 43
0.512588 0.981947 3.528000 49 51 43
0.540968 0.064401 3.679000 120 202 162
0.558760 0.126386 3.800000 90 121 124
0.558760 0.133038 3.800000 86 153 121
0.540968 0.193203 3.679000 73 122 108
0.540968 0.199643 3.679000 72 80 105
0.535233 0.203898 3.640000 71 109 101
0.535233 0.210270 3.640000 69 71 97
0.535233 0.223014 3.640000 67 65 105
0.535233 0.229386 3.640000 66 98 101
0.535233 0.235757 3.640000 64 59 98
0.540968 0.244724 3.679000 63 82 93
0.540968 0.251164 3.679000 62 52 89
0.540968 0.257604 3.679000 62 76 81
0.540968 0.264044 3.679000 62 50 74
0.535233 0.350450 3.640000 46 19 34
0.535233 0.356822 3.640000 45 14 33
0.535233 0.363194 3.640000 45 15 33
0.529645 0.365707 3.602000 44 10 31
0.524205 0.374432 3.565000 36 15 25
0.518764 0.376722 3.528000 37 18 21
0.529645 0.390929 3.602000 38 19 17
0.529645 0.397234 3.602000 34 17 14
0.535233 0.407797 3.640000 30 17 13
0.535233 0.414168 3.640000 32 19 12
0.535233 0.420540 3.640000 35 19 11
0.540968 0.431486 3.679000 34 17 10
0.535233 0.433284 3.640000 33 14 9
0.535233 0.439656 3.640000 32 16 9
0.535233 0.446028 3.640000 31 17 9
0.535233 0.452399 3.640000 31 17 10
0.535233 0.458771 3.640000 31 14 10
0.535233 0.465143 3.640000 26 16 10
0.529645 0.466592 3.602000 22 17 12
0.529645 0.472898 3.602000 26 17 15
0.529645 0.479203 3.602000 29 18 15
0.535233 0.490630 3.640000 28 15 15
0.535233 0.497002 3.640000 28 13 12
0.535233 0.503374 3.640000 27 14 9
0.535233 0.509746 3.640000 26 14 10
0.529645 0.510730 3.602000 25 12 11
0.505972 0.518019 3.441000 15 15 38
0.498472 0.516275 3.390000 18 12 44
0.493620 0.517126 3.357000 21 12 41
0.493620 0.523002 3.357000 17 9 39
0.529645 0.630530 3.602000 21 12 25
0.529645 0.636836 3.602000 23 16 8
0.513618 0.745969 3.493000 21 21 13
0.513618 0.752083 3.493000 24 22 21
0.513618 0.758198 3.493000 28 18 20
0.513618 0.764312 3.493000 27 19 19
0.513618 0.770427 3.493000 26 16 22
0.513618 0.776541 3.493000 21 20 26
0.518764 0.790498 3.528000 17 21 24
0.518764 0.796674 3.528000 19 18 22
0.518764 0.802849 3.528000 21 18 20
0.513618 0.800999 3.493000 24 17 18
0.518764 0.815201 3.528000 27 17 17
0.518764 0.821377 3.528000 23 16 17
0.518764 0.827552 3.528000 18 15 13
0.524205 0.842472 3.565000 20 16 9
0.529645 0.857521 3.602000 21 15 14
0.524205 0.854953 3.565000 20 18 19
0.524205 0.861194 3.565000 18 18 18
0.524205 0.867434 3.565000 20 18 18
0.518764 0.864607 3.528000 23 18 20
0.518764 0.870783 3.528000 23 17 22
0.518764 0.876959 3.528000 23 17 20
0.518764 0.883134 3.528000 22 18 18
0.518764 0.889310 3.528000 21 17 20
0.518764 0.895486 3.528000 26 17 23
0.524205 0.911118 3.565000 32 12 23
0.524205 0.917358 3.565000 29 15 23
0.524205 0.923599 3.565000 27 14 21
0.524205 0.929839 3.565000 27 18 19
0.524205 0.936080 3.565000 27 17 20
0.518764 0.932540 3.528000 29 17 21
0.518764 0.938716 3.528000 32 17 21
0.518764 0.944892 3.528000 32 17 22
0.518764 0.951068 3.528000 33 13 36
0.518764 0.957244 3.528000 43 30 51
0.518764 0.963419 3.528000 53 56 48
0.518764 0.969595 3.528000 58 68 46
0.518764 0.975771 3.528000 63 78 46
0.541605 0.197527 3.640000 116 88 127
0.541605 0.223014 3.640000 106 62 123
0.547408 0.251164 3.679000 97 50 109
0.541605 0.350450 3.640000 51 1 71
0.524940 0.370546 3.528000 44 36 65
0.524940 0.376722 3.528000 39 1 63
0.535951 0.390929 3.602000 34 36 60
0.524940 0.389073 3.528000 32 1 58
0.535951 0.403539 3.602000 30 35 58
0.535951 0.409845 3.602000 28 1 58
0.541605 0.420540 3.640000 26 35 56
0.541605 0.426912 3.640000 25 1 54
0.541605 0.433284 3.640000 24 34 54
0.541605 0.439656 3.640000 22 1 54
0.541605 0.446028 3.640000 21 34 53
0.547408 0.457246 3.679000 20 1 53
0.541605 0.458771 3.640000 20 33 52
0.541605 0.465143 3.640000 18 1 52
0.535951 0.472898 3.602000 17 1 50
0.535951 0.479203 3.602000 17 31 49
0.541605 0.497002 3.640000 14 29 46
0.541605 0.503374 3.640000 14 1 44
0.541605 0.509746 3.640000 15 28 44
0.504407 0.510341 3.390000 14 26 37
0.485361 0.502492 3.262000 10 19 29
0.514525 0.750601 3.458000 27 20 26
0.514525 0.762707 3.458000 25 15 19
0.519732 0.782656 3.493000 14 17 22
0.519732 0.800999 3.493000 19 17 18
0.519732 0.807114 3.493000 21 17 16
0.519732 0.813228 3.493000 18 15 15
0.524940 0.827552 3.528000 15 16 15
0.519732 0.868259 3.493000 15 13 17
0.524940 0.883134 3.528000 12 14 13
0.524940 0.889310 3.528000 10 15 19
0.530445 0.904877 3.565000 15 13 26
0.530445 0.911118 3.565000 20 13 26
0.524940 0.951068 3.528000 27 11 39
0.524940 0.957244 3.528000 41 10 50
0.524940 0.963419 3.528000 56 47 50
0.519732 0.959976 3.493000 64 71 49
0.524940 0.975771 3.528000 72 72 52
0.505373 0.370215 3.357000 75 91 102
0.542256 0.403539 3.602000 74 124 103
0.542256 0.409845 3.602000 72 89 104
0.547977 0.420540 3.640000 71 121 101
0.547977 0.426912 3.640000 71 88 98
0.547977 0.433284 3.640000 71 123 98
0.547977 0.439656 3.640000 69 88 99
0.547977 0.446028 3.640000 68 119 97
0.486405 0.497716 3.231000 46 64 17
0.525847 0.807114 3.493000 20 19 16
0.525847 0.813228 3.493000 23 17 14
0.491131 0.863200 2.834000 42 33 39
0.491891 0.855890 2.810000 42 27 43
0.496809 0.855890 2.810000 42 27 47
0.496809 0.860809 2.810000 42 34 42
0.501728 0.855890 2.810000 46 24 52
0.500300 0.858358 2.802000 44 30 47
0.502681 0.849189 2.788000 50 43 55
0.503943 0.856213 2.795000 45 30 52
0.507561 0.849189 2.788000 57 53 58
0.507561 0.854069 2.788000 50 41 58
0.512441 -0.795504 2.788000 53 48 40
0.516485 -0.796863 2.810000 51 46 38
0.516485 -0.791944 2.810000 53 46 35
0.516485 -0.787025 2.810000 56 47 36
0.512441 -0.775983 2.788000 57 49 36
0.504170 -0.605004 2.743000 69 59 46
0.504170 -0.600203 2.743000 70 61 49
0.504170 -0.595401 2.743000 71 63 51
0.508214 -0.590496 2.765000 77 68 53
0.516485 0.846052 2.810000 83 79 72
0.512441 0.844308 2.788000 74 78 67
0.512441 0.849189 2.788000 65 63 62
0.508214 0.847023 2.765000 56 49 57
0.508214 0.851864 2.765000 47 39 51
0.504170 0.849887 2.743000 44 33 45
0.504170 0.854689 2.743000 42 34 36
0.525857 -0.892965 2.834000 44 39 18
0.525857 -0.888004 2.834000 43 39 21
0.521404 -0.875565 2.810000 43 40 17
0.521404 -0.870646 2.810000 43 41 14
0.517322 -0.858949 2.788000 44 41 19
0.513054 -0.842183 2.765000 41 41 23
0.517322 -0.805265 2.788000 47 44 25
0.517322 -0.800385 2.788000 49 46 27
0.517322 -0.795504 2.788000 48 44 29
0.521404 -0.796863 2.810000 47 45 28
0.521404 -0.791944 2.810000 49 44 27
0.521404 -0.787025 2.810000 51 47 29
0.517322 -0.775983 2.788000 51 50 31
0.508972 -0.758656 2.743000 52 54 32
0.521404 -0.772268 2.810000 53 52 33
0.521404 -0.767349 2.810000 54 53 32
0.521404 -0.762430 2.810000 55 52 32
0.517322 -0.722298 2.788000 63 61 29
0.517322 -0.717418 2.788000 62 60 31
0.517322 -0.712538 2.788000 61 62 32
0.517322 -0.707657 2.788000 60 62 34
0.508972 -0.605004 2.743000 64 62 39
0.508972 -0.600203 2.743000 68 62 44
0.508972 -0.595401 2.743000 73 66 41
0.508972 -0.590599 2.743000 73 70 38
0.508972 -0.585798 2.743000 74 75 43
0.508972 -0.580996 2.743000 73 73 49
0.505075 -0.395483 2.722000 105 100 81
0.508972 -0.393733 2.743000 110 102 83
0.508972 -0.388931 2.743000 110 103 86
0.508972 -0.384130 2.743000 111 106 85
0.521404 0.846052 2.810000 84 83 75
0.513054 0.837343 2.765000 77 78 77
0.513054 0.842183 2.765000 71 74 66
0.508972 0.840284 2.743000 61 60 56
0.508972 0.845086 2.743000 52 43 53
0.508972 0.849887 2.743000 47 35 50
0.505075 0.848145 2.722000 42 33 36
0.526323 -0.885403 2.810000 39 30 12
0.526323 -0.880484 2.810000 38 33 17
0.526323 -0.875565 2.810000 38 31 12
0.522202 -0.863830 2.788000 38 36 7
0.522202 -0.858949 2.788000 39 32 13
0.517894 -0.847023 2.765000 36 34 18
0.517894 -0.842183 2.765000 34 31 14
0.517894 -0.837343 2.765000 36 34 11
0.517894 -0.803462 2.765000 42 34 18
0.522202 -0.805265 2.788000 42 39 22
0.517894 -0.793782 2.765000 43 34 26
0.522202 -0.795504 2.788000 43 38 30
0.526323 -0.796863 2.810000 43 32 22
0.522202 -0.785744 2.788000 44 41 14
0.526323 -0.787025 2.810000 46 36 21
0.522202 -0.775983 2.788000 46 51 28
0.526323 -0.777187 2.810000 47 40 32
0.526323 -0.772268 2.810000 48 53 36
0.526323 -0.767349 2.810000 49 40 33
0.526323 -0.762430 2.810000 51 52 31
0.517894 -0.716340 2.765000 54 45 35
0.517894 -0.711499 2.765000 54 60 35
0.517894 -0.706659 2.765000 55 48 26
0.517894 -0.701819 2.765000 56 61 18
0.517894 -0.696979 2.765000 57 49 28
0.513773 -0.686632 2.743000 56 64 38
0.513773 -0.681830 2.743000 56 51 38
0.513773 -0.677029 2.743000 56 60 37
0.513773 -0.672227 2.743000 57 50 39
0.513773 -0.667425 2.743000 56 59 41
0.513773 -0.662624 2.743000 55 48 33
0.513773 -0.643417 2.743000 55 50 33
0.513773 -0.638616 2.743000 55 62 25
0.513773 -0.624211 2.743000 57 49 41
0.513773 -0.619409 2.743000 59 59 42
0.509840 -0.609902 2.722000 62 50 39
0.509840 -0.605137 2.722000 60 62 37
0.509840 -0.600373 2.722000 59 51 33
0.513773 -0.600203 2.743000 67 60 29
0.513773 -0.595401 2.743000 76 55 35
0.513773 -0.590599 2.743000 73 74 42
0.513773 -0.585798 2.743000 71 63 39
0.509840 -0.576548 2.722000 70 77 37
0.509840 -0.571783 2.722000 69 64 41
0.509840 -0.567018 2.722000 75 78 46
0.509840 -0.543194 2.722000 86 67 55
0.505907 -0.501179 2.701000 80 76 59
0.509840 -0.457427 2.722000 73 64 54
0.505907 -0.392432 2.701000 107 102 79
0.509840 -0.390719 2.722000 112 100 82
0.509840 -0.385954 2.722000 113 105 85
0.509840 -0.381189 2.722000 114 104 85
0.513773 -0.345717 2.743000 136 113 70
0.513773 -0.336113 2.743000 164 150 113
0.501973 -0.234567 2.680000 254 254 254
0.517894 0.837343 2.765000 81 79 83
0.513773 0.835482 2.743000 77 77 74
0.513773 0.840284 2.743000 67 76 66
0.513773 0.845086 2.743000 58 56 59
0.509840 0.843381 2.722000 50 31 53
0.509840 0.848145 2.722000 43 31 42
0.527083 -0.878471 2.788000 35 17 7
0.527083 -0.873591 2.788000 35 23 13
0.527083 -0.868710 2.788000 34 17 7
0.527083 -0.863830 2.788000 33 23 1
0.522734 -0.851863 2.765000 32 17 6
0.522734 -0.847023 2.765000 30 23 12
0.522734 -0.842183 2.765000 28 17 6
0.522734 -0.837343 2.765000 30 23 1
0.518575 -0.825879 2.743000 31 18 6
0.518575 -0.821077 2.743000 28 24 11
0.518575 -0.811474 2.743000 28 22 17
0.518575 -0.806672 2.743000 31 7 9
0.518575 -0.797069 2.743000 33 12 11
0.518575 -0.792268 2.743000 29 20 20
0.518575 -0.787466 2.743000 25 13 26
0.522734 -0.788942 2.765000 28 19 32
0.522734 -0.784101 2.765000 31 4 17
0.522734 -0.779261 2.765000 28 16 2
0.531242 -0.787025 2.810000 26 5 14
0.518575 -0.763458 2.743000 30 19 26
0.518575 -0.758656 2.743000 35 2 33
0.527083 -0.766222 2.788000 36 16 40
0.527083 -0.761342 2.788000 37 2 35
0.531242 -0.762430 2.810000 38 17 30
0.531242 -0.757511 2.810000 40 3 15
0.527083 -0.732059 2.788000 30 4 35
0.522734 -0.721180 2.765000 35 21 43
0.522734 -0.716340 2.765000 41 2 41
0.522734 -0.711499 2.765000 35 20 39
0.522734 -0.706659 2.765000 30 9 21
0.522734 -0.701819 2.765000 36 22 3
0.518575 -0.691433 2.743000 42 8 18
0.518575 -0.686632 2.743000 41 25 33
0.518575 -0.681830 2.743000 41 15 18
0.518575 -0.677029 2.743000 35 27 3
0.514605 -0.667081 2.722000 30 19 21
0.514605 -0.662316 2.722000 35 28 39
0.518575 -0.662624 2.743000 40 12 24
0.514605 -0.652786 2.722000 40 25 9
0.518575 -0.653021 2.743000 41 15 25
0.518575 -0.648219 2.743000 35 28 41
0.518575 -0.643417 2.743000 29 22 25
0.518575 -0.638616 2.743000 36 31 10
0.514605 -0.628962 2.722000 42 19 26
0.514605 -0.624197 2.722000 38 26 42
0.514605 -0.619432 2.722000 34 17 43
0.514605 -0.614667 2.722000 41 30 44
0.514605 -0.609902 2.722000 48 20 42
0.514605 -0.605137 2.722000 42 31 40
0.514605 -0.600373 2.722000 36 23 27
0.514605 -0.595608 2.722000 42 31 14
0.514605 -0.590843 2.722000 47 22 30
0.514605 -0.586078 2.722000 52 36 46
0.514605 -0.581313 2.722000 56 26 36
0.510635 -0.572100 2.701000 50 39 26
0.510635 -0.567372 2.701000 43 31 38
0.514605 -0.567018 2.722000 49 44 50
0.514605 -0.562254 2.722000 54 40 40
0.510635 -0.553188 2.701000 58 47 30
0.506665 -0.544195 2.680000 62 37 45
0.514605 -0.547959 2.722000 59 44 60
0.510635 -0.539003 2.701000 57 33 59
0.506665 -0.501973 2.680000 64 56 62
0.510635 -0.501179 2.701000 68 50 62
0.510635 -0.496451 2.701000 64 56 62
0.514605 -0.495546 2.722000 60 51 57
0.514605 -0.486016 2.722000 64 55 51
0.514605 -0.466956 2.722000 63 58 53
0.514605 -0.462192 2.722000 61 56 56
0.514605 -0.457427 2.722000 58 54 50
0.514605 -0.452662 2.722000 61 56 45
0.510635 -0.392432 2.701000 89 84 77
0.510635 -0.387704 2.701000 94 93 80
0.510635 -0.382976 2.701000 94 88 84
0.514605 -0.381189 2.722000 95 97 86
0.514605 -0.376424 2.722000 93 92 89
0.514605 -0.371659 2.722000 91 90 73
0.510635 -0.364064 2.701000 77 81 58
0.518575 -0.360122 2.743000 64 65 62
0.518575 -0.355320 2.743000 65 71 44
0.518575 -0.350518 2.743000 92 83 26
0.518575 -0.345717 2.743000 120 97 65
0.510635 -0.335695 2.701000 133 129 104
0.518575 -0.336113 2.743000 146 140 113
0.514605 -0.281127 2.722000 204 204 151
0.502695 -0.237384 2.659000 254 254 254
0.506665 -0.234567 2.680000 254 254 254
0.506665 -0.229876 2.680000 254 254 254
0.514605 0.829086 2.722000 80 81 83
0.514605 0.833851 2.722000 72 77 76
0.514605 0.838616 2.722000 63 77 66
0.514605 0.843381 2.722000 55 51 56
0.510635 0.841602 2.701000 48 28 49
0.510635 0.846330 2.701000 44 31 43
0.531963 -0.878471 2.788000 32 25 18
0.531963 -0.873591 2.788000 31 25 29
0.527574 -0.861544 2.765000 31 23 21
0.527574 -0.856703 2.765000 28 23 13
0.523377 -0.845085 2.743000 25 24 16
0.527574 -0.847023 2.765000 24 26 19
0.523377 -0.835482 2.743000 23 24 14
0.523377 -0.830681 2.743000 23 25 10
0.523377 -0.825879 2.743000 24 24 19
0.523377 -0.821077 2.743000 18 21 29
0.523377 -0.816276 2.743000 12 24 26
0.519370 -0.805262 2.722000 18 22 24
0.519370 -0.800497 2.722000 25 21 19
0.523377 -0.801871 2.743000 24 21 15
0.523377 -0.797069 2.743000 24 21 19
0.523377 -0.792268 2.743000 15 18 24
0.523377 -0.787466 2.743000 7 22 32
0.527574 -0.788942 2.765000 13 24 40
0.527574 -0.784101 2.765000 19 19 28
0.527574 -0.779261 2.765000 12 17 16
0.523377 -0.768259 2.743000 6 19 25
0.523377 -0.763458 2.743000 15 19 35
0.523377 -0.758656 2.743000 24 16 33
0.523377 -0.753855 2.743000 24 7 32
0.531963 -0.761342 2.788000 25 14 36
0.531963 -0.756461 2.788000 26 14 41
0.527574 -0.745380 2.765000 27 16 27
0.527574 -0.740540 2.765000 28 13 14
0.527574 -0.735700 2.765000 29 18 20
0.527574 -0.730860 2.765000 16 20 26
0.527574 -0.726020 2.765000 4 20 32
0.527574 -0.721180 2.765000 16 19 38
0.523377 -0.710640 2.743000 28 17 35
0.523377 -0.705838 2.743000 16 12 32
0.523377 -0.701037 2.743000 5 17 30
0.527574 -0.701819 2.765000 16 10 28
0.523377 -0.691433 2.743000 27 17 30
0.523377 -0.686632 2.743000 26 13 33
0.523377 -0.681830 2.743000 26 20 24
0.523377 -0.677029 2.743000 14 17 15
0.519370 -0.667081 2.722000 3 24 24
0.519370 -0.662316 2.722000 14 22 33
0.519370 -0.657551 2.722000 26 22 25
0.519370 -0.652786 2.722000 26 16 18
0.519370 -0.648021 2.722000 27 21 26
0.523377 -0.648219 2.743000 15 17 34
0.523377 -0.643417 2.743000 4 26 27
0.519370 -0.633727 2.722000 17 24 20
0.519370 -0.628962 2.722000 30 22 27
0.519370 -0.624197 2.722000 20 7 35
0.519370 -0.619432 2.722000 11 21 39
0.519370 -0.614667 2.722000 22 26 42
0.519370 -0.609902 2.722000 34 26 38
0.515363 -0.600469 2.701000 24 21 35
0.515363 -0.595741 2.701000 14 26 28
0.519370 -0.595608 2.722000 16 21 22
0.519370 -0.590843 2.722000 19 26 32
0.519370 -0.586078 2.722000 30 24 42
0.519370 -0.581313 2.722000 42 28 37
0.515363 -0.572100 2.701000 30 24 32
0.515363 -0.567372 2.701000 18 31 39
0.519370 -0.567018 2.722000 23 28 45
0.519370 -0.562254 2.722000 28 37 40
0.515363 -0.553188 2.701000 38 34 36
0.511356 -0.544195 2.680000 49 36 44
0.511356 -0.539504 2.680000 38 27 52
0.515363 -0.539003 2.701000 28 35 52
0.519370 -0.538429 2.722000 33 35 51
0.515363 -0.529547 2.701000 39 41 51
0.511356 -0.506665 2.680000 35 42 53
0.511356 -0.501973 2.680000 45 42 53
0.511356 -0.497282 2.680000 56 44 53
0.515363 -0.496451 2.701000 49 39 52
0.515363 -0.491722 2.701000 43 45 48
0.515363 -0.486994 2.701000 49 46 44
0.515363 -0.482266 2.701000 55 48 44
0.515363 -0.477538 2.701000 50 49 44
0.515363 -0.463354 2.701000 52 49 46
0.515363 -0.458626 2.701000 48 47 48
0.519370 -0.457427 2.722000 44 48 47
0.519370 -0.452662 2.722000 50 50 46
0.515363 -0.444441 2.701000 56 51 39
0.519370 -0.443132 2.722000 57 51 32
0.519370 -0.438367 2.722000 58 50 40
0.507349 -0.414258 2.659000 63 53 25
0.507349 -0.409603 2.659000 64 52 32
0.507349 -0.404948 2.659000 63 51 40
0.507349 -0.400294 2.659000 63 51 32
0.507349 -0.395639 2.659000 64 50 24
0.507349 -0.390985 2.659000 66 57 37
0.511356 -0.389381 2.680000 71 64 49
0.515363 -0.387704 2.701000 76 65 54
0.515363 -0.382976 2.701000 76 60 59
0.511356 -0.375307 2.680000 77 66 62
0.511356 -0.370616 2.680000 77 72 65
0.507349 -0.363057 2.659000 78 68 62
0.511356 -0.361233 2.680000 71 72 59
0.511356 -0.356542 2.680000 64 61 46
0.523377 -0.360122 2.743000 63 63 33
0.519370 -0.352600 2.722000 63 60 37
0.519370 -0.347835 2.722000 83 82 41
0.519370 -0.343070 2.722000 104 76 56
0.515363 -0.335695 2.701000 116 127 71
0.519370 -0.333540 2.722000 129 104 79
0.519370 -0.281127 2.722000 191 222 110
0.511356 -0.253332 2.680000 254 190 143
0.507349 -0.246693 2.659000 254 254 145
0.507349 -0.242038 2.659000 254 190 163
0.511356 -0.239258 2.680000 254 254 181
0.511356 -0.234567 2.680000 254 217 205
0.511356 -0.229876 2.680000 254 254 230
0.511356 -0.225184 2.680000 254 239 240
0.507349 0.079128 2.659000 158 154 163
0.507349 0.083782 2.659000 157 157 161
0.507349 0.088437 2.659000 155 149 160
0.507349 0.093092 2.659000 154 152 158
0.515363 0.827418 2.701000 76 76 77
0.515363 0.832146 2.701000 69 75 66
0.515363 0.836874 2.701000 61 70 55
0.511356 0.835059 2.680000 53 46 51
0.511356 0.839750 2.680000 47 32 48
0.511356 0.844441 2.680000 42 32 43
0.511356 0.849133 2.680000 40 31 38
0.507349 0.856443 2.659000 40 34 29
0.507349 0.865752 2.659000 46 33 29
0.507349 0.870407 2.659000 43 34 27
0.507349 0.875061 2.659000 41 35 30
0.532415 -0.866384 2.765000 32 28 46
0.532415 -0.861544 2.765000 32 28 35
0.532415 -0.856703 2.765000 30 28 25
0.528178 -0.845085 2.743000 29 32 25
0.528178 -0.840284 2.743000 28 30 26
0.528178 -0.835482 2.743000 27 29 23
0.528178 -0.830681 2.743000 29 29 20
0.528178 -0.825879 2.743000 32 33 33
0.528178 -0.821077 2.743000 28 29 47
0.528178 -0.816276 2.743000 25 33 39
0.524135 -0.805262 2.722000 27 30 32
0.524135 -0.800497 2.722000 29 34 30
0.524135 -0.790967 2.722000 31 33 28
0.524135 -0.786202 2.722000 26 31 28
0.524135 -0.781437 2.722000 22 36 38
0.524135 -0.776672 2.722000 25 33 49
0.528178 -0.777863 2.743000 28 33 39
0.528178 -0.773061 2.743000 27 29 30
0.528178 -0.768259 2.743000 26 35 37
0.528178 -0.763458 2.743000 29 31 44
0.528178 -0.758656 2.743000 32 36 34
0.532415 -0.759901 2.765000 35 28 24
0.532415 -0.755061 2.765000 38 34 38
0.528178 -0.744251 2.743000 36 30 53
0.528178 -0.739450 2.743000 34 34 40
0.528178 -0.734648 2.743000 37 30 27
0.528178 -0.729846 2.743000 39 32 26
0.528178 -0.725045 2.743000 31 33 26
0.528178 -0.720243 2.743000 24 39 29
0.528178 -0.715442 2.743000 32 34 33
0.528178 -0.710640 2.743000 40 35 29
0.528178 -0.705838 2.743000 32 31 26
0.528178 -0.701037 2.743000 24 39 39
0.528178 -0.696235 2.743000 29 32 53
0.528178 -0.691433 2.743000 34 39 43
