ply
format ascii 1.0
element vertex 1267
property float x
property float y
property float z
property uchar red
property uchar green
property uchar blue
end_header
1.405554 -0.932155 2.788000 102 65 30
1.405554 -0.927275 2.788000 98 64 20
1.405554 -0.922395 2.788000 100 66 11
1.405554 -0.917514 2.788000 103 66 17
1.405554 -0.912634 2.788000 104 64 23
1.405554 -0.907753 2.788000 105 62 20
1.405554 -0.902873 2.788000 105 63 17
1.405554 -0.897992 2.788000 105 63 17
1.416645 -0.900160 2.810000 108 66 17
1.416645 -0.895241 2.810000 111 69 16
1.416645 -0.890322 2.810000 107 64 15
1.405554 -0.878471 2.788000 103 60 24
1.405554 -0.873591 2.788000 100 63 34
1.393958 -0.861544 2.765000 97 62 38
1.393958 -0.856703 2.765000 100 64 43
1.393958 -0.851863 2.765000 104 65 35
1.382867 -0.840284 2.743000 106 64 28
1.382867 -0.835482 2.743000 109 64 24
1.393958 -0.837343 2.765000 104 69 20
1.393958 -0.832503 2.765000 98 71 24
1.393958 -0.827663 2.765000 102 67 28
1.393958 -0.822823 2.765000 105 68 27
1.405554 -0.824787 2.788000 101 72 26
1.405554 -0.819906 2.788000 97 74 37
1.405554 -0.815026 2.788000 103 71 48
1.405554 -0.810145 2.788000 110 69 28
1.405554 -0.805265 2.788000 109 70 9
1.405554 -0.800385 2.788000 108 69 14
1.405554 -0.795504 2.788000 111 67 20
1.393958 -0.784101 2.765000 114 64 16
1.393958 -0.779261 2.765000 111 67 12
1.405554 -0.780863 2.788000 109 67 19
1.393958 -0.769581 2.765000 107 69 26
1.405554 -0.771102 2.788000 106 70 19
1.393958 -0.759901 2.765000 109 69 13
1.405554 -0.761342 2.788000 112 69 17
1.393958 -0.750221 2.765000 113 71 22
1.393958 -0.745380 2.765000 115 70 19
1.393958 -0.740540 2.765000 113 67 17
1.393958 -0.735700 2.765000 112 67 19
1.393958 -0.730860 2.765000 112 69 21
1.405554 -0.732059 2.788000 112 69 19
1.405554 -0.727179 2.788000 112 70 17
1.405554 -0.722298 2.788000 112 73 16
1.405554 -0.717418 2.788000 112 70 15
1.405554 -0.712538 2.788000 112 69 21
1.405554 -0.707657 2.788000 113 70 27
1.405554 -0.702777 2.788000 114 71 25
1.393958 -0.692139 2.765000 113 72 23
1.393958 -0.687299 2.765000 113 70 20
1.393958 -0.682459 2.765000 112 75 17
1.393958 -0.677619 2.765000 112 78 18
1.393958 -0.672778 2.765000 108 75 20
1.393958 -0.667938 2.765000 103 79 19
1.393958 -0.663098 2.765000 111 75 18
1.393958 -0.658258 2.765000 120 70 22
1.393958 -0.653418 2.765000 116 69 26
1.393958 -0.648578 2.765000 113 68 28
1.393958 -0.643738 2.765000 114 70 30
1.405554 -0.644212 2.788000 116 76 36
1.405554 -0.639332 2.788000 110 72 42
1.405554 -0.634451 2.788000 105 72 33
1.405554 -0.629571 2.788000 110 73 24
1.416645 -0.629620 2.810000 115 74 26
1.405554 -0.619810 2.788000 116 74 28
1.405554 -0.614930 2.788000 116 74 29
1.405554 -0.610049 2.788000 115 72 30
1.405554 -0.605169 2.788000 114 74 28
1.393958 -0.595336 2.765000 115 73 26
1.393958 -0.590496 2.765000 117 71 26
1.393958 -0.585656 2.765000 119 73 27
1.393958 -0.580816 2.765000 121 75 17
1.382867 -0.571393 2.743000 117 72 7
1.393958 -0.571136 2.765000 113 69 17
1.382867 -0.561790 2.743000 115 70 27
1.382867 -0.556988 2.743000 117 67 24
1.393958 -0.556615 2.765000 116 73 21
1.382867 -0.547385 2.743000 115 78 22
1.393958 -0.546935 2.765000 115 76 23
1.393958 -0.542095 2.765000 116 74 22
1.393958 -0.537255 2.765000 116 76 21
1.393958 -0.532415 2.765000 116 78 22
1.393958 -0.527574 2.765000 115 77 24
1.393958 -0.522734 2.765000 115 76 22
1.393958 -0.517894 2.765000 117 77 21
1.393958 -0.513054 2.765000 119 76 17
1.393958 -0.508214 2.765000 117 79 14
1.393958 -0.503374 2.765000 115 83 13
1.393958 -0.498534 2.765000 114 79 12
1.393958 -0.493693 2.765000 113 76 21
1.393958 -0.488853 2.765000 117 73 30
1.393958 -0.484013 2.765000 121 69 33
1.393958 -0.479173 2.765000 122 71 37
1.393958 -0.474333 2.765000 123 73 32
1.405554 -0.473398 2.788000 125 72 27
1.405554 -0.468518 2.788000 128 71 24
1.405554 -0.463637 2.788000 123 76 21
1.405554 -0.458757 2.788000 118 79 24
1.393958 -0.450132 2.765000 118 78 27
1.393958 -0.445292 2.765000 117 77 25
1.393958 -0.440452 2.765000 117 77 23
1.393958 -0.435612 2.765000 118 75 26
1.393958 -0.430772 2.765000 120 78 30
1.393958 -0.425932 2.765000 122 79 30
1.382867 -0.417741 2.743000 121 79 30
1.393958 -0.416251 2.765000 120 80 28
1.382867 -0.408138 2.743000 120 81 26
1.382867 -0.403336 2.743000 120 80 20
1.382867 -0.398535 2.743000 120 79 14
1.382867 -0.393733 2.743000 121 80 19
1.382867 -0.388931 2.743000 120 78 25
1.382867 -0.384130 2.743000 119 78 26
1.382867 -0.379328 2.743000 119 77 27
1.382867 -0.374526 2.743000 119 78 28
1.393958 -0.372690 2.765000 119 77 30
1.393958 -0.367850 2.765000 120 76 30
1.393958 -0.363010 2.765000 123 76 31
1.393958 -0.358170 2.765000 127 77 29
1.393958 -0.353330 2.765000 126 76 28
1.405554 -0.351388 2.788000 125 76 34
1.393958 -0.343649 2.765000 120 79 41
1.393958 -0.338809 2.765000 116 80 39
1.393958 -0.333969 2.765000 117 79 37
1.393958 -0.329129 2.765000 118 80 41
1.393958 -0.324289 2.765000 120 79 45
1.393958 -0.319449 2.765000 121 78 38
1.393958 -0.314609 2.765000 123 78 32
1.393958 -0.309768 2.765000 125 76 25
1.393958 -0.304928 2.765000 123 77 19
1.393958 -0.300088 2.765000 122 78 24
1.393958 -0.295248 2.765000 124 77 30
1.393958 -0.290408 2.765000 126 77 25
1.393958 -0.285568 2.765000 123 79 20
1.393958 -0.280728 2.765000 121 80 28
1.393958 -0.275888 2.765000 121 78 36
1.393958 -0.271047 2.765000 121 77 33
1.393958 -0.266207 2.765000 122 80 30
1.393958 -0.261367 2.765000 123 81 32
1.393958 -0.256527 2.765000 123 77 34
1.393958 -0.251687 2.765000 123 76 34
1.393958 -0.246847 2.765000 122 77 34
1.393958 -0.242007 2.765000 122 79 42
1.393958 -0.237166 2.765000 123 81 51
1.393958 -0.232326 2.765000 124 84 38
1.393958 -0.227486 2.765000 123 78 26
1.393958 -0.222646 2.765000 123 75 17
1.393958 -0.217806 2.765000 123 77 9
1.393958 -0.212966 2.765000 123 80 15
1.393958 -0.208126 2.765000 120 80 21
1.393958 -0.203286 2.765000 117 79 24
1.382867 -0.196866 2.743000 119 79 28
1.382867 -0.192065 2.743000 121 78 17
1.382867 -0.187263 2.743000 120 81 7
1.382867 -0.182462 2.743000 119 84 18
1.382867 -0.177660 2.743000 121 83 30
1.382867 -0.172858 2.743000 122 82 40
1.382867 -0.168057 2.743000 123 81 51
1.382867 -0.163255 2.743000 123 80 45
1.382867 -0.158453 2.743000 120 81 39
1.382867 -0.153652 2.743000 117 80 31
1.382867 -0.148850 2.743000 121 79 23
1.382867 -0.144049 2.743000 125 81 27
1.393958 -0.140364 2.765000 128 79 31
1.393958 -0.135524 2.765000 131 79 43
1.393958 -0.130684 2.765000 125 79 55
1.382867 -0.124842 2.743000 120 82 49
1.382867 -0.120040 2.743000 122 82 43
1.382867 -0.115239 2.743000 124 84 39
1.382867 -0.110437 2.743000 125 84 36
1.382867 -0.105636 2.743000 126 84 30
1.382867 -0.100834 2.743000 129 82 25
1.382867 -0.096032 2.743000 133 84 41
1.393958 -0.091962 2.765000 130 83 57
1.393958 -0.087122 2.765000 127 85 40
1.382867 -0.081627 2.743000 126 83 23
1.382867 -0.076826 2.743000 125 80 24
1.382867 -0.072024 2.743000 125 80 26
1.382867 -0.067223 2.743000 125 82 30
1.382867 -0.062421 2.743000 125 83 35
1.382867 -0.057619 2.743000 126 85 35
1.382867 -0.052818 2.743000 126 83 36
1.382867 -0.048016 2.743000 127 84 36
1.382867 -0.043215 2.743000 128 84 37
1.382867 -0.038413 2.743000 130 84 38
1.382867 -0.033611 2.743000 125 86 39
1.382867 -0.028810 2.743000 120 89 34
1.382867 -0.024008 2.743000 128 87 30
1.393958 -0.019360 2.765000 136 87 34
1.393958 -0.014520 2.765000 132 87 39
1.382867 -0.009603 2.743000 128 88 38
1.382867 -0.004802 2.743000 126 88 38
1.382867 -0.000000 2.743000 124 88 34
1.382867 0.004802 2.743000 126 87 31
1.382867 0.009603 2.743000 128 90 38
1.393958 0.014520 2.765000 128 86 46
1.393958 0.019361 2.765000 127 87 41
1.393958 0.024201 2.765000 127 84 36
1.393958 0.029041 2.765000 126 84 26
1.393958 0.033881 2.765000 127 85 17
1.382867 0.038413 2.743000 127 86 28
1.393958 0.043561 2.765000 128 85 39
1.382867 0.048016 2.743000 128 84 36
1.382867 0.052818 2.743000 130 85 33
1.382867 0.057620 2.743000 131 86 37
1.382867 0.062421 2.743000 134 86 42
1.382867 0.067223 2.743000 137 86 40
1.382867 0.072024 2.743000 134 88 39
1.382867 0.076826 2.743000 132 90 38
1.382867 0.081628 2.743000 133 89 38
1.382867 0.086429 2.743000 134 88 33
1.382867 0.091231 2.743000 132 85 29
1.382867 0.096032 2.743000 130 85 42
1.382867 0.100834 2.743000 125 86 55
1.382867 0.105636 2.743000 120 88 49
1.382867 0.110437 2.743000 127 85 43
1.382867 0.115239 2.743000 134 83 42
1.393958 0.121003 2.765000 132 83 42
1.393958 0.125843 2.765000 131 85 29
1.393958 0.130684 2.765000 133 85 17
1.393958 0.135524 2.765000 135 87 22
1.393958 0.140364 2.765000 130 89 28
1.382867 0.144049 2.743000 125 90 28
1.382867 0.148850 2.743000 128 89 28
1.382867 0.153652 2.743000 132 89 32
1.382867 0.158454 2.743000 134 87 36
1.382867 0.163255 2.743000 137 85 49
1.382867 0.168057 2.743000 133 86 62
1.382867 0.172858 2.743000 129 87 52
1.382867 0.177660 2.743000 126 88 43
1.382867 0.182462 2.743000 123 89 40
1.382867 0.187263 2.743000 128 88 37
1.382867 0.192065 2.743000 133 86 36
1.382867 0.196866 2.743000 132 85 35
1.393958 0.203286 2.765000 130 86 38
1.382867 0.206470 2.743000 132 86 42
1.382867 0.211271 2.743000 135 86 39
1.382867 0.216073 2.743000 134 87 36
1.393958 0.222646 2.765000 133 86 40
1.382867 0.225676 2.743000 136 86 44
1.382867 0.230478 2.743000 139 86 41
1.382867 0.235280 2.743000 132 86 39
1.393958 0.242007 2.765000 125 87 30
1.393958 0.246847 2.765000 130 85 21
1.393958 0.251687 2.765000 136 85 31
1.393958 0.256527 2.765000 133 87 41
1.382867 0.259288 2.743000 131 88 45
1.382867 0.264089 2.743000 130 84 49
1.382867 0.268891 2.743000 130 82 49
1.382867 0.273693 2.743000 131 84 50
1.372280 0.276362 2.722000 131 87 46
1.382867 0.283296 2.743000 130 87 43
1.382867 0.288097 2.743000 129 87 40
1.382867 0.292899 2.743000 131 88 37
1.382867 0.297701 2.743000 133 89 41
1.382867 0.302502 2.743000 132 88 46
1.382867 0.307304 2.743000 132 87 45
1.382867 0.312105 2.743000 131 88 45
1.382867 0.316907 2.743000 130 89 46
1.382867 0.321709 2.743000 130 89 47
1.382867 0.326510 2.743000 130 90 43
1.382867 0.331312 2.743000 128 91 39
1.382867 0.336114 2.743000 126 91 32
1.372280 0.338305 2.722000 128 90 25
1.372280 0.343070 2.722000 130 90 32
1.372280 0.347835 2.722000 130 87 39
1.372280 0.352600 2.722000 131 86 40
1.372280 0.357365 2.722000 129 83 42
1.372280 0.362130 2.722000 127 81 44
1.372280 0.366894 2.722000 131 82 46
1.382867 0.374527 2.743000 134 82 45
1.382867 0.379328 2.743000 131 83 44
1.382867 0.384130 2.743000 128 85 36
1.382867 0.388931 2.743000 125 85 29
1.382867 0.393733 2.743000 121 85 35
1.382867 0.398535 2.743000 124 83 41
1.382867 0.403336 2.743000 127 82 33
1.382867 0.408138 2.743000 128 83 25
1.382867 0.412939 2.743000 129 86 29
1.382867 0.417741 2.743000 129 86 33
1.382867 0.422543 2.743000 129 86 23
1.382867 0.427344 2.743000 128 84 14
1.372280 0.428838 2.722000 128 85 22
1.372280 0.433602 2.722000 129 86 31
1.372280 0.438367 2.722000 130 86 37
1.372280 0.443132 2.722000 131 86 44
1.382867 0.451353 2.743000 131 89 43
1.382867 0.456154 2.743000 128 87 42
1.382867 0.460956 2.743000 125 88 44
1.382867 0.465757 2.743000 125 89 46
1.382867 0.470559 2.743000 125 90 53
1.382867 0.475361 2.743000 126 88 61
1.382867 0.480162 2.743000 126 87 55
1.382867 0.484964 2.743000 130 88 50
1.382867 0.489765 2.743000 133 89 48
1.382867 0.494567 2.743000 132 86 46
1.382867 0.499369 2.743000 131 85 40
1.382867 0.504170 2.743000 131 85 35
1.382867 0.508972 2.743000 131 88 42
1.382867 0.513774 2.743000 127 87 49
1.372280 0.514605 2.722000 124 87 35
1.372280 0.519370 2.722000 126 87 21
1.372280 0.524135 2.722000 129 87 30
1.372280 0.528900 2.722000 129 88 39
1.372280 0.533665 2.722000 130 88 28
1.372280 0.538429 2.722000 134 87 18
1.372280 0.543194 2.722000 138 86 40
1.382867 0.552187 2.743000 134 85 62
1.382867 0.556988 2.743000 130 86 55
1.382867 0.561790 2.743000 130 86 48
1.382867 0.566592 2.743000 131 85 50
1.372280 0.567019 2.722000 129 83 53
1.372280 0.571783 2.722000 128 79 52
1.372280 0.576548 2.722000 128 92 51
1.361693 0.576828 2.701000 129 99 49
1.372280 0.586078 2.722000 127 94 48
1.372280 0.590843 2.722000 126 93 47
1.372280 0.595608 2.722000 128 90 46
1.372280 0.600373 2.722000 131 88 47
1.372280 0.605137 2.722000 134 89 48
1.372280 0.609902 2.722000 138 93 55
1.382867 0.619409 2.743000 93 85 62
1.382867 0.624211 2.743000 48 70 33
1.382867 0.629013 2.743000 30 20 4
1.382867 0.633814 2.743000 13 7 7
1.382867 0.638616 2.743000 22 18 11
1.382867 0.643417 2.743000 32 30 11
1.382867 0.648219 2.743000 22 25 11
1.116679 0.690170 2.215000 132 111 97
1.109621 0.689660 2.201000 131 111 99
1.109621 0.693513 2.201000 131 112 97
1.102563 0.692930 2.187000 132 108 96
1.096009 0.692617 2.174000 134 106 96
1.088951 0.691938 2.160000 138 116 97
1.075339 0.687022 2.133000 143 117 100
1.068785 0.686546 2.120000 140 113 104
1.056182 0.682117 2.095000 137 112 104
1.049628 0.681529 2.082000 140 115 105
1.043074 0.680896 2.069000 144 119 106
1.037024 0.680547 2.057000 140 114 107
1.030975 0.680157 2.045000 136 106 108
1.024925 0.679725 2.033000 135 111 109
1.018875 0.679250 2.021000 135 113 112
1.007280 0.675017 1.998000 135 113 115
1.001230 0.674440 1.986000 136 115 115
1.001230 0.677916 1.986000 134 112 115
0.995685 0.677619 1.975000 133 108 114
0.984089 0.673144 1.952000 138 115 113
0.978544 0.672749 1.941000 143 115 111
0.973502 0.672663 1.931000 141 117 110
0.957370 0.664840 1.899000 139 119 110
0.951824 0.664294 1.888000 138 120 110
0.946783 0.664063 1.878000 138 122 114
0.941741 0.663797 1.868000 138 122 118
0.941741 0.667067 1.868000 139 121 114
0.936700 0.666748 1.858000 138 121 111
0.936700 0.670000 1.858000 137 122 113
0.931658 0.669629 1.848000 136 121 115
0.917038 0.662305 1.819000 134 122 107
0.911997 0.661831 1.809000 136 122 100
0.907459 0.661689 1.800000 137 122 107
0.902418 0.661146 1.790000 140 121 114
0.897880 0.660940 1.781000 143 122 118
0.893343 0.660702 1.772000 145 125 122
0.888806 0.660432 1.763000 148 126 122
0.879731 0.656744 1.745000 146 123 123
0.879731 0.659799 1.745000 145 125 122
0.875194 0.659435 1.736000 146 122 122
0.871161 0.659420 1.728000 148 109 118
0.866624 0.658995 1.719000 143 126 114
0.862590 0.658923 1.711000 139 132 124
0.862590 0.661918 1.711000 142 126 134
0.858053 0.661416 1.702000 145 117 131
0.854020 0.661273 1.694000 148 124 129
0.845450 0.657572 1.677000 152 127 125
0.837383 0.654206 1.661000 154 126 122
0.833350 0.653948 1.653000 157 126 121
0.829317 0.653663 1.645000 147 125 120
0.825788 0.653749 1.638000 137 126 115
0.821755 0.653409 1.630000 140 125 110
0.814193 0.650223 1.615000 144 128 116
0.810159 0.649815 1.607000 142 128 122
0.806630 0.649786 1.600000 139 130 123
0.802597 0.649324 1.592000 145 129 124
0.799068 0.649243 1.585000 150 126 122
0.799068 0.652018 1.585000 146 127 120
0.795539 0.651900 1.578000 142 131 121
0.795539 0.654663 1.578000 145 125 122
0.792010 0.654509 1.571000 148 115 123
0.787977 0.653912 1.563000 148 123 125
1.410434 -1.000481 2.788000 103 65 20
1.410434 -0.995600 2.788000 105 65 17
1.410434 -0.990720 2.788000 102 66 14
1.410434 -0.985840 2.788000 99 70 15
1.410434 -0.980959 2.788000 95 72 17
1.421564 -0.983781 2.810000 92 71 19
1.421564 -0.978862 2.810000 95 73 22
1.410434 -0.966318 2.788000 99 68 18
1.410434 -0.961438 2.788000 101 65 15
1.410434 -0.956557 2.788000 103 66 19
1.410434 -0.951677 2.788000 102 70 23
1.410434 -0.946797 2.788000 102 69 18
1.421564 -0.949349 2.810000 102 69 14
1.410434 -0.937036 2.788000 102 69 18
1.398798 -0.924465 2.765000 97 66 22
1.398798 -0.919625 2.765000 92 64 18
1.398798 -0.914785 2.765000 97 68 14
1.410434 -0.917514 2.788000 102 67 16
1.410434 -0.912634 2.788000 102 65 18
1.410434 -0.907753 2.788000 103 66 16
1.410434 -0.902873 2.788000 101 68 14
1.410434 -0.897992 2.788000 100 66 13
1.410434 -0.893112 2.788000 102 71 13
1.421564 -0.895241 2.810000 104 71 16
1.410434 -0.883351 2.788000 103 67 20
1.410434 -0.878471 2.788000 103 63 26
1.410434 -0.873591 2.788000 103 63 32
1.398798 -0.861544 2.765000 104 64 28
1.398798 -0.856703 2.765000 104 64 24
1.398798 -0.851863 2.765000 104 66 24
1.387669 -0.840284 2.743000 105 67 24
1.387669 -0.835482 2.743000 106 67 20
1.387669 -0.830681 2.743000 105 72 16
1.398798 -0.832503 2.765000 104 67 19
1.398798 -0.827663 2.765000 106 62 23
1.398798 -0.822823 2.765000 109 67 20
1.398798 -0.817982 2.765000 105 74 17
1.398798 -0.813142 2.765000 101 72 25
1.398798 -0.808302 2.765000 105 72 33
1.398798 -0.803462 2.765000 109 72 22
1.410434 -0.805265 2.788000 108 72 12
1.398798 -0.793782 2.765000 108 71 15
1.398798 -0.788942 2.765000 113 67 18
1.398798 -0.784101 2.765000 118 66 14
1.398798 -0.779261 2.765000 114 67 10
1.398798 -0.774421 2.765000 111 68 17
1.398798 -0.769581 2.765000 107 68 24
1.398798 -0.764741 2.765000 104 70 21
1.398798 -0.759901 2.765000 108 69 17
1.398798 -0.755061 2.765000 113 70 24
1.398798 -0.750221 2.765000 116 72 30
1.398798 -0.745380 2.765000 120 69 25
1.398798 -0.740540 2.765000 115 64 21
1.398798 -0.735700 2.765000 111 68 26
1.387669 -0.725045 2.743000 110 74 32
1.398798 -0.726020 2.765000 110 71 25
1.398798 -0.721180 2.765000 107 71 18
1.387669 -0.710640 2.743000 104 70 18
1.398798 -0.711499 2.765000 109 68 18
1.398798 -0.706659 2.765000 114 69 20
1.398798 -0.701819 2.765000 112 73 22
1.398798 -0.696979 2.765000 110 73 21
1.398798 -0.692139 2.765000 111 76 20
1.398798 -0.687299 2.765000 112 74 18
1.387669 -0.677029 2.743000 109 79 15
1.387669 -0.672227 2.743000 107 78 17
1.387669 -0.667425 2.743000 102 79 19
1.387669 -0.662624 2.743000 98 77 18
1.387669 -0.657822 2.743000 112 76 18
1.387669 -0.653021 2.743000 127 72 20
1.387669 -0.648219 2.743000 121 68 23
1.387669 -0.643417 2.743000 115 66 23
1.398798 -0.643738 2.765000 114 65 23
1.398798 -0.638897 2.765000 113 71 30
1.410434 -0.639332 2.788000 105 73 38
1.410434 -0.634451 2.788000 97 72 31
1.410434 -0.629571 2.788000 105 74 24
1.410434 -0.624690 2.788000 113 74 30
1.398798 -0.614697 2.765000 113 74 36
1.398798 -0.609857 2.765000 114 73 28
1.398798 -0.605017 2.765000 112 69 20
1.398798 -0.600176 2.765000 111 75 24
1.398798 -0.595336 2.765000 114 77 28
1.398798 -0.590496 2.765000 117 73 32
1.398798 -0.585656 2.765000 121 72 37
1.387669 -0.576195 2.743000 126 73 27
1.387669 -0.571393 2.743000 117 73 18
1.387669 -0.566591 2.743000 108 70 28
1.387669 -0.561790 2.743000 112 69 38
1.387669 -0.556988 2.743000 116 72 24
1.387669 -0.552186 2.743000 111 77 11
1.387669 -0.547385 2.743000 107 78 17
1.387669 -0.542583 2.743000 111 78 23
1.387669 -0.537782 2.743000 115 76 22
1.387669 -0.532980 2.743000 115 77 22
1.387669 -0.528178 2.743000 116 78 22
1.387669 -0.523377 2.743000 116 80 22
1.387669 -0.518575 2.743000 116 78 21
1.387669 -0.513774 2.743000 116 79 21
1.387669 -0.508972 2.743000 117 78 20
1.387669 -0.504170 2.743000 116 79 19
1.398798 -0.503374 2.765000 116 80 18
1.387669 -0.494567 2.743000 116 79 18
1.387669 -0.489765 2.743000 117 76 23
1.387669 -0.484964 2.743000 118 76 28
1.398798 -0.484013 2.765000 119 72 31
1.398798 -0.479173 2.765000 121 74 35
1.398798 -0.474333 2.765000 123 75 31
1.398798 -0.469493 2.765000 128 76 28
1.398798 -0.464653 2.765000 133 77 26
1.398798 -0.459813 2.765000 127 79 25
1.398798 -0.454972 2.765000 122 79 24
1.398798 -0.450132 2.765000 120 79 23
1.398798 -0.445292 2.765000 119 78 21
1.398798 -0.440452 2.765000 119 78 20
1.398798 -0.435612 2.765000 119 78 23
1.387669 -0.427344 2.743000 121 80 27
1.387669 -0.422543 2.743000 124 79 27
1.387669 -0.417741 2.743000 122 78 26
1.387669 -0.412939 2.743000 120 80 28
1.387669 -0.408138 2.743000 120 82 29
1.387669 -0.403336 2.743000 121 81 27
1.387669 -0.398535 2.743000 120 80 26
1.387669 -0.393733 2.743000 120 80 25
1.387669 -0.388931 2.743000 120 78 25
1.387669 -0.384130 2.743000 120 78 22
1.387669 -0.379328 2.743000 124 78 19
1.387669 -0.374526 2.743000 129 77 24
1.387669 -0.369725 2.743000 125 79 28
1.387669 -0.364923 2.743000 122 78 26
1.398798 -0.363010 2.765000 130 77 23
1.398798 -0.358170 2.765000 138 75 27
1.398798 -0.353330 2.765000 132 73 32
1.398798 -0.348489 2.765000 126 76 40
1.398798 -0.343649 2.765000 118 80 49
1.398798 -0.338809 2.765000 111 79 44
1.398798 -0.333969 2.765000 115 78 38
1.387669 -0.326510 2.743000 119 79 40
1.387669 -0.321709 2.743000 120 80 42
1.387669 -0.316907 2.743000 121 79 35
1.398798 -0.314609 2.765000 124 79 29
1.387669 -0.307304 2.743000 128 77 25
1.398798 -0.304928 2.765000 126 77 22
1.387669 -0.297700 2.743000 124 79 26
1.387669 -0.292899 2.743000 124 80 31
1.398798 -0.290408 2.765000 124 78 29
1.387669 -0.283296 2.743000 123 78 27
1.387669 -0.278494 2.743000 123 77 30
1.387669 -0.273692 2.743000 122 75 34
1.387669 -0.268891 2.743000 121 77 29
1.387669 -0.264089 2.743000 121 82 24
1.387669 -0.259288 2.743000 122 80 28
1.387669 -0.254486 2.743000 122 79 32
1.387669 -0.249684 2.743000 122 77 33
1.387669 -0.244883 2.743000 122 76 35
1.387669 -0.240081 2.743000 123 80 36
1.387669 -0.235279 2.743000 128 84 37
1.398798 -0.232326 2.765000 133 81 32
1.398798 -0.227486 2.765000 129 76 26
1.387669 -0.220875 2.743000 125 76 23
1.387669 -0.216073 2.743000 124 78 19
1.387669 -0.211271 2.743000 124 79 21
1.387669 -0.206470 2.743000 123 79 23
1.387669 -0.201668 2.743000 122 80 24
1.387669 -0.196866 2.743000 121 79 26
1.387669 -0.192065 2.743000 120 80 22
1.387669 -0.187263 2.743000 116 82 18
1.387669 -0.182462 2.743000 112 82 22
1.387669 -0.177660 2.743000 117 82 25
1.387669 -0.172858 2.743000 122 81 33
1.387669 -0.168057 2.743000 121 81 40
1.387669 -0.163255 2.743000 121 82 37
1.387669 -0.158453 2.743000 117 83 35
1.387669 -0.153652 2.743000 113 81 30
1.387669 -0.148850 2.743000 118 79 25
1.387669 -0.144049 2.743000 124 79 28
1.387669 -0.139247 2.743000 129 78 30
1.387669 -0.134445 2.743000 134 77 36
1.387669 -0.129644 2.743000 124 77 42
1.387669 -0.124842 2.743000 114 79 42
1.387669 -0.120040 2.743000 119 80 41
1.387669 -0.115239 2.743000 124 82 41
1.387669 -0.110437 2.743000 125 84 42
1.387669 -0.105636 2.743000 126 82 28
1.387669 -0.100834 2.743000 128 79 15
1.387669 -0.096032 2.743000 131 80 29
1.387669 -0.091231 2.743000 129 78 44
1.387669 -0.086429 2.743000 127 81 30
1.387669 -0.081627 2.743000 126 82 16
1.387669 -0.076826 2.743000 125 81 23
1.387669 -0.072024 2.743000 128 80 29
1.387669 -0.067223 2.743000 131 81 36
1.387669 -0.062421 2.743000 129 82 44
1.387669 -0.057619 2.743000 128 82 41
1.387669 -0.052818 2.743000 127 81 39
1.387669 -0.048016 2.743000 127 83 35
1.387669 -0.043215 2.743000 127 83 32
1.387669 -0.038413 2.743000 127 85 27
1.387669 -0.033611 2.743000 126 87 23
1.387669 -0.028810 2.743000 125 87 26
1.387669 -0.024008 2.743000 128 86 30
1.387669 -0.019206 2.743000 131 85 34
1.387669 -0.014405 2.743000 128 86 38
1.387669 -0.009603 2.743000 126 87 37
1.387669 -0.004802 2.743000 123 88 36
1.387669 -0.000000 2.743000 120 86 29
1.387669 0.004802 2.743000 123 85 22
1.387669 0.009603 2.743000 127 86 30
1.398798 0.014520 2.765000 127 86 39
1.398798 0.019361 2.765000 127 84 37
1.387669 0.024008 2.743000 126 84 36
1.398798 0.029041 2.765000 126 85 29
1.398798 0.033881 2.765000 126 88 23
1.398798 0.038721 2.765000 127 86 29
1.398798 0.043561 2.765000 127 84 34
1.387669 0.048016 2.743000 127 84 32
1.387669 0.052818 2.743000 129 85 29
1.387669 0.057620 2.743000 131 86 32
1.387669 0.062421 2.743000 131 87 35
1.387669 0.067223 2.743000 132 87 29
1.387669 0.072024 2.743000 132 88 24
1.387669 0.076826 2.743000 132 90 28
1.387669 0.081628 2.743000 132 91 32
1.387669 0.086429 2.743000 133 89 29
1.387669 0.091231 2.743000 130 87 27
1.387669 0.096032 2.743000 128 87 37
1.387669 0.100834 2.743000 121 88 48
1.387669 0.105636 2.743000 115 86 46
1.387669 0.110437 2.743000 122 85 44
1.387669 0.115239 2.743000 129 83 42
1.387669 0.120041 2.743000 129 81 40
1.387669 0.124842 2.743000 129 83 33
1.387669 0.129644 2.743000 129 80 26
1.387669 0.134445 2.743000 129 85 29
1.387669 0.139247 2.743000 129 90 32
1.387669 0.144049 2.743000 129 89 27
1.387669 0.148850 2.743000 130 90 22
1.387669 0.153652 2.743000 131 89 27
1.387669 0.158454 2.743000 131 89 32
1.387669 0.163255 2.743000 132 87 36
1.387669 0.168057 2.743000 129 88 41
1.387669 0.172858 2.743000 127 88 38
1.387669 0.177660 2.743000 123 89 34
1.387669 0.182462 2.743000 119 88 33
1.387669 0.187263 2.743000 124 89 31
1.387669 0.192065 2.743000 130 87 25
1.387669 0.196866 2.743000 130 85 20
1.387669 0.201668 2.743000 131 86 28
1.387669 0.206470 2.743000 132 86 37
1.387669 0.211271 2.743000 133 87 31
1.387669 0.216073 2.743000 133 88 26
1.387669 0.220875 2.743000 134 88 31
1.387669 0.225676 2.743000 133 89 37
1.387669 0.230478 2.743000 132 86 39
1.387669 0.235280 2.743000 130 87 42
1.398798 0.242007 2.765000 128 86 37
1.398798 0.246847 2.765000 128 86 31
1.398798 0.251687 2.765000 128 86 37
1.398798 0.256527 2.765000 129 87 42
1.387669 0.259288 2.743000 130 86 47
1.387669 0.264089 2.743000 129 83 51
1.387669 0.268891 2.743000 128 84 50
1.377045 0.271597 2.722000 129 84 48
1.377045 0.276362 2.722000 130 87 45
1.377045 0.281127 2.722000 130 88 42
1.377045 0.285892 2.722000 131 88 34
1.377045 0.290657 2.722000 131 90 26
1.377045 0.295422 2.722000 131 90 33
1.387669 0.302502 2.743000 130 90 40
1.377045 0.304951 2.722000 130 89 42
1.387669 0.312105 2.743000 128 90 43
1.387669 0.316907 2.743000 127 91 43
1.387669 0.321709 2.743000 128 92 43
1.387669 0.326510 2.743000 130 91 40
1.387669 0.331312 2.743000 127 91 37
1.377045 0.333540 2.722000 124 90 31
1.377045 0.338305 2.722000 127 90 25
1.377045 0.343070 2.722000 130 90 34
1.377045 0.347835 2.722000 130 87 42
1.377045 0.352600 2.722000 130 86 43
1.377045 0.357365 2.722000 127 87 45
1.377045 0.362130 2.722000 124 84 45
1.377045 0.366894 2.722000 130 82 45
1.377045 0.371659 2.722000 137 83 42
1.377045 0.376424 2.722000 132 83 40
1.377045 0.381189 2.722000 128 86 30
1.377045 0.385954 2.722000 123 89 19
1.377045 0.390719 2.722000 119 87 30
1.377045 0.395484 2.722000 122 84 41
1.377045 0.400248 2.722000 126 83 38
1.377045 0.405013 2.722000 127 83 35
1.377045 0.409778 2.722000 129 86 38
1.377045 0.414543 2.722000 127 88 41
1.377045 0.419308 2.722000 126 86 39
1.377045 0.424073 2.722000 120 83 38
1.377045 0.428838 2.722000 115 86 38
1.377045 0.433602 2.722000 121 89 38
1.377045 0.438367 2.722000 128 88 41
1.377045 0.443132 2.722000 130 86 44
1.377045 0.447897 2.722000 132 87 40
1.377045 0.452662 2.722000 130 86 36
1.377045 0.457427 2.722000 128 88 40
1.387669 0.465757 2.743000 127 89 45
1.387669 0.470559 2.743000 127 90 47
1.387669 0.475361 2.743000 129 90 49
1.387669 0.480162 2.743000 132 91 48
1.387669 0.484964 2.743000 131 97 48
1.387669 0.489765 2.743000 130 88 49
1.387669 0.494567 2.743000 130 86 49
1.387669 0.499369 2.743000 131 85 37
1.377045 0.500311 2.722000 132 87 25
1.377045 0.505075 2.722000 134 89 32
1.377045 0.509840 2.722000 130 88 39
1.377045 0.514605 2.722000 126 87 34
1.377045 0.519370 2.722000 127 86 29
1.377045 0.524135 2.722000 129 86 36
1.377045 0.528900 2.722000 130 88 42
1.377045 0.533665 2.722000 132 88 37
1.377045 0.538429 2.722000 138 88 32
1.377045 0.543194 2.722000 144 86 43
1.377045 0.547959 2.722000 137 85 55
1.377045 0.552724 2.722000 130 86 52
1.387669 0.561790 2.743000 130 88 49
1.377045 0.562254 2.722000 130 86 54
1.377045 0.567019 2.722000 127 85 58
1.377045 0.571783 2.722000 124 89 54
1.377045 0.576548 2.722000 126 99 51
1.366421 0.576828 2.701000 128 95 48
1.377045 0.586078 2.722000 128 95 46
1.366421 0.586285 2.701000 128 93 46
1.366421 0.591013 2.701000 130 89 46
1.366421 0.595741 2.701000 133 89 48
1.377045 0.605137 2.722000 139 89 51
1.366421 0.605197 2.701000 146 92 56
1.377045 0.614667 2.722000 109 93 61
1.377045 0.619432 2.722000 73 60 34
1.377045 0.624197 2.722000 38 5 8
1.377045 0.628962 2.722000 4 9 7
1.377045 0.633727 2.722000 22 19 6
1.377045 0.638492 2.722000 41 25 7
1.387669 0.648219 2.743000 27 26 9
1.106391 0.685274 2.187000 132 113 98
1.106391 0.689102 2.187000 130 113 98
1.106391 0.692930 2.187000 129 110 98
1.099815 0.692617 2.174000 129 110 98
1.092732 0.691938 2.160000 131 121 98
1.079073 0.687022 2.133000 134 115 101
1.072496 0.686546 2.120000 134 109 103
1.059849 0.682117 2.095000 134 112 104
1.053272 0.681529 2.082000 137 114 106
1.053272 0.685174 2.082000 140 115 106
1.040625 0.680547 2.057000 138 113 106
1.034554 0.680157 2.045000 136 110 106
1.022413 0.675712 2.021000 136 107 107
1.016342 0.675217 2.009000 137 111 110
1.010777 0.675017 1.998000 140 111 114
1.004707 0.674440 1.986000 144 112 117
0.999142 0.674161 1.975000 140 112 121
0.999142 0.677619 1.975000 137 114 110
0.987506 0.673144 1.952000 141 119 100
0.981941 0.672749 1.941000 146 117 104
0.976882 0.672663 1.931000 142 118 108
0.960694 0.664840 1.899000 139 119 106
0.960694 0.668164 1.899000 138 120 105
0.955129 0.667599 1.888000 137 119 112
0.945011 0.663797 1.868000 138 122 119
0.945011 0.667067 1.868000 139 121 115
0.939952 0.666748 1.858000 138 120 111
0.939952 0.670000 1.858000 138 121 115
0.934893 0.669629 1.848000 136 121 120
0.929834 0.669223 1.838000 135 122 112
0.915163 0.661831 1.809000 136 124 104
0.905551 0.658013 1.790000 137 122 109
0.905551 0.661146 1.790000 140 121 113
0.900998 0.660940 1.781000 143 124 117
0.896445 0.660702 1.772000 148 130 122
0.891892 0.660432 1.763000 153 126 122
0.882786 0.656744 1.745000 150 124 122
0.878233 0.656396 1.736000 147 126 122
0.874186 0.656396 1.728000 150 128 122
0.874186 0.659420 1.728000 153 121 120
0.869633 0.658995 1.719000 144 133 118
0.865586 0.658923 1.711000 136 130 124
0.861032 0.658437 1.702000 139 133 130
0.856985 0.658307 1.694000 142 126 128
0.852938 0.658150 1.686000 147 125 127
0.848385 0.657572 1.677000 153 125 123
0.840291 0.654206 1.661000 157 124 120
0.836244 0.653948 1.653000 162 125 120
0.832197 0.653663 1.645000 147 125 120
0.828655 0.653749 1.638000 133 124 116
0.824608 0.653409 1.630000 140 126 112
0.824608 0.656263 1.630000 147 127 117
0.817020 0.653050 1.615000 145 125 123
0.809431 0.649786 1.600000 143 126 126
0.805384 0.649324 1.592000 144 126 129
0.801843 0.649243 1.585000 146 126 122
0.801843 0.652018 1.585000 142 126 115
0.798302 0.651900 1.578000 138 129 118
0.798302 0.654663 1.578000 143 129 121
0.794760 0.654509 1.571000 148 125 122
0.787172 0.650983 1.556000 148 129 124
1.415314 -1.000481 2.788000 98 66 21
1.415314 -0.995600 2.788000 97 67 18
1.415314 -0.990720 2.788000 97 69 15
1.415314 -0.985840 2.788000 97 74 14
1.415314 -0.980959 2.788000 97 73 13
1.415314 -0.976079 2.788000 96 74 7
1.415314 -0.971198 2.788000 99 71 2
1.415314 -0.966318 2.788000 102 69 5
1.415314 -0.961438 2.788000 105 66 9
1.415314 -0.956557 2.788000 107 67 14
1.403639 -0.943826 2.765000 103 69 20
1.403639 -0.938986 2.765000 99 71 15
1.415314 -0.941916 2.788000 104 68 11
1.415314 -0.937036 2.788000 108 71 13
1.403639 -0.924465 2.765000 103 65 15
1.403639 -0.919625 2.765000 97 60 16
1.403639 -0.914785 2.765000 99 67 18
1.403639 -0.909945 2.765000 101 71 16
1.403639 -0.905105 2.765000 102 70 14
1.415314 -0.907753 2.788000 104 72 13
1.403639 -0.895425 2.765000 102 68 12
1.403639 -0.890584 2.765000 101 65 10
1.415314 -0.893112 2.788000 101 67 9
1.415314 -0.888232 2.788000 102 78 17
1.415314 -0.883351 2.788000 99 69 26
1.415314 -0.878471 2.788000 97 62 28
1.415314 -0.873591 2.788000 101 64 30
1.403639 -0.861544 2.765000 105 67 18
1.415314 -0.863830 2.788000 104 66 6
1.403639 -0.851863 2.765000 104 69 13
1.392470 -0.840284 2.743000 105 66 20
1.392470 -0.835482 2.743000 106 66 16
1.392470 -0.830681 2.743000 105 67 12
1.392470 -0.825879 2.743000 105 65 15
1.392470 -0.821077 2.743000 107 65 19
1.392470 -0.816276 2.743000 108 66 14
1.403639 -0.817982 2.765000 105 71 9
1.403639 -0.813142 2.765000 102 71 13
1.415314 -0.815026 2.788000 107 73 18
1.415314 -0.810145 2.788000 112 75 17
1.415314 -0.805265 2.788000 106 73 16
1.403639 -0.793782 2.765000 101 76 16
1.403639 -0.788942 2.765000 107 71 17
1.403639 -0.784101 2.765000 113 67 13
1.403639 -0.779261 2.765000 111 68 9
1.403639 -0.774421 2.765000 110 70 16
1.392470 -0.763458 2.743000 109 70 23
1.403639 -0.764741 2.765000 108 73 22
1.392470 -0.753855 2.743000 110 70 22
1.392470 -0.749053 2.743000 111 72 30
1.392470 -0.744251 2.743000 112 71 39
1.392470 -0.739450 2.743000 114 70 32
1.392470 -0.734648 2.743000 108 68 25
1.392470 -0.729846 2.743000 102 69 34
1.392470 -0.725045 2.743000 107 71 43
1.392470 -0.720243 2.743000 112 72 31
1.392470 -0.715442 2.743000 109 70 20
1.392470 -0.710640 2.743000 106 71 20
1.392470 -0.705838 2.743000 113 68 21
1.403639 -0.706659 2.765000 120 67 19
1.392470 -0.696235 2.743000 112 70 17
1.403639 -0.696979 2.765000 104 73 17
1.403639 -0.692139 2.765000 109 74 18
1.392470 -0.681830 2.743000 114 72 16
1.392470 -0.677029 2.743000 112 76 14
1.392470 -0.672227 2.743000 109 78 16
1.392470 -0.667425 2.743000 107 76 19
1.392470 -0.662624 2.743000 105 76 18
1.392470 -0.657822 2.743000 112 76 18
1.392470 -0.653021 2.743000 120 75 19
1.392470 -0.648219 2.743000 116 69 21
1.392470 -0.643417 2.743000 112 64 19
1.403639 -0.643738 2.765000 114 67 17
1.403639 -0.638897 2.765000 117 71 25
1.403639 -0.634057 2.765000 110 70 34
1.403639 -0.629217 2.765000 104 72 29
1.403639 -0.624377 2.765000 108 75 24
1.403639 -0.619537 2.765000 112 76 34
1.403639 -0.614697 2.765000 112 76 45
1.403639 -0.609857 2.765000 113 75 28
1.392470 -0.600203 2.743000 111 75 11
1.403639 -0.600176 2.765000 110 80 20
1.392470 -0.590599 2.743000 113 76 30
1.392470 -0.585798 2.743000 115 73 38
1.392470 -0.580996 2.743000 118 72 47
1.392470 -0.576195 2.743000 121 73 38
1.392470 -0.571393 2.743000 116 73 30
1.392470 -0.566591 2.743000 112 71 39
1.392470 -0.561790 2.743000 114 71 49
1.381810 -0.552724 2.722000 116 76 25
1.392470 -0.552186 2.743000 114 77 1
1.392470 -0.547385 2.743000 111 79 12
1.392470 -0.542583 2.743000 113 77 23
1.392470 -0.537782 2.743000 114 76 23
1.392470 -0.532980 2.743000 113 77 23
1.392470 -0.528178 2.743000 112 79 22
1.392470 -0.523377 2.743000 114 79 21
1.392470 -0.518575 2.743000 116 79 21
1.392470 -0.513774 2.743000 115 79 21
1.392470 -0.508972 2.743000 114 80 23
1.392470 -0.504170 2.743000 114 80 25
1.392470 -0.499369 2.743000 114 81 24
1.392470 -0.494567 2.743000 115 77 24
1.392470 -0.489765 2.743000 117 75 25
1.392470 -0.484964 2.743000 118 75 26
1.392470 -0.480162 2.743000 118 72 29
1.392470 -0.475361 2.743000 119 76 33
1.392470 -0.470559 2.743000 120 79 31
1.392470 -0.465757 2.743000 121 79 29
1.392470 -0.460956 2.743000 122 82 29
1.392470 -0.456154 2.743000 122 79 30
1.392470 -0.451352 2.743000 122 79 25
1.392470 -0.446551 2.743000 121 80 20
1.392470 -0.441749 2.743000 120 80 18
1.392470 -0.436948 2.743000 119 79 17
1.392470 -0.432146 2.743000 119 80 21
1.392470 -0.427344 2.743000 120 79 25
1.392470 -0.422543 2.743000 121 79 24
1.392470 -0.417741 2.743000 120 79 23
1.392470 -0.412939 2.743000 119 82 28
1.392470 -0.408138 2.743000 121 81 33
1.392470 -0.403336 2.743000 123 82 35
1.392470 -0.398535 2.743000 121 81 38
1.392470 -0.393733 2.743000 118 82 32
1.392470 -0.388931 2.743000 117 80 26
1.392470 -0.384130 2.743000 115 80 19
1.392470 -0.379328 2.743000 120 79 12
1.392470 -0.374526 2.743000 124 76 19
1.392470 -0.369725 2.743000 123 79 27
1.392470 -0.364923 2.743000 121 81 21
1.392470 -0.360122 2.743000 126 77 16
1.392470 -0.355320 2.743000 131 73 26
1.392470 -0.350518 2.743000 128 74 36
1.392470 -0.345717 2.743000 125 78 47
1.392470 -0.340915 2.743000 120 78 58
1.392470 -0.336113 2.743000 116 79 49
1.392470 -0.331312 2.743000 117 79 40
1.392470 -0.326510 2.743000 119 81 39
1.392470 -0.321709 2.743000 120 80 39
1.392470 -0.316907 2.743000 120 80 32
1.392470 -0.312105 2.743000 122 78 26
1.392470 -0.307304 2.743000 125 79 25
1.392470 -0.302502 2.743000 124 80 25
1.392470 -0.297700 2.743000 123 83 28
1.392470 -0.292899 2.743000 123 82 32
1.392470 -0.288097 2.743000 122 80 33
1.392470 -0.283296 2.743000 123 77 34
1.392470 -0.278494 2.743000 123 75 33
1.392470 -0.273692 2.743000 122 75 32
1.392470 -0.268891 2.743000 122 76 25
1.392470 -0.264089 2.743000 120 79 19
1.392470 -0.259288 2.743000 118 79 25
1.392470 -0.254486 2.743000 120 79 31
1.392470 -0.249684 2.743000 122 78 33
1.392470 -0.244883 2.743000 122 78 36
1.392470 -0.240081 2.743000 122 83 30
1.392470 -0.235279 2.743000 125 83 24
1.392470 -0.230478 2.743000 128 83 25
1.392470 -0.225676 2.743000 125 80 27
1.392470 -0.220875 2.743000 123 77 28
1.392470 -0.216073 2.743000 123 78 30
1.392470 -0.211271 2.743000 124 79 28
1.392470 -0.206470 2.743000 124 81 26
1.392470 -0.201668 2.743000 125 83 25
1.392470 -0.196866 2.743000 123 81 24
1.392470 -0.192065 2.743000 122 82 27
1.392470 -0.187263 2.743000 123 81 30
1.392470 -0.182462 2.743000 125 81 25
1.392470 -0.177660 2.743000 124 80 21
1.381810 -0.171535 2.722000 123 81 25
1.392470 -0.168057 2.743000 123 82 30
1.392470 -0.163255 2.743000 122 85 30
1.392470 -0.158453 2.743000 120 83 31
1.392470 -0.153652 2.743000 117 83 29
1.392470 -0.148850 2.743000 121 79 28
1.392470 -0.144049 2.743000 125 78 29
1.392470 -0.139247 2.743000 127 78 30
1.392470 -0.134445 2.743000 129 77 30
1.392470 -0.129644 2.743000 123 78 30
1.392470 -0.124842 2.743000 118 77 35
1.392470 -0.120040 2.743000 121 79 40
1.392470 -0.115239 2.743000 125 81 44
1.392470 -0.110437 2.743000 126 82 48
1.392470 -0.105636 2.743000 127 83 26
1.392470 -0.100834 2.743000 128 80 5
1.392470 -0.096032 2.743000 130 79 18
1.392470 -0.091231 2.743000 127 79 31
1.392470 -0.086429 2.743000 124 79 20
1.392470 -0.081627 2.743000 122 83 10
1.392470 -0.076826 2.743000 121 85 21
1.381810 -0.071473 2.722000 124 83 33
1.381810 -0.066708 2.722000 128 83 43
1.381810 -0.061943 2.722000 128 82 53
1.392470 -0.057619 2.743000 128 82 47
1.381810 -0.052413 2.722000 127 83 42
1.381810 -0.047649 2.722000 127 86 35
1.392470 -0.043215 2.743000 127 85 28
1.392470 -0.038413 2.743000 126 87 17
1.392470 -0.033611 2.743000 125 87 7
1.392470 -0.028810 2.743000 125 86 19
1.381810 -0.023824 2.722000 126 85 31
1.392470 -0.019206 2.743000 127 84 34
1.392470 -0.014405 2.743000 127 85 38
1.392470 -0.009603 2.743000 128 87 36
1.392470 -0.004802 2.743000 126 86 35
1.392470 -0.000000 2.743000 124 85 24
1.392470 0.004802 2.743000 125 85 13
1.392470 0.009603 2.743000 126 86 22
1.403639 0.014520 2.765000 126 84 32
1.392470 0.019207 2.743000 127 81 34
1.392470 0.024008 2.743000 126 83 36
1.392470 0.028810 2.743000 126 86 33
1.392470 0.033611 2.743000 125 86 30
1.392470 0.038413 2.743000 125 86 30
1.392470 0.043215 2.743000 121 84 30
1.392470 0.048016 2.743000 118 84 28
1.392470 0.052818 2.743000 123 85 26
1.392470 0.057620 2.743000 129 86 27
1.392470 0.062421 2.743000 129 87 29
1.392470 0.067223 2.743000 130 90 19
1.392470 0.072024 2.743000 130 90 9
1.392470 0.076826 2.743000 130 92 17
1.392470 0.081628 2.743000 131 91 26
1.392470 0.086429 2.743000 131 90 26
1.392470 0.091231 2.743000 129 88 26
1.392470 0.096032 2.743000 128 88 33
1.392470 0.100834 2.743000 124 87 41
1.392470 0.105636 2.743000 120 86 43
1.392470 0.110437 2.743000 124 84 46
1.392470 0.115239 2.743000 129 84 42
1.392470 0.120041 2.743000 129 85 39
1.392470 0.124842 2.743000 129 89 37
1.392470 0.129644 2.743000 126 87 36
1.381810 0.133416 2.722000 124 84 36
1.381810 0.138181 2.722000 126 87 37
1.381810 0.142946 2.722000 128 87 26
1.381810 0.147711 2.722000 129 88 16
1.381810 0.152476 2.722000 130 89 22
1.381810 0.157240 2.722000 131 87 28
1.381810 0.162005 2.722000 131 86 24
1.392470 0.168057 2.743000 129 88 21
1.392470 0.172858 2.743000 128 90 23
1.392470 0.177660 2.743000 125 88 26
1.392470 0.182462 2.743000 122 86 26
1.392470 0.187263 2.743000 126 87 26
1.392470 0.192065 2.743000 130 90 15
1.392470 0.196866 2.743000 130 87 5
1.392470 0.201668 2.743000 130 88 18
1.381810 0.204889 2.722000 128 87 32
1.381810 0.209654 2.722000 126 89 24
1.381810 0.214419 2.722000 132 88 17
1.392470 0.220875 2.743000 137 90 23
1.392470 0.225676 2.743000 134 87 30
1.392470 0.230478 2.743000 131 85 38
1.392470 0.235280 2.743000 129 85 46
1.392470 0.240081 2.743000 128 87 44
1.392470 0.244883 2.743000 128 86 42
1.392470 0.249684 2.743000 129 86 43
1.392470 0.254486 2.743000 131 87 44
1.392470 0.259288 2.743000 134 89 49
1.381810 0.262067 2.722000 131 87 54
1.392470 0.268891 2.743000 128 87 50
1.381810 0.271597 2.722000 126 86 47
1.381810 0.276362 2.722000 125 89 44
1.381810 0.281127 2.722000 127 88 42
1.381810 0.285892 2.722000 130 89 28
1.381810 0.290657 2.722000 129 91 15
1.381810 0.295422 2.722000 129 93 25
1.381810 0.300186 2.722000 127 90 35
1.381810 0.304951 2.722000 126 91 38
1.381810 0.309716 2.722000 126 91 42
1.381810 0.314481 2.722000 126 94 40
1.381810 0.319246 2.722000 128 92 39
1.381810 0.324011 2.722000 130 91 37
1.381810 0.328775 2.722000 128 90 35
1.381810 0.333540 2.722000 125 90 30
1.381810 0.338305 2.722000 127 91 26
1.381810 0.343070 2.722000 130 93 36
1.381810 0.347835 2.722000 130 87 46
1.381810 0.352600 2.722000 131 84 47
1.371149 0.354608 2.701000 128 86 48
1.381810 0.362130 2.722000 126 87 46
1.381810 0.366894 2.722000 129 86 44
1.381810 0.371659 2.722000 133 88 40
1.381810 0.376424 2.722000 129 86 37
1.381810 0.381189 2.722000 126 87 23
1.381810 0.385954 2.722000 124 89 10
1.381810 0.390719 2.722000 123 93 25
1.381810 0.395484 2.722000 125 87 41
1.381810 0.400248 2.722000 127 85 43
1.381810 0.405013 2.722000 129 85 45
1.381810 0.409778 2.722000 130 87 47
1.381810 0.414543 2.722000 129 87 49
1.381810 0.419308 2.722000 129 88 56
1.381810 0.424073 2.722000 125 87 63
1.381810 0.428838 2.722000 121 89 54
1.381810 0.433602 2.722000 124 90 46
1.381810 0.438367 2.722000 127 91 45
1.381810 0.443132 2.722000 127 89 44
1.381810 0.447897 2.722000 127 89 37
1.371149 0.449170 2.701000 128 89 30
1.381810 0.457427 2.722000 130 91 37
1.381810 0.462192 2.722000 127 90 44
1.381810 0.466957 2.722000 125 94 40
1.381810 0.471721 2.722000 127 91 37
1.381810 0.476486 2.722000 130 91 42
1.381810 0.481251 2.722000 129 88 47
1.381810 0.486016 2.722000 128 81 50
1.381810 0.490781 2.722000 130 83 53
1.381810 0.495546 2.722000 132 85 34
1.381810 0.500311 2.722000 129 88 16
1.381810 0.505075 2.722000 127 93 23
1.381810 0.509840 2.722000 127 92 30
1.381810 0.514605 2.722000 127 89 34
1.381810 0.519370 2.722000 127 86 38
1.381810 0.524135 2.722000 128 86 42
1.381810 0.528900 2.722000 128 88 46
1.381810 0.533665 2.722000 128 89 46
1.381810 0.538429 2.722000 132 87 46
1.381810 0.543194 2.722000 137 87 47
1.381810 0.547959 2.722000 130 86 49
1.381810 0.552724 2.722000 124 88 50
1.381810 0.557489 2.722000 127 88 51
1.381810 0.562254 2.722000 130 88 57
1.371149 0.562644 2.701000 129 89 64
1.371149 0.567372 2.701000 127 94 57
1.371149 0.572100 2.701000 128 92 51
1.392470 0.585798 2.743000 129 89 47
1.381810 0.586078 2.722000 130 92 44
1.371149 0.586285 2.701000 130 95 45
1.381810 0.595608 2.722000 131 91 47
1.371149 0.595741 2.701000 132 90 50
1.381810 0.605137 2.722000 135 91 54
1.371149 0.605197 2.701000 138 94 57
1.381810 0.614667 2.722000 112 89 60
1.381810 0.619432 2.722000 86 72 36
1.381810 0.624197 2.722000 44 24 13
1.381810 0.628962 2.722000 2 7 7
1.381810 0.633727 2.722000 15 15 1
1.381810 0.638492 2.722000 27 25 4
1.381810 0.643256 2.722000 20 26 8
1.110220 0.689102 2.187000 129 117 99
1.110220 0.692930 2.187000 129 109 101
1.096513 0.688157 2.160000 129 105 100
1.089914 0.687773 2.147000 130 112 100
1.082807 0.687022 2.133000 132 114 101
1.082807 0.690756 2.133000 130 113 103
1.063516 0.682117 2.095000 127 115 105
1.056917 0.681529 2.082000 135 115 107
1.050318 0.680896 2.069000 144 116 106
1.050318 0.684517 2.069000 137 114 105
1.032042 0.676166 2.033000 131 115 105
1.025951 0.675712 2.021000 133 113 105
1.019859 0.675217 2.009000 136 113 109
1.016813 0.676707 2.003000 138 111 113
1.014275 0.678515 1.998000 140 110 120
1.008183 0.677916 1.986000 138 112 127
1.008183 0.681393 1.986000 136 118 107
0.990923 0.673144 1.952000 137 119 87
0.985339 0.672749 1.941000 138 119 96
0.980263 0.672663 1.931000 137 118 106
0.964018 0.664840 1.899000 136 120 103
0.964018 0.668164 1.899000 137 117 100
0.958434 0.667599 1.888000 137 112 110
0.953357 0.667350 1.878000 138 120 121
0.948281 0.667067 1.868000 140 124 116
0.943204 0.666748 1.858000 141 121 112
0.943204 0.670000 1.858000 143 124 118
0.938128 0.669629 1.848000 139 122 125
0.933052 0.669223 1.838000 135 122 117
0.923406 0.665489 1.819000 136 123 109
0.913761 0.661689 1.800000 136 122 111
0.913761 0.664840 1.800000 136 121 113
0.908685 0.664280 1.790000 137 123 117
0.899547 0.660702 1.772000 142 125 122
0.894978 0.660432 1.763000 148 127 121
0.885841 0.656744 1.745000 145 128 121
0.881272 0.656396 1.736000 141 130 121
0.877211 0.656396 1.728000 143 124 122
0.872642 0.655986 1.719000 145 114 122
0.872642 0.658995 1.719000 137 124 122
0.868581 0.658923 1.711000 128 122 124
0.868581 0.661918 1.711000 134 126 127
0.859951 0.658307 1.694000 140 131 126
0.855890 0.658150 1.686000 146 128 125
0.847260 0.654435 1.669000 152 127 122
0.839137 0.651055 1.653000 152 126 119
0.839137 0.653948 1.653000 153 126 120
0.835076 0.653663 1.645000 144 125 121
0.831523 0.653749 1.638000 136 120 118
0.827461 0.653409 1.630000 141 125 115
0.827461 0.656263 1.630000 147 129 119
0.819847 0.653050 1.615000 143 125 124
0.815786 0.652629 1.607000 140 123 129
0.808171 0.649324 1.592000 146 126 135
0.804617 0.649243 1.585000 152 127 122
0.804617 0.652018 1.585000 147 128 110
0.801064 0.651900 1.578000 142 130 115
0.797510 0.651758 1.571000 145 128 120
0.797510 0.654509 1.571000 147 129 122
0.789896 0.650983 1.556000 147 128 124
1.420195 -1.000481 2.788000 93 69 31
1.420195 -0.995600 2.788000 89 70 25
1.420195 -0.990720 2.788000 92 72 19
1.420195 -0.985840 2.788000 96 74 16
1.420195 -0.980959 2.788000 98 75 14
1.420195 -0.976079 2.788000 101 70 17
1.420195 -0.971198 2.788000 103 68 20
1.420195 -0.966318 2.788000 106 65 17
1.420195 -0.961438 2.788000 109 66 15
1.408479 -0.948666 2.765000 112 65 20
1.408479 -0.943826 2.765000 104 68 26
1.408479 -0.938986 2.765000 97 68 17
1.408479 -0.934146 2.765000 106 63 8
1.408479 -0.929305 2.765000 115 66 14
1.408479 -0.924465 2.765000 109 66 20
1.408479 -0.919625 2.765000 103 66 24
1.408479 -0.914785 2.765000 102 72 28
1.408479 -0.909945 2.765000 101 72 18
1.408479 -0.905105 2.765000 103 72 7
1.408479 -0.900265 2.765000 105 71 11
1.408479 -0.895425 2.765000 103 69 14
1.408479 -0.890584 2.765000 102 64 16
1.420195 -0.893112 2.788000 101 55 17
1.420195 -0.888232 2.788000 100 68 25
1.420195 -0.883351 2.788000 95 70 34
1.420195 -0.878471 2.788000 91 66 32
1.420195 -0.873591 2.788000 98 67 31
1.408479 -0.861544 2.765000 106 66 21
1.408479 -0.856703 2.765000 105 67 12
1.408479 -0.851863 2.765000 105 67 18
1.397272 -0.840284 2.743000 105 64 24
1.397272 -0.835482 2.743000 106 66 26
1.397272 -0.830681 2.743000 106 67 29
1.397272 -0.825879 2.743000 107 66 26
1.397272 -0.821077 2.743000 107 68 22
1.408479 -0.822823 2.765000 108 70 20
1.408479 -0.817982 2.765000 106 76 19
1.408479 -0.813142 2.765000 104 73 20
1.408479 -0.808302 2.765000 109 74 21
1.420195 -0.810145 2.788000 115 72 20
1.408479 -0.798622 2.765000 105 71 20
1.397272 -0.787466 2.743000 95 73 19
1.397272 -0.782664 2.743000 101 76 18
1.397272 -0.777863 2.743000 108 72 18
1.397272 -0.773061 2.743000 109 71 17
1.397272 -0.768259 2.743000 110 71 27
1.397272 -0.763458 2.743000 111 72 37
1.397272 -0.758656 2.743000 113 69 24
1.397272 -0.753855 2.743000 111 68 11
1.397272 -0.749053 2.743000 110 68 20
1.397272 -0.744251 2.743000 109 71 28
1.397272 -0.739450 2.743000 108 70 24
1.397272 -0.734648 2.743000 101 69 19
1.397272 -0.729846 2.743000 94 70 21
1.397272 -0.725045 2.743000 104 72 22
1.397272 -0.720243 2.743000 115 71 20
1.397272 -0.715442 2.743000 111 68 19
1.397272 -0.710640 2.743000 108 69 21
1.397272 -0.705838 2.743000 117 67 24
1.397272 -0.701037 2.743000 126 66 20
1.397272 -0.696235 2.743000 112 69 17
1.397272 -0.691433 2.743000 98 71 14
1.397272 -0.686632 2.743000 107 76 10
1.397272 -0.681830 2.743000 117 74 13
1.397272 -0.677029 2.743000 114 76 15
1.397272 -0.672227 2.743000 112 74 17
1.397272 -0.667425 2.743000 112 74 19
1.397272 -0.662624 2.743000 112 76 18
1.397272 -0.657822 2.743000 112 79 17
1.386575 -0.648021 2.722000 113 75 21
1.397272 -0.648219 2.743000 111 69 25
1.397272 -0.643417 2.743000 110 67 25
1.397272 -0.638616 2.743000 115 69 25
1.397272 -0.633814 2.743000 121 67 32
1.408479 -0.634057 2.765000 116 67 40
