ply
format ascii 1.0
element vertex 1275
property float x
property float y
property float z
property uchar red
property uchar green
property uchar blue
end_header
0.981912 -0.733071 3.842000 118 81 51
0.981912 -0.726345 3.842000 117 82 48
0.981912 -0.719620 3.842000 118 81 45
0.981912 -0.712895 3.842000 120 82 45
0.981912 -0.706169 3.842000 121 80 46
0.981912 -0.699444 3.842000 122 80 47
0.981912 -0.692718 3.842000 121 78 49
0.981912 -0.685993 3.842000 120 77 49
0.981912 -0.679268 3.842000 120 80 49
0.981912 -0.672542 3.842000 120 82 39
0.992901 -0.673269 3.885000 120 81 30
0.981912 -0.659091 3.842000 121 80 38
0.981912 -0.652366 3.842000 120 83 47
0.981912 -0.645640 3.842000 120 83 49
0.981912 -0.638915 3.842000 118 82 51
0.981912 -0.632190 3.842000 117 82 51
0.981912 -0.625464 3.842000 120 82 52
0.981912 -0.618739 3.842000 123 82 53
0.981912 -0.612013 3.842000 122 82 54
0.981912 -0.605288 3.842000 122 82 59
0.981912 -0.598562 3.842000 119 83 64
0.981912 -0.591837 3.842000 117 84 61
0.981912 -0.585112 3.842000 119 84 59
0.981912 -0.578386 3.842000 121 85 57
0.981912 -0.571661 3.842000 122 84 55
0.981912 -0.564935 3.842000 123 85 48
0.981912 -0.558210 3.842000 120 83 41
0.981912 -0.551485 3.842000 117 83 47
0.981912 -0.544759 3.842000 118 83 53
0.981912 -0.538034 3.842000 120 82 52
0.981912 -0.531308 3.842000 120 83 51
0.981912 -0.524583 3.842000 121 82 58
0.981912 -0.517857 3.842000 122 83 65
0.981912 -0.511132 3.842000 123 83 60
0.981912 -0.504407 3.842000 125 84 55
0.981912 -0.497681 3.842000 127 86 59
0.981912 -0.490956 3.842000 125 84 64
0.981912 -0.484230 3.842000 124 83 59
0.981912 -0.477505 3.842000 123 83 55
0.981912 -0.470779 3.842000 122 85 56
0.971178 -0.458981 3.800000 121 85 58
0.971178 -0.452329 3.800000 121 85 61
0.971178 -0.445677 3.800000 121 83 64
0.971178 -0.439025 3.800000 120 82 58
0.981912 -0.437152 3.842000 120 85 52
0.981912 -0.430427 3.842000 120 87 51
0.981912 -0.423702 3.842000 123 84 51
0.981912 -0.416976 3.842000 126 83 53
0.981912 -0.410251 3.842000 124 84 55
0.981912 -0.403525 3.842000 123 85 56
0.981912 -0.396800 3.842000 123 84 57
0.981912 -0.390074 3.842000 124 84 61
0.981912 -0.383349 3.842000 125 84 66
0.981912 -0.376624 3.842000 126 85 60
0.981912 -0.369898 3.842000 125 86 55
0.981912 -0.363173 3.842000 124 87 54
0.981912 -0.356447 3.842000 125 86 53
0.981912 -0.349722 3.842000 126 87 53
0.981912 -0.342996 3.842000 125 85 54
0.981912 -0.336271 3.842000 125 84 52
0.981912 -0.329546 3.842000 123 85 51
0.981912 -0.322820 3.842000 121 87 58
0.981912 -0.316095 3.842000 123 85 65
0.981912 -0.309369 3.842000 125 85 59
0.981912 -0.302644 3.842000 125 85 53
0.981912 -0.295918 3.842000 125 86 50
0.981912 -0.289193 3.842000 124 85 48
0.981912 -0.282468 3.842000 123 85 46
0.981912 -0.275742 3.842000 127 84 44
0.981912 -0.269017 3.842000 130 86 48
0.981912 -0.262291 3.842000 128 85 53
0.981912 -0.255566 3.842000 125 85 50
0.981912 -0.248841 3.842000 124 84 48
0.971178 -0.239468 3.800000 122 84 47
0.981912 -0.235390 3.842000 123 84 47
0.971178 -0.226165 3.800000 125 84 49
0.971178 -0.219513 3.800000 124 83 51
0.971178 -0.212861 3.800000 124 84 49
0.971178 -0.206209 3.800000 124 82 47
0.971178 -0.199557 3.800000 124 80 45
0.971178 -0.192905 3.800000 123 82 44
0.981912 -0.188312 3.842000 123 83 45
0.971178 -0.179601 3.800000 123 83 46
0.981912 -0.174861 3.842000 122 83 47
0.981912 -0.168135 3.842000 121 83 49
0.981912 -0.161410 3.842000 120 86 50
0.981912 -0.154685 3.842000 120 85 51
0.971178 -0.146342 3.800000 121 85 50
0.981912 -0.141234 3.842000 120 84 50
0.981912 -0.134508 3.842000 119 86 50
0.981912 -0.127783 3.842000 121 84 51
0.971178 -0.119734 3.800000 124 84 48
0.971178 -0.113082 3.800000 125 84 46
0.971178 -0.106430 3.800000 126 83 46
0.971178 -0.099778 3.800000 126 84 47
0.971178 -0.093127 3.800000 126 85 49
0.971178 -0.086475 3.800000 126 86 51
0.971178 -0.079823 3.800000 127 85 50
0.971178 -0.073171 3.800000 126 85 49
0.971178 -0.066519 3.800000 125 84 48
0.971178 -0.059867 3.800000 126 83 47
0.971178 -0.053215 3.800000 127 85 48
0.971178 -0.046563 3.800000 127 85 49
0.971178 -0.039911 3.800000 128 84 54
0.981912 -0.033627 3.842000 127 85 59
0.981912 -0.026902 3.842000 126 85 55
0.981912 -0.020176 3.842000 125 85 51
0.981912 -0.013451 3.842000 125 87 51
0.981912 -0.006725 3.842000 125 85 51
0.981912 -0.000000 3.842000 126 84 51
0.981912 0.006726 3.842000 126 83 51
0.981912 0.013451 3.842000 127 83 48
0.981912 0.020176 3.842000 127 83 45
0.981912 0.026902 3.842000 128 84 45
0.981912 0.033627 3.842000 125 84 46
0.981912 0.040353 3.842000 123 85 47
0.981912 0.047078 3.842000 126 84 49
0.981912 0.053804 3.842000 129 84 49
0.981912 0.060529 3.842000 127 84 49
0.981912 0.067254 3.842000 125 84 49
0.981912 0.073980 3.842000 125 85 50
0.981912 0.080705 3.842000 126 87 57
0.981912 0.087430 3.842000 126 85 64
0.981912 0.094156 3.842000 127 85 56
0.981912 0.100881 3.842000 127 85 49
0.981912 0.107607 3.842000 127 84 51
0.981912 0.114332 3.842000 127 85 53
0.981912 0.121058 3.842000 127 85 54
0.971178 0.126386 3.800000 127 84 56
0.971178 0.133038 3.800000 127 84 50
0.971178 0.139690 3.800000 126 84 44
0.971178 0.146342 3.800000 126 84 47
0.971178 0.152994 3.800000 127 87 51
0.971178 0.159646 3.800000 129 90 51
0.971178 0.166298 3.800000 129 89 51
0.981912 0.174861 3.842000 130 89 52
0.971178 0.179601 3.800000 130 87 54
0.971178 0.186253 3.800000 130 86 51
0.971178 0.192905 3.800000 130 86 48
0.981912 0.201763 3.842000 131 87 44
0.971178 0.206209 3.800000 128 87 41
0.971178 0.212861 3.800000 126 88 47
0.971178 0.219513 3.800000 126 89 54
0.971178 0.226165 3.800000 126 92 61
0.971178 0.232817 3.800000 129 91 68
0.971178 0.239469 3.800000 132 91 60
0.971178 0.246120 3.800000 130 91 52
0.971178 0.252772 3.800000 128 91 51
0.971178 0.259424 3.800000 130 89 50
0.971178 0.266076 3.800000 132 88 54
0.981912 0.275742 3.842000 130 88 59
0.981912 0.282468 3.842000 129 90 65
0.971178 0.286032 3.800000 129 89 71
0.971178 0.292684 3.800000 129 89 68
0.971178 0.299336 3.800000 128 89 65
0.971178 0.305988 3.800000 128 91 70
0.971178 0.312640 3.800000 129 91 75
0.971178 0.319291 3.800000 130 92 65
0.971178 0.325943 3.800000 130 92 56
0.971178 0.332595 3.800000 130 93 55
0.971178 0.339247 3.800000 131 92 54
0.960699 0.342167 3.759000 132 91 55
0.960699 0.348747 3.759000 131 93 57
0.971178 0.359203 3.800000 131 95 56
0.971178 0.365855 3.800000 129 92 55
0.971178 0.372506 3.800000 127 93 56
0.971178 0.379158 3.800000 129 93 57
0.971178 0.385810 3.800000 131 92 59
0.971178 0.392462 3.800000 132 91 61
0.971178 0.399114 3.800000 134 91 58
0.971178 0.405766 3.800000 133 90 55
0.971178 0.412418 3.800000 132 90 53
0.971178 0.419070 3.800000 130 91 51
0.971178 0.425722 3.800000 128 92 52
0.971178 0.432374 3.800000 130 92 53
0.971178 0.439026 3.800000 132 93 54
0.971178 0.445677 3.800000 132 91 55
0.971178 0.452329 3.800000 132 92 54
0.971178 0.458981 3.800000 132 93 53
0.971178 0.465633 3.800000 131 93 54
0.971178 0.472285 3.800000 131 93 55
0.971178 0.478937 3.800000 131 94 55
0.971178 0.485589 3.800000 130 95 55
0.960699 0.486930 3.759000 130 96 60
0.971178 0.498893 3.800000 130 93 65
0.971178 0.505545 3.800000 131 93 61
0.971178 0.512197 3.800000 131 93 57
0.971178 0.518848 3.800000 130 93 57
0.971178 0.525500 3.800000 129 92 57
0.971178 0.532152 3.800000 128 92 56
0.971178 0.538804 3.800000 128 91 55
0.971178 0.545456 3.800000 128 91 50
0.971178 0.552108 3.800000 127 89 46
0.971178 0.558760 3.800000 127 87 48
0.971178 0.565412 3.800000 125 88 51
0.971178 0.572064 3.800000 124 88 51
0.971178 0.578716 3.800000 126 88 51
0.971178 0.585368 3.800000 128 89 55
0.971178 0.592019 3.800000 128 90 60
0.971178 0.598671 3.800000 129 90 61
0.971178 0.605323 3.800000 129 91 63
0.960699 0.605372 3.759000 130 93 61
0.960699 0.611952 3.759000 130 91 59
0.971178 0.625279 3.800000 130 91 58
0.971178 0.631931 3.800000 129 90 58
0.971178 0.638583 3.800000 129 90 57
0.971178 0.645234 3.800000 128 88 57
0.971178 0.651886 3.800000 128 88 64
0.971178 0.658538 3.800000 127 89 71
0.971178 0.665190 3.800000 126 93 64
0.971178 0.671842 3.800000 108 90 57
0.971178 0.678494 3.800000 90 78 52
0.960699 0.677754 3.759000 50 36 48
0.960699 0.684334 3.759000 11 3 37
0.960699 0.690914 3.759000 19 9 26
0.960699 0.697494 3.759000 28 14 25
0.960699 0.704074 3.759000 23 14 25
0.960699 0.710654 3.759000 18 16 19
0.960699 0.717234 3.759000 16 14 14
0.960699 0.723814 3.759000 15 14 12
0.724294 0.729255 2.834000 120 97 85
0.718160 0.727998 2.810000 122 99 86
0.679569 0.716805 2.659000 123 98 88
0.674457 0.716033 2.639000 123 98 87
0.664234 0.709730 2.599000 123 99 91
0.664234 0.714279 2.599000 122 99 95
0.659378 0.713574 2.580000 122 99 92
0.654267 0.712524 2.560000 122 98 90
0.649667 0.711963 2.542000 121 98 90
0.644811 0.711058 2.523000 122 96 91
0.640210 0.710371 2.505000 123 95 90
0.631010 0.704484 2.469000 122 96 89
0.626410 0.703638 2.451000 122 96 91
0.622065 0.703018 2.434000 123 97 93
0.617720 0.702339 2.417000 125 97 89
0.617720 0.706570 2.417000 124 98 86
0.613375 0.705802 2.400000 123 100 87
0.609286 0.705270 2.384000 122 98 88
0.600852 0.699623 2.351000 122 98 90
0.596763 0.698949 2.335000 118 98 93
0.581173 0.684670 2.274000 115 98 90
0.577339 0.684108 2.259000 118 97 87
0.573506 0.683493 2.244000 122 97 93
0.569928 0.683133 2.230000 121 95 99
0.566094 0.682415 2.215000 121 94 92
0.562516 0.681955 2.201000 120 93 86
0.558938 0.681445 2.187000 119 92 85
0.558938 0.685274 2.187000 119 92 84
0.555616 0.685006 2.174000 119 93 84
0.552038 0.684376 2.160000 117 94 85
0.548715 0.684015 2.147000 116 95 84
0.541815 0.679124 2.120000 117 94 84
0.535425 0.674783 2.095000 118 92 84
0.528781 0.670030 2.069000 116 91 84
0.528781 0.673652 2.069000 114 92 84
0.525714 0.673346 2.057000 114 92 84
0.522647 0.672997 2.045000 113 93 83
0.519580 0.672607 2.033000 114 93 83
0.513446 0.668183 2.009000 116 94 78
0.507568 0.664010 1.986000 114 92 74
0.501945 0.660093 1.964000 113 95 83
0.496067 0.655760 1.941000 115 93 93
0.496067 0.659158 1.941000 118 92 87
0.493512 0.659142 1.931000 115 93 81
0.490700 0.658748 1.920000 113 93 82
0.490700 0.662109 1.920000 115 91 83
0.485333 0.658192 1.899000 117 90 83
0.479966 0.654201 1.878000 114 92 83
0.477410 0.653987 1.868000 110 94 81
0.472299 0.650220 1.848000 110 93 80
0.469743 0.649919 1.838000 110 92 84
0.467187 0.649583 1.828000 110 91 88
0.464887 0.649569 1.819000 109 91 85
0.462332 0.649164 1.809000 109 91 82
0.462332 0.652331 1.809000 108 89 81
0.460031 0.652236 1.800000 110 89 81
0.455176 0.648469 1.781000 112 89 80
0.452875 0.648294 1.772000 111 87 79
0.450575 0.648088 1.763000 109 87 78
0.445975 0.644525 1.745000 106 89 78
0.441630 0.641271 1.728000 104 91 68
0.439330 0.640940 1.719000 107 90 59
0.437285 0.640953 1.711000 111 89 71
0.437285 0.643948 1.711000 109 88 83
0.434985 0.643540 1.702000 107 87 80
0.432941 0.643480 1.694000 105 87 77
0.428596 0.639958 1.677000 103 89 78
0.426551 0.639827 1.669000 106 88 80
0.422462 0.636587 1.653000 108 86 84
0.420418 0.636386 1.645000 106 86 89
0.416584 0.633436 1.630000 105 86 83
0.414539 0.633166 1.622000 103 87 77
0.414539 0.636006 1.622000 102 88 73
0.412750 0.636088 1.615000 101 86 69
0.410706 0.635750 1.607000 100 86 79
0.408917 0.635782 1.600000 101 84 89
0.405083 0.632596 1.585000 103 85 84
0.403294 0.632564 1.578000 102 88 79
0.399461 0.629287 1.563000 101 90 78
0.397672 0.629193 1.556000 101 88 78
0.395883 0.629074 1.549000 102 87 71
0.394094 0.628930 1.542000 102 84 65
0.392560 0.629172 1.536000 102 83 70
0.390771 0.628981 1.529000 102 85 75
0.388982 0.628766 1.522000 103 87 70
0.387193 0.628526 1.515000 103 86 65
0.383871 0.625762 1.502000 103 86 70
0.382337 0.625881 1.496000 103 86 76
0.999702 -1.373740 3.885000 105 68 35
0.999702 -1.366939 3.885000 105 68 36
0.988637 -1.345084 3.842000 105 69 36
0.988637 -1.338359 3.842000 105 70 36
0.988637 -1.331634 3.842000 105 69 33
0.988637 -1.324908 3.842000 106 67 30
0.988637 -1.318183 3.842000 108 68 33
0.988637 -1.311457 3.842000 107 66 37
0.988637 -1.304732 3.842000 107 68 32
0.988637 -1.298006 3.842000 106 71 28
0.988637 -1.291281 3.842000 106 70 34
0.988637 -1.284556 3.842000 105 68 40
0.988637 -1.277830 3.842000 105 70 36
0.988637 -1.271105 3.842000 103 71 32
0.988637 -1.264379 3.842000 102 71 34
0.999702 -1.271729 3.885000 99 72 37
0.999702 -1.264929 3.885000 97 66 35
0.999702 -1.258128 3.885000 90 65 33
0.999702 -1.251328 3.885000 84 65 26
0.999702 -1.244527 3.885000 91 66 20
0.999702 -1.237726 3.885000 99 66 29
0.999702 -1.230925 3.885000 100 69 38
0.988637 -1.210576 3.842000 102 72 37
0.977829 -1.190690 3.800000 106 76 37
0.977829 -1.184038 3.800000 110 75 41
0.977829 -1.177386 3.800000 109 74 45
0.988637 -1.183674 3.842000 109 74 39
0.988637 -1.176949 3.842000 109 76 34
0.988637 -1.170223 3.842000 109 75 36
0.988637 -1.163498 3.842000 109 76 37
0.988637 -1.156772 3.842000 109 73 39
0.988637 -1.150047 3.842000 109 69 41
0.988637 -1.143322 3.842000 109 72 40
0.988637 -1.136596 3.842000 108 76 39
0.988637 -1.129871 3.842000 107 75 38
0.988637 -1.123145 3.842000 108 72 37
0.988637 -1.116420 3.842000 110 72 40
0.988637 -1.109695 3.842000 113 74 44
0.988637 -1.102969 3.842000 117 73 45
0.988637 -1.096244 3.842000 114 73 47
0.988637 -1.089518 3.842000 112 74 47
0.988637 -1.082793 3.842000 110 71 46
0.988637 -1.076067 3.842000 109 71 47
0.988637 -1.069342 3.842000 109 73 48
0.988637 -1.062617 3.842000 110 73 46
0.988637 -1.055891 3.842000 110 75 44
0.988637 -1.049166 3.842000 110 76 45
0.977829 -1.031045 3.800000 110 77 47
0.977829 -1.024393 3.800000 110 76 42
0.977829 -1.017741 3.800000 108 76 37
0.988637 -1.022264 3.842000 107 76 45
0.988637 -1.015539 3.842000 110 76 53
0.988637 -1.008813 3.842000 113 76 49
0.988637 -1.002088 3.842000 113 77 46
0.988637 -0.995362 3.842000 114 77 45
0.988637 -0.988637 3.842000 115 78 44
0.988637 -0.981912 3.842000 116 76 45
0.988637 -0.975186 3.842000 116 76 47
0.988637 -0.968461 3.842000 116 75 48
0.988637 -0.961735 3.842000 115 76 50
0.988637 -0.955010 3.842000 114 75 50
0.977829 -0.937918 3.800000 114 72 50
0.977829 -0.931266 3.800000 114 73 50
0.977829 -0.924614 3.800000 114 76 50
0.977829 -0.917962 3.800000 115 76 44
0.977829 -0.911310 3.800000 112 76 38
0.977829 -0.904658 3.800000 110 75 41
0.988637 -0.907932 3.842000 112 73 44
0.988637 -0.901206 3.842000 114 75 40
0.988637 -0.894481 3.842000 114 76 37
0.988637 -0.887756 3.842000 114 77 42
0.988637 -0.881030 3.842000 115 78 48
0.988637 -0.874305 3.842000 116 77 47
0.988637 -0.867579 3.842000 117 77 46
0.988637 -0.860854 3.842000 119 77 47
0.988637 -0.854128 3.842000 117 77 48
0.988637 -0.847403 3.842000 116 77 47
0.988637 -0.840678 3.842000 118 77 46
0.988637 -0.833952 3.842000 120 77 46
0.977829 -0.818184 3.800000 118 78 47
0.977829 -0.811532 3.800000 116 78 48
0.977829 -0.804880 3.800000 117 79 49
0.988637 -0.807051 3.842000 118 78 46
0.988637 -0.800325 3.842000 117 78 43
0.988637 -0.793600 3.842000 116 79 42
0.988637 -0.786874 3.842000 115 80 42
0.988637 -0.780149 3.842000 115 79 45
0.988637 -0.773423 3.842000 116 78 48
0.977829 -0.758317 3.800000 117 78 49
0.988637 -0.759973 3.842000 117 79 50
0.988637 -0.753247 3.842000 117 78 50
0.988637 -0.746522 3.842000 117 78 51
0.988637 -0.739796 3.842000 118 78 49
0.988637 -0.733071 3.842000 118 79 47
0.988637 -0.726345 3.842000 119 80 44
0.988637 -0.719620 3.842000 119 81 40
0.977829 -0.705101 3.800000 120 80 43
0.988637 -0.706169 3.842000 120 79 46
0.977829 -0.691798 3.800000 121 79 47
0.977829 -0.685146 3.800000 121 79 47
0.977829 -0.678494 3.800000 121 79 49
0.988637 -0.679268 3.842000 121 83 50
0.988637 -0.672542 3.842000 121 82 44
0.988637 -0.665817 3.842000 121 82 38
0.988637 -0.659091 3.842000 122 82 43
0.988637 -0.652366 3.842000 120 86 48
0.988637 -0.645640 3.842000 119 83 49
0.988637 -0.638915 3.842000 117 81 51
0.988637 -0.632190 3.842000 115 82 51
0.988637 -0.625464 3.842000 120 84 52
0.977829 -0.611975 3.800000 126 82 53
0.977829 -0.605323 3.800000 124 82 54
0.977829 -0.598671 3.800000 123 82 57
0.977829 -0.592019 3.800000 122 82 61
0.977829 -0.585367 3.800000 121 83 59
0.977829 -0.578715 3.800000 121 84 57
0.977829 -0.572063 3.800000 122 83 55
0.988637 -0.571661 3.842000 123 84 54
0.988637 -0.564935 3.842000 125 84 51
0.988637 -0.558210 3.842000 119 84 48
0.988637 -0.551485 3.842000 114 84 50
0.988637 -0.544759 3.842000 117 85 53
0.977829 -0.532152 3.800000 121 83 49
0.977829 -0.525500 3.800000 121 83 46
0.977829 -0.518848 3.800000 121 83 52
0.977829 -0.512196 3.800000 122 86 58
0.977829 -0.505544 3.800000 124 84 54
0.977829 -0.498892 3.800000 126 84 49
0.977829 -0.492241 3.800000 129 84 54
0.977829 -0.485589 3.800000 127 84 58
0.977829 -0.478937 3.800000 125 83 56
0.977829 -0.472285 3.800000 124 83 55
0.977829 -0.465633 3.800000 123 84 54
0.977829 -0.458981 3.800000 123 86 54
0.977829 -0.452329 3.800000 123 84 57
0.977829 -0.445677 3.800000 122 84 59
0.977829 -0.439025 3.800000 122 84 55
0.977829 -0.432374 3.800000 122 86 52
0.977829 -0.425722 3.800000 123 85 52
0.977829 -0.419070 3.800000 123 83 53
0.977829 -0.412418 3.800000 124 83 54
0.977829 -0.405766 3.800000 123 83 55
0.977829 -0.399114 3.800000 123 84 56
0.988637 -0.396800 3.842000 124 85 57
0.977829 -0.385810 3.800000 125 84 60
0.977829 -0.379158 3.800000 126 84 63
0.977829 -0.372506 3.800000 128 85 59
0.977829 -0.365854 3.800000 127 86 54
0.977829 -0.359203 3.800000 126 86 55
0.977829 -0.352551 3.800000 127 86 56
0.977829 -0.345899 3.800000 128 86 54
0.977829 -0.339247 3.800000 126 86 52
0.977829 -0.332595 3.800000 124 85 49
0.988637 -0.329546 3.842000 121 86 47
0.988637 -0.322820 3.842000 119 86 53
0.988637 -0.316095 3.842000 121 87 59
0.988637 -0.309369 3.842000 124 85 55
0.977829 -0.299335 3.800000 124 85 52
0.988637 -0.295918 3.842000 125 85 51
0.988637 -0.289193 3.842000 123 85 50
0.988637 -0.282468 3.842000 122 84 48
0.988637 -0.275742 3.842000 127 83 46
0.977829 -0.266076 3.800000 133 84 48
0.977829 -0.259424 3.800000 129 85 51
0.988637 -0.255566 3.842000 125 84 49
0.977829 -0.246120 3.800000 122 85 47
0.977829 -0.239468 3.800000 120 84 45
0.977829 -0.232817 3.800000 122 84 44
0.977829 -0.226165 3.800000 124 84 46
0.977829 -0.219513 3.800000 123 84 49
0.977829 -0.212861 3.800000 123 84 49
0.977829 -0.206209 3.800000 122 82 49
0.977829 -0.199557 3.800000 122 81 46
0.977829 -0.192905 3.800000 122 82 44
0.977829 -0.186253 3.800000 123 83 43
0.977829 -0.179601 3.800000 122 84 42
0.977829 -0.172949 3.800000 121 82 39
0.977829 -0.166297 3.800000 120 81 36
0.977829 -0.159646 3.800000 119 84 43
0.977829 -0.152994 3.800000 120 86 50
0.977829 -0.146342 3.800000 121 85 49
0.977829 -0.139690 3.800000 119 84 49
0.977829 -0.133038 3.800000 117 84 46
0.977829 -0.126386 3.800000 120 85 43
0.977829 -0.119734 3.800000 124 84 44
0.977829 -0.113082 3.800000 125 84 46
0.967279 -0.105282 3.759000 126 83 46
0.977829 -0.099778 3.800000 126 84 47
0.977829 -0.093127 3.800000 127 85 47
0.977829 -0.086475 3.800000 127 88 48
0.977829 -0.079823 3.800000 128 85 48
0.977829 -0.073171 3.800000 127 84 48
0.977829 -0.066519 3.800000 126 84 48
0.977829 -0.059867 3.800000 127 84 48
0.977829 -0.053215 3.800000 128 84 49
0.977829 -0.046563 3.800000 129 84 49
0.977829 -0.039911 3.800000 130 84 51
0.977829 -0.033259 3.800000 127 85 52
0.977829 -0.026607 3.800000 125 84 51
0.977829 -0.019956 3.800000 125 83 50
0.977829 -0.013304 3.800000 125 84 48
0.977829 -0.006652 3.800000 124 84 47
0.977829 -0.000000 3.800000 124 84 46
0.977829 0.006652 3.800000 125 84 45
0.977829 0.013304 3.800000 126 83 44
0.977829 0.019956 3.800000 126 84 43
0.977829 0.026608 3.800000 126 84 44
0.988637 0.033627 3.842000 123 84 46
0.977829 0.039912 3.800000 121 83 46
0.977829 0.046563 3.800000 126 84 47
0.977829 0.053215 3.800000 131 84 45
0.977829 0.059867 3.800000 128 85 44
0.977829 0.066519 3.800000 126 85 46
0.977829 0.073171 3.800000 126 86 48
0.977829 0.079823 3.800000 126 86 48
0.977829 0.086475 3.800000 127 85 48
0.977829 0.093127 3.800000 128 86 48
0.977829 0.099779 3.800000 128 86 49
0.977829 0.106431 3.800000 128 85 51
0.977829 0.113082 3.800000 128 85 54
0.977829 0.119734 3.800000 128 85 56
0.977829 0.126386 3.800000 128 85 58
0.967279 0.131603 3.759000 128 85 52
0.967279 0.138183 3.759000 128 87 47
0.977829 0.146342 3.800000 129 86 49
0.967279 0.151343 3.759000 129 88 51
0.977829 0.159646 3.800000 130 89 52
0.977829 0.166298 3.800000 130 89 54
0.977829 0.172949 3.800000 130 88 56
0.977829 0.179601 3.800000 130 88 59
0.977829 0.186253 3.800000 130 87 55
0.977829 0.192905 3.800000 132 87 51
0.977829 0.199557 3.800000 135 87 48
0.977829 0.206209 3.800000 132 88 46
0.977829 0.212861 3.800000 129 88 48
0.977829 0.219513 3.800000 128 88 51
0.977829 0.226165 3.800000 127 90 57
0.977829 0.232817 3.800000 131 91 63
0.977829 0.239469 3.800000 135 91 59
0.977829 0.246120 3.800000 132 91 55
0.977829 0.252772 3.800000 130 91 53
0.967279 0.256625 3.759000 132 91 51
0.977829 0.266076 3.800000 135 89 54
0.977829 0.272728 3.800000 132 89 58
0.977829 0.279380 3.800000 130 90 62
0.977829 0.286032 3.800000 129 89 66
0.977829 0.292684 3.800000 129 90 65
0.977829 0.299336 3.800000 127 90 64
0.977829 0.305988 3.800000 125 91 67
0.977829 0.312640 3.800000 128 93 70
0.967279 0.315846 3.759000 131 92 63
0.967279 0.322427 3.759000 130 90 56
0.967279 0.329007 3.759000 130 92 54
0.967279 0.335587 3.759000 130 93 53
0.967279 0.342167 3.759000 130 92 55
0.967279 0.348747 3.759000 130 93 56
0.967279 0.355327 3.759000 131 93 57
0.967279 0.361907 3.759000 128 92 58
0.967279 0.368487 3.759000 125 93 58
0.967279 0.375068 3.759000 128 94 58
0.967279 0.381648 3.759000 131 92 62
0.967279 0.388228 3.759000 131 91 67
0.977829 0.399114 3.800000 132 90 61
0.977829 0.405766 3.800000 132 89 55
0.967279 0.407968 3.759000 132 90 53
0.967279 0.414548 3.759000 129 92 51
0.977829 0.425722 3.800000 126 92 51
0.977829 0.432374 3.800000 128 92 51
0.977829 0.439026 3.800000 131 92 49
0.977829 0.445677 3.800000 132 90 47
0.967279 0.447449 3.759000 133 91 49
0.977829 0.458981 3.800000 132 94 51
0.977829 0.465633 3.800000 131 93 54
0.967279 0.467189 3.759000 131 93 57
0.967279 0.473769 3.759000 131 94 56
0.967279 0.480350 3.759000 129 96 55
0.967279 0.486930 3.759000 127 93 59
0.967279 0.493510 3.759000 128 90 63
0.967279 0.500090 3.759000 130 92 61
0.977829 0.512197 3.800000 130 93 58
0.977829 0.518848 3.800000 131 91 58
0.967279 0.519830 3.759000 129 90 57
0.967279 0.526410 3.759000 127 91 56
0.977829 0.538804 3.800000 124 89 55
0.977829 0.545456 3.800000 121 89 53
0.977829 0.552108 3.800000 123 87 52
0.977829 0.558760 3.800000 126 88 54
0.977829 0.565412 3.800000 123 89 56
0.977829 0.572064 3.800000 120 87 54
0.967279 0.572471 3.759000 124 86 53
0.967279 0.579052 3.759000 128 88 56
0.967279 0.585632 3.759000 129 89 60
0.956729 0.585753 3.718000 130 90 60
0.956729 0.592261 3.718000 130 92 61
0.967279 0.605372 3.759000 131 91 59
0.967279 0.611952 3.759000 130 91 57
0.967279 0.618532 3.759000 129 91 57
0.967279 0.625112 3.759000 129 91 58
0.967279 0.631693 3.759000 129 89 57
0.967279 0.638273 3.759000 128 87 57
0.977829 0.651886 3.800000 128 87 60
0.977829 0.658538 3.800000 125 89 64
0.977829 0.665190 3.800000 122 90 61
0.977829 0.671842 3.800000 122 91 58
0.977829 0.678494 3.800000 122 80 54
0.967279 0.677754 3.759000 67 60 49
0.967279 0.684334 3.759000 12 20 34
0.967279 0.690914 3.759000 21 8 19
0.967279 0.697494 3.759000 31 14 20
0.967279 0.704074 3.759000 24 14 21
0.967279 0.710654 3.759000 17 14 16
0.967279 0.717234 3.759000 18 12 11
0.967279 0.723814 3.759000 19 13 8
0.967279 0.730395 3.759000 22 13 6
0.684223 0.716805 2.659000 122 99 89
0.679077 0.716033 2.639000 122 98 88
0.673930 0.715191 2.619000 123 99 90
0.668784 0.714279 2.599000 122 101 92
0.663895 0.713574 2.580000 122 99 91
0.663895 0.718090 2.580000 121 97 91
0.654116 0.711963 2.542000 121 97 90
0.654116 0.716413 2.542000 121 98 90
0.644595 0.710371 2.505000 121 96 89
0.635332 0.704484 2.469000 122 96 88
0.630700 0.703638 2.451000 123 97 88
0.626325 0.703018 2.434000 125 97 88
0.621951 0.702339 2.417000 127 97 86
0.617576 0.701601 2.400000 125 98 84
0.613459 0.701096 2.384000 123 98 86
0.609085 0.700240 2.367000 123 98 88
0.604968 0.699623 2.351000 124 98 89
0.600850 0.698949 2.335000 122 97 91
0.585154 0.684670 2.274000 120 96 88
0.581294 0.684108 2.259000 120 96 84
0.577434 0.683493 2.244000 120 96 89
0.573831 0.683133 2.230000 120 95 93
0.569972 0.682415 2.215000 121 93 89
0.566369 0.681955 2.201000 120 92 86
0.562766 0.681445 2.187000 119 92 85
0.559421 0.681200 2.174000 118 94 84
0.559421 0.685006 2.174000 117 93 84
0.555819 0.684376 2.160000 116 94 84
0.552474 0.684015 2.147000 115 95 83
0.545526 0.679124 2.120000 115 96 83
0.539093 0.674783 2.095000 115 94 82
0.532402 0.670030 2.069000 115 91 82
0.532402 0.673652 2.069000 115 92 83
0.529314 0.673346 2.057000 113 94 84
0.529314 0.676947 2.057000 111 93 84
0.523139 0.672607 2.033000 113 93 85
0.516963 0.668183 2.009000 116 92 81
0.511045 0.664010 1.986000 115 92 77
0.508214 0.663790 1.975000 115 93 83
0.502295 0.659477 1.952000 118 95 89
0.499465 0.659158 1.941000 121 93 84
0.496892 0.659142 1.931000 117 93 79
0.494061 0.658748 1.920000 113 93 80
0.491231 0.658316 1.909000 117 91 82
0.488657 0.658192 1.899000 121 91 84
0.483254 0.654201 1.878000 116 93 86
0.480680 0.653987 1.868000 111 93 83
0.475534 0.650220 1.848000 111 92 81
0.472961 0.649919 1.838000 111 91 83
0.470387 0.649583 1.828000 110 90 84
0.468071 0.649569 1.819000 110 90 81
0.468071 0.652753 1.819000 108 92 77
0.465498 0.652331 1.809000 107 90 80
0.463182 0.652236 1.800000 108 90 83
0.460609 0.651746 1.790000 110 88 81
0.458293 0.651587 1.781000 109 87 79
0.455977 0.651396 1.772000 108 88 79
0.449030 0.644525 1.745000 104 90 78
0.444655 0.641271 1.728000 100 90 73
0.442339 0.640940 1.719000 104 89 67
0.440280 0.640953 1.711000 108 88 74
0.437965 0.640561 1.702000 107 88 81
0.437965 0.643540 1.702000 106 87 79
0.435906 0.643480 1.694000 103 86 77
0.431531 0.639958 1.677000 100 88 78
0.429473 0.639827 1.669000 105 90 80
0.427414 0.639668 1.661000 111 88 83
0.423297 0.636386 1.645000 109 86 85
0.419437 0.633436 1.630000 107 86 82
0.417379 0.633166 1.622000 104 87 79
0.415577 0.633261 1.615000 102 86 76
0.415577 0.636088 1.615000 99 85 73
0.413519 0.635750 1.607000 96 85 79
0.411718 0.635782 1.600000 99 83 84
0.409659 0.635390 1.592000 102 85 82
0.406056 0.632564 1.578000 101 88 79
0.402197 0.629287 1.563000 101 88 81
0.400395 0.629193 1.556000 102 87 84
0.398594 0.629074 1.549000 104 86 78
0.396793 0.628930 1.542000 102 83 73
0.395249 0.629172 1.536000 101 83 74
0.393448 0.628981 1.529000 102 84 76
0.391646 0.628766 1.522000 103 85 74
0.388301 0.626037 1.509000 103 86 71
0.386500 0.625762 1.502000 103 85 75
0.384956 0.625881 1.496000 103 86 79
0.995362 -1.358535 3.842000 104 67 36
0.995362 -1.351810 3.842000 104 68 39
0.995362 -1.345084 3.842000 104 68 36
0.995362 -1.338359 3.842000 104 68 34
0.995362 -1.331634 3.842000 105 69 24
0.995362 -1.324908 3.842000 106 70 14
0.995362 -1.318183 3.842000 107 72 24
0.995362 -1.311457 3.842000 109 68 34
0.995362 -1.304732 3.842000 111 67 30
0.995362 -1.298006 3.842000 108 70 26
0.995362 -1.291281 3.842000 106 72 31
0.995362 -1.284556 3.842000 104 69 36
0.995362 -1.277830 3.842000 102 71 35
0.995362 -1.271105 3.842000 101 70 34
0.995362 -1.264379 3.842000 100 71 32
0.995362 -1.257654 3.842000 99 66 31
1.006503 -1.264929 3.885000 98 58 32
1.006503 -1.258128 3.885000 96 62 34
1.006503 -1.251328 3.885000 93 65 30
1.006503 -1.244527 3.885000 97 67 26
1.006503 -1.237726 3.885000 102 69 31
0.995362 -1.217301 3.842000 103 70 37
0.995362 -1.210576 3.842000 105 71 39
0.984481 -1.190690 3.800000 108 72 41
0.984481 -1.184038 3.800000 110 73 47
0.984481 -1.177386 3.800000 109 73 54
0.984481 -1.170735 3.800000 108 74 42
0.995362 -1.176949 3.842000 108 75 31
0.995362 -1.170223 3.842000 108 75 35
0.995362 -1.163498 3.842000 107 74 39
0.995362 -1.156772 3.842000 107 72 39
0.995362 -1.150047 3.842000 108 71 40
0.995362 -1.143322 3.842000 109 72 40
0.995362 -1.136596 3.842000 108 74 40
0.995362 -1.129871 3.842000 108 77 41
0.984481 -1.110867 3.800000 108 73 42
0.984481 -1.104216 3.800000 108 71 43
0.984481 -1.097564 3.800000 110 74 44
0.995362 -1.102969 3.842000 113 75 47
0.995362 -1.096244 3.842000 112 75 51
0.995362 -1.089518 3.842000 111 76 48
0.995362 -1.082793 3.842000 109 73 46
0.995362 -1.076067 3.842000 108 73 46
0.984481 -1.057652 3.800000 108 73 47
0.995362 -1.062617 3.842000 109 74 44
0.984481 -1.044348 3.800000 110 76 42
0.984481 -1.037696 3.800000 111 77 43
0.984481 -1.031045 3.800000 111 77 45
0.984481 -1.024393 3.800000 111 79 37
0.984481 -1.017741 3.800000 110 77 30
0.984481 -1.011089 3.800000 110 77 46
0.984481 -1.004437 3.800000 112 76 63
0.984481 -0.997785 3.800000 113 77 55
0.995362 -1.002088 3.842000 113 77 47
0.995362 -0.995362 3.842000 114 77 45
0.995362 -0.988637 3.842000 115 77 44
0.995362 -0.981912 3.842000 116 76 46
0.995362 -0.975186 3.842000 117 76 48
0.995362 -0.968461 3.842000 118 76 47
0.984481 -0.951222 3.800000 113 76 46
0.984481 -0.944570 3.800000 109 78 49
0.984481 -0.937918 3.800000 111 74 53
0.984481 -0.931266 3.800000 113 73 56
0.984481 -0.924614 3.800000 113 75 59
0.984481 -0.917962 3.800000 114 77 53
0.984481 -0.911310 3.800000 113 77 47
0.984481 -0.904658 3.800000 111 77 45
0.995362 -0.907932 3.842000 112 75 44
0.995362 -0.901206 3.842000 114 75 38
0.984481 -0.884703 3.800000 113 76 32
0.995362 -0.887756 3.842000 112 78 43
0.984481 -0.871399 3.800000 113 77 54
0.984481 -0.864747 3.800000 114 77 49
0.984481 -0.858095 3.800000 115 77 44
0.984481 -0.851443 3.800000 116 78 44
0.984481 -0.844791 3.800000 116 77 44
0.984481 -0.838139 3.800000 115 78 44
0.984481 -0.831488 3.800000 116 77 45
0.984481 -0.824836 3.800000 117 77 47
0.984481 -0.818184 3.800000 116 78 49
0.984481 -0.811532 3.800000 115 80 49
0.984481 -0.804880 3.800000 116 78 50
0.984481 -0.798228 3.800000 116 77 41
0.984481 -0.791576 3.800000 115 78 32
0.984481 -0.784924 3.800000 113 80 36
0.984481 -0.778272 3.800000 114 79 41
0.984481 -0.771620 3.800000 115 80 45
0.984481 -0.764969 3.800000 116 78 49
0.984481 -0.758317 3.800000 117 77 49
0.984481 -0.751665 3.800000 116 77 50
0.984481 -0.745013 3.800000 116 77 50
0.984481 -0.738361 3.800000 117 78 50
0.984481 -0.731709 3.800000 118 78 47
0.984481 -0.725057 3.800000 118 79 44
0.984481 -0.718405 3.800000 119 80 40
0.984481 -0.711753 3.800000 117 80 36
0.984481 -0.705101 3.800000 115 80 41
0.984481 -0.698450 3.800000 117 79 47
0.984481 -0.691798 3.800000 120 78 46
0.984481 -0.685146 3.800000 120 79 46
0.984481 -0.678494 3.800000 121 80 49
0.984481 -0.671842 3.800000 122 81 52
0.984481 -0.665190 3.800000 123 83 49
0.995362 -0.665817 3.842000 122 82 47
0.984481 -0.651886 3.800000 122 83 48
0.984481 -0.645234 3.800000 121 84 49
0.984481 -0.638582 3.800000 120 85 50
0.984481 -0.631931 3.800000 119 82 51
0.984481 -0.625279 3.800000 118 82 51
0.984481 -0.618627 3.800000 121 81 52
0.984481 -0.611975 3.800000 124 81 53
0.984481 -0.605323 3.800000 123 81 54
0.984481 -0.598671 3.800000 123 82 56
0.984481 -0.592019 3.800000 123 81 58
0.984481 -0.585367 3.800000 123 82 56
0.984481 -0.578715 3.800000 122 82 55
0.984481 -0.572063 3.800000 122 82 54
0.984481 -0.565412 3.800000 123 83 54
0.984481 -0.558760 3.800000 123 85 54
0.984481 -0.552108 3.800000 120 85 55
0.984481 -0.545456 3.800000 117 85 54
0.984481 -0.538804 3.800000 119 84 53
0.984481 -0.532152 3.800000 121 82 47
0.984481 -0.525500 3.800000 121 82 42
0.984481 -0.518848 3.800000 121 83 47
0.984481 -0.512196 3.800000 122 84 52
0.984481 -0.505544 3.800000 123 85 48
0.973859 -0.493510 3.759000 125 84 44
0.984481 -0.492241 3.800000 127 84 48
0.984481 -0.485589 3.800000 125 84 53
0.984481 -0.478937 3.800000 124 84 54
0.984481 -0.472285 3.800000 124 83 55
0.984481 -0.465633 3.800000 123 85 53
0.984481 -0.458981 3.800000 123 84 51
0.984481 -0.452329 3.800000 122 84 53
0.984481 -0.445677 3.800000 121 84 55
0.984481 -0.439025 3.800000 119 84 53
0.984481 -0.432374 3.800000 121 85 52
0.984481 -0.425722 3.800000 123 84 53
0.984481 -0.419070 3.800000 123 83 55
0.984481 -0.412418 3.800000 123 83 55
0.984481 -0.405766 3.800000 124 83 55
0.984481 -0.399114 3.800000 124 85 56
0.984481 -0.392462 3.800000 124 84 57
0.984481 -0.385810 3.800000 124 84 59
0.984481 -0.379158 3.800000 123 84 61
0.984481 -0.372506 3.800000 122 85 57
0.984481 -0.365854 3.800000 123 86 54
0.984481 -0.359203 3.800000 124 88 56
0.984481 -0.352551 3.800000 125 86 59
0.984481 -0.345899 3.800000 126 85 54
0.984481 -0.339247 3.800000 125 85 50
0.984481 -0.332595 3.800000 124 85 46
0.984481 -0.325943 3.800000 122 86 43
0.984481 -0.319291 3.800000 121 87 48
0.984481 -0.312639 3.800000 122 86 53
0.984481 -0.305987 3.800000 123 85 52
0.984481 -0.299335 3.800000 124 85 51
0.984481 -0.292684 3.800000 125 85 52
0.984481 -0.286032 3.800000 124 84 53
0.984481 -0.279380 3.800000 124 85 51
0.984481 -0.272728 3.800000 127 84 49
0.984481 -0.266076 3.800000 129 85 49
0.984481 -0.259424 3.800000 127 84 49
0.984481 -0.252772 3.800000 125 83 47
0.984481 -0.246120 3.800000 124 83 46
0.984481 -0.239468 3.800000 123 84 44
0.984481 -0.232817 3.800000 123 84 42
0.973859 -0.223724 3.759000 123 84 44
0.973859 -0.217144 3.759000 120 85 47
0.973859 -0.210564 3.759000 118 87 49
0.973859 -0.203984 3.759000 120 82 51
0.973859 -0.197404 3.759000 122 81 47
0.973859 -0.190824 3.759000 122 82 44
0.984481 -0.186253 3.800000 123 84 41
0.973859 -0.177663 3.759000 122 82 39
0.973859 -0.171083 3.759000 121 80 31
0.973859 -0.164503 3.759000 120 81 23
0.973859 -0.157923 3.759000 120 84 36
0.963237 -0.149692 3.718000 121 84 50
0.973859 -0.144763 3.759000 122 85 49
0.973859 -0.138183 3.759000 121 83 48
0.973859 -0.131603 3.759000 120 84 42
0.973859 -0.125022 3.759000 122 84 36
0.973859 -0.118442 3.759000 124 85 41
0.973859 -0.111862 3.759000 124 84 46
0.973859 -0.105282 3.759000 125 84 46
0.973859 -0.098702 3.759000 124 84 47
0.973859 -0.092122 3.759000 123 85 46
0.973859 -0.085542 3.759000 124 84 46
0.973859 -0.078961 3.759000 125 83 46
0.973859 -0.072381 3.759000 124 83 47
0.984481 -0.066519 3.800000 123 84 48
0.984481 -0.059867 3.800000 125 84 50
0.984481 -0.053215 3.800000 126 85 50
0.984481 -0.046563 3.800000 127 83 50
0.984481 -0.039911 3.800000 128 84 48
0.984481 -0.033259 3.800000 126 83 46
0.984481 -0.026607 3.800000 125 83 47
0.984481 -0.019956 3.800000 125 83 49
0.984481 -0.013304 3.800000 124 84 46
0.984481 -0.006652 3.800000 124 83 44
0.984481 -0.000000 3.800000 125 84 41
0.984481 0.006652 3.800000 125 83 39
0.973859 0.013160 3.759000 126 82 40
0.984481 0.019956 3.800000 126 83 42
0.984481 0.026608 3.800000 126 84 44
0.984481 0.033260 3.800000 124 83 46
0.984481 0.039912 3.800000 123 82 46
0.984481 0.046563 3.800000 126 83 46
0.984481 0.053215 3.800000 128 84 42
0.984481 0.059867 3.800000 127 85 39
0.984481 0.066519 3.800000 126 86 42
0.984481 0.073171 3.800000 126 85 46
0.984481 0.079823 3.800000 127 86 39
0.984481 0.086475 3.800000 127 86 33
0.973859 0.092122 3.759000 128 88 41
0.973859 0.098702 3.759000 127 87 49
0.973859 0.105282 3.759000 126 87 52
0.963237 0.110642 3.718000 127 85 55
0.963237 0.117151 3.718000 129 86 57
0.963237 0.123659 3.718000 129 86 60
0.963237 0.130167 3.718000 129 87 55
0.973859 0.138183 3.759000 131 87 50
0.973859 0.144763 3.759000 133 87 50
0.973859 0.151343 3.759000 131 88 51
0.973859 0.157923 3.759000 130 90 54
0.973859 0.164503 3.759000 128 88 57
0.973859 0.171083 3.759000 127 88 60
0.973859 0.177664 3.759000 127 88 64
0.973859 0.184244 3.759000 128 89 59
0.984481 0.192905 3.800000 130 88 55
0.984481 0.199557 3.800000 132 88 53
0.984481 0.206209 3.800000 130 88 51
0.984481 0.212861 3.800000 128 90 50
0.984481 0.219513 3.800000 128 90 49
0.984481 0.226165 3.800000 128 90 53
0.984481 0.232817 3.800000 130 91 58
0.984481 0.239469 3.800000 133 92 58
0.973859 0.243465 3.759000 131 91 58
0.973859 0.250045 3.759000 129 92 55
0.963237 0.253826 3.718000 131 91 52
0.973859 0.263205 3.759000 132 89 55
0.973859 0.269785 3.759000 131 90 58
0.973859 0.276366 3.759000 130 92 60
0.973859 0.282946 3.759000 129 91 62
0.973859 0.289526 3.759000 129 92 62
0.973859 0.296106 3.759000 127 91 63
0.973859 0.302686 3.759000 126 91 64
0.973859 0.309266 3.759000 129 92 65
0.973859 0.315846 3.759000 132 93 60
0.963237 0.318910 3.718000 131 92 56
0.973859 0.329007 3.759000 130 93 54
0.973859 0.335587 3.759000 131 92 53
0.963237 0.338435 3.718000 131 91 54
0.963237 0.344943 3.718000 131 93 56
0.963237 0.351451 3.718000 132 93 58
0.973859 0.361907 3.759000 131 92 61
0.973859 0.368487 3.759000 131 93 60
0.973859 0.375068 3.759000 132 93 59
0.963237 0.377485 3.718000 133 94 66
0.973859 0.388228 3.759000 132 92 74
0.973859 0.394808 3.759000 132 92 64
0.963237 0.397010 3.718000 132 90 55
0.963237 0.403518 3.718000 132 92 53
0.963237 0.410027 3.718000 131 92 51
0.973859 0.421128 3.759000 129 92 50
0.973859 0.427708 3.759000 131 92 49
0.973859 0.434289 3.759000 132 93 44
0.973859 0.440869 3.759000 133 91 39
0.973859 0.447449 3.759000 134 91 44
0.973859 0.454029 3.759000 133 92 50
0.973859 0.460609 3.759000 131 92 55
0.973859 0.467189 3.759000 131 93 60
0.963237 0.468602 3.718000 131 95 58
0.963237 0.475110 3.718000 130 93 56
0.963237 0.481619 3.718000 129 92 59
0.963237 0.488127 3.718000 130 91 62
0.963237 0.494635 3.718000 131 92 61
0.973859 0.506670 3.759000 131 92 60
0.973859 0.513250 3.759000 131 91 59
0.973859 0.519830 3.759000 130 91 58
0.973859 0.526410 3.759000 130 93 56
0.973859 0.532991 3.759000 128 91 55
0.973859 0.539571 3.759000 126 90 57
0.973859 0.546151 3.759000 126 89 59
0.973859 0.552731 3.759000 127 89 60
0.973859 0.559311 3.759000 125 89 62
0.973859 0.565891 3.759000 124 88 58
0.963237 0.566227 3.718000 126 87 55
0.963237 0.572736 3.718000 128 88 57
0.963237 0.579244 3.718000 129 88 60
0.953133 0.579608 3.679000 131 89 60
0.953133 0.586048 3.679000 132 90 60
0.963237 0.598769 3.718000 134 89 58
0.963237 0.605278 3.718000 131 90 56
0.963237 0.611786 3.718000 128 91 57
0.963237 0.618294 3.718000 129 90 58
0.973859 0.631693 3.759000 131 90 57
0.973859 0.638273 3.759000 129 88 57
0.973859 0.644853 3.759000 128 87 57
0.973859 0.651433 3.759000 125 89 58
0.973859 0.658013 3.759000 123 89 59
0.973859 0.664593 3.759000 123 90 60
0.973859 0.671173 3.759000 123 93 55
0.963237 0.670361 3.718000 73 63 51
0.953133 0.669769 3.679000 24 12 31
0.963237 0.683378 3.718000 28 12 12
0.963237 0.689886 3.718000 33 21 15
0.963237 0.696395 3.718000 27 18 18
0.963237 0.702903 3.718000 21 14 13
0.963237 0.709411 3.718000 20 12 8
0.963237 0.715920 3.718000 19 14 5
0.963237 0.722428 3.718000 21 14 3
0.678515 0.710607 2.619000 123 98 89
0.673333 0.709730 2.599000 124 98 89
0.673333 0.714279 2.599000 123 98 89
0.668411 0.713574 2.580000 121 99 91
0.663230 0.712524 2.560000 119 97 93
0.658566 0.711963 2.542000 116 96 91
0.658566 0.716413 2.542000 118 96 89
0.648980 0.710371 2.505000 119 97 88
0.639654 0.704484 2.469000 120 98 88
0.634990 0.703638 2.451000 121 99 86
0.630586 0.703018 2.434000 121 97 84
0.626182 0.702339 2.417000 122 96 83
0.621778 0.701601 2.400000 121 97 83
0.617632 0.701096 2.384000 120 98 85
0.613228 0.700240 2.367000 118 98 88
0.609083 0.699623 2.351000 116 100 89
0.604938 0.698949 2.335000 118 98 90
0.593020 0.689186 2.289000 119 96 86
0.585248 0.684108 2.259000 119 96 82
0.581362 0.683493 2.244000 119 96 85
0.577735 0.683133 2.230000 120 94 88
0.573849 0.682415 2.215000 122 94 87
0.570222 0.681955 2.201000 120 93 86
0.566595 0.681445 2.187000 118 93 85
0.563227 0.681200 2.174000 117 94 84
0.563227 0.685006 2.174000 117 94 84
0.559600 0.684376 2.160000 116 94 84
0.556232 0.684015 2.147000 115 95 83
0.549237 0.679124 2.120000 115 96 82
0.545869 0.678648 2.107000 115 98 81
0.536024 0.670030 2.069000 115 93 81
0.536024 0.673652 2.069000 115 93 82
0.532915 0.673346 2.057000 112 93 84
0.529806 0.672997 2.045000 110 93 85
0.523589 0.668637 2.021000 112 92 87
0.520480 0.668183 2.009000 114 92 83
0.517630 0.668023 1.998000 113 92 80
0.511671 0.663790 1.975000 112 91 82
0.505713 0.659477 1.952000 114 92 85
0.502863 0.659158 1.941000 117 92 81
0.500272 0.659142 1.931000 114 93 77
0.497422 0.658748 1.920000 111 96 79
0.494572 0.658316 1.909000 112 93 81
0.491982 0.658192 1.899000 114 92 85
0.489132 0.657684 1.888000 112 92 89
0.483950 0.653987 1.868000 111 93 86
0.478769 0.650220 1.848000 110 92 83
0.476178 0.649919 1.838000 110 92 82
0.473587 0.649583 1.828000 110 90 81
0.471256 0.649569 1.819000 111 90 77
0.471256 0.652753 1.819000 112 91 73
0.468665 0.652331 1.809000 113 90 79
0.466333 0.652236 1.800000 112 89 85
0.463742 0.651746 1.790000 111 89 82
0.461411 0.651587 1.781000 109 88 80
0.459079 0.651396 1.772000 108 88 79
0.452084 0.644525 1.745000 106 88 79
0.447680 0.641271 1.728000 104 90 77
0.445348 0.640940 1.719000 106 89 76
0.443276 0.640953 1.711000 108 89 78
0.443276 0.643948 1.711000 107 88 80
0.440944 0.643540 1.702000 106 89 78
0.438871 0.643480 1.694000 104 88 77
0.434467 0.639958 1.677000 102 90 79
0.432395 0.639827 1.669000 105 90 81
0.432395 0.642749 1.669000 109 90 81
0.428249 0.639481 1.653000 108 88 82
0.422291 0.633436 1.630000 107 88 82
0.420218 0.633166 1.622000 105 87 82
0.418405 0.633261 1.615000 103 87 80
0.416332 0.632937 1.607000 101 86 78
0.416332 0.635750 1.607000 100 86 79
0.414518 0.635782 1.600000 101 84 80
0.412446 0.635390 1.592000 102 84 80
0.408819 0.632564 1.578000 101 86 80
0.404933 0.629287 1.563000 101 87 85
0.403119 0.629193 1.556000 102 87 90
0.401306 0.629074 1.549000 103 87 85
0.399492 0.628930 1.542000 101 85 81
0.397938 0.629172 1.536000 100 84 79
0.396124 0.628981 1.529000 101 84 78
0.394311 0.628766 1.522000 103 84 78
0.390943 0.626037 1.509000 103 84 78
0.389129 0.625762 1.502000 103 85 80
0.387575 0.625881 1.496000 103 85 82
0.991133 -1.343684 3.800000 103 69 34
0.991133 -1.337032 3.800000 103 71 30
0.991133 -1.330380 3.800000 103 69 31
0.991133 -1.323728 3.800000 104 68 33
0.991133 -1.317076 3.800000 105 69 26
0.991133 -1.310424 3.800000 106 72 19
0.991133 -1.303773 3.800000 107 71 26
1.002088 -1.311457 3.842000 111 70 32
1.002088 -1.304732 3.842000 115 71 33
1.002088 -1.298006 3.842000 111 73 35
1.002088 -1.291281 3.842000 107 71 35
1.002088 -1.284556 3.842000 103 67 35
1.002088 -1.277830 3.842000 100 67 35
1.002088 -1.271105 3.842000 99 69 36
1.002088 -1.264379 3.842000 98 67 33
1.002088 -1.257654 3.842000 99 64 31
1.002088 -1.250928 3.842000 100 62 31
1.002088 -1.244203 3.842000 101 62 31
1.002088 -1.237478 3.842000 103 67 31
1.002088 -1.230752 3.842000 104 71 32
1.002088 -1.224027 3.842000 105 70 37
1.002088 -1.217301 3.842000 107 71 42
0.991133 -1.197342 3.800000 109 71 41
0.991133 -1.190690 3.800000 110 71 41
0.991133 -1.184038 3.800000 111 72 44
0.991133 -1.177386 3.800000 109 71 47
0.991133 -1.170735 3.800000 108 74 38
0.991133 -1.164083 3.800000 107 77 30
0.991133 -1.157431 3.800000 107 74 33
0.991133 -1.150779 3.800000 106 73 36
1.002088 -1.156772 3.842000 105 73 37
1.002088 -1.150047 3.842000 107 73 38
1.002088 -1.143322 3.842000 110 74 39
1.002088 -1.136596 3.842000 109 74 41
0.991133 -1.117519 3.800000 109 75 40
0.991133 -1.110867 3.800000 108 74 39
0.991133 -1.104216 3.800000 107 74 38
0.991133 -1.097564 3.800000 108 77 38
0.991133 -1.090912 3.800000 109 76 40
0.991133 -1.084260 3.800000 109 76 42
0.991133 -1.077608 3.800000 110 75 42
0.991133 -1.070956 3.800000 108 73 41
0.991133 -1.064304 3.800000 107 74 43
0.991133 -1.057652 3.800000 108 74 45
0.991133 -1.051000 3.800000 109 75 43
0.991133 -1.044348 3.800000 111 78 42
0.991133 -1.037696 3.800000 113 77 43
0.991133 -1.031045 3.800000 112 78 45
0.991133 -1.024393 3.800000 112 78 41
0.980439 -1.006760 3.759000 113 79 37
0.991133 -1.011089 3.800000 114 76 46
0.991133 -1.004437 3.800000 114 77 55
0.991133 -0.997785 3.800000 114 77 49
0.991133 -0.991133 3.800000 114 78 43
0.991133 -0.984481 3.800000 114 77 42
0.991133 -0.977829 3.800000 115 77 41
0.991133 -0.971177 3.800000 116 77 42
0.991133 -0.964525 3.800000 118 78 43
0.991133 -0.957874 3.800000 120 77 43
0.991133 -0.951222 3.800000 112 77 44
0.991133 -0.944570 3.800000 105 77 46
0.980439 -0.927798 3.759000 108 74 49
0.980439 -0.921218 3.759000 112 75 51
0.991133 -0.924614 3.800000 113 77 52
0.991133 -0.917962 3.800000 114 77 49
0.991133 -0.911310 3.800000 113 78 45
0.991133 -0.904658 3.800000 113 77 44
0.991133 -0.898007 3.800000 113 75 43
0.991133 -0.891355 3.800000 114 75 40
0.991133 -0.884703 3.800000 112 76 37
0.991133 -0.878051 3.800000 111 77 41
0.991133 -0.871399 3.800000 112 77 46
0.991133 -0.864747 3.800000 113 77 45
0.991133 -0.858095 3.800000 113 78 44
0.980439 -0.842257 3.759000 114 78 42
0.980439 -0.835676 3.759000 114 78 41
0.991133 -0.838139 3.800000 115 78 43
0.980439 -0.822516 3.759000 114 79 46
0.980439 -0.815936 3.759000 114 78 46
0.980439 -0.809356 3.759000 114 78 46
0.991133 -0.811532 3.800000 115 78 51
0.980439 -0.796196 3.759000 115 77 56
0.991133 -0.798228 3.800000 115 78 46
0.991133 -0.791576 3.800000 113 79 37
0.991133 -0.784924 3.800000 111 79 40
0.991133 -0.778272 3.800000 113 79 43
0.991133 -0.771620 3.800000 115 79 48
0.980439 -0.756715 3.759000 116 78 53
0.980439 -0.750135 3.759000 117 78 51
0.980439 -0.743555 3.759000 116 77 48
0.980439 -0.736974 3.759000 115 78 51
0.980439 -0.730394 3.759000 116 79 54
0.991133 -0.731709 3.800000 118 79 49
0.980439 -0.717234 3.759000 118 80 43
0.980439 -0.710654 3.759000 119 80 41
0.980439 -0.704074 3.759000 114 82 39
0.980439 -0.697494 3.759000 110 81 47
0.980439 -0.690914 3.759000 114 81 54
0.980439 -0.684333 3.759000 119 80 50
0.980439 -0.677753 3.759000 120 81 46
0.991133 -0.678494 3.800000 122 81 47
0.991133 -0.671842 3.800000 123 81 49
0.991133 -0.665190 3.800000 125 81 52
0.991133 -0.658538 3.800000 123 81 55
0.991133 -0.651886 3.800000 122 82 52
0.991133 -0.645234 3.800000 121 82 50
0.991133 -0.638582 3.800000 121 83 49
0.991133 -0.631931 3.800000 121 82 49
0.991133 -0.625279 3.800000 122 81 49
0.980439 -0.611952 3.759000 122 78 49
0.991133 -0.611975 3.800000 122 80 50
0.980439 -0.598792 3.759000 123 82 51
0.980439 -0.592212 3.759000 124 81 52
0.980439 -0.585631 3.759000 124 81 53
0.980439 -0.579051 3.759000 125 82 52
0.991133 -0.578715 3.800000 124 82 52
0.980439 -0.565891 3.759000 123 82 50
0.980439 -0.559311 3.759000 122 82 49
0.991133 -0.558760 3.800000 122 84 49
0.991133 -0.552108 3.800000 121 86 50
0.980439 -0.539571 3.759000 121 85 50
0.980439 -0.532990 3.759000 121 85 51
0.980439 -0.526410 3.759000 121 83 48
0.980439 -0.519830 3.759000 121 83 46
0.991133 -0.518848 3.800000 121 83 53
0.980439 -0.506670 3.759000 121 84 60
0.980439 -0.500090 3.759000 122 85 52
0.980439 -0.493510 3.759000 123 85 44
0.980439 -0.486930 3.759000 125 85 47
0.980439 -0.480349 3.759000 124 85 51
0.980439 -0.473769 3.759000 124 84 54
0.980439 -0.467189 3.759000 124 82 58
0.980439 -0.460609 3.759000 124 83 55
0.980439 -0.454029 3.759000 123 83 53
0.980439 -0.447449 3.759000 122 84 55
0.980439 -0.440869 3.759000 119 84 58
0.980439 -0.434289 3.759000 117 84 54
0.980439 -0.427708 3.759000 120 87 50
0.980439 -0.421128 3.759000 123 86 51
0.980439 -0.414548 3.759000 123 84 52
0.980439 -0.407968 3.759000 123 83 52
0.980439 -0.401388 3.759000 124 84 51
0.980439 -0.394808 3.759000 126 84 52
0.980439 -0.388228 3.759000 124 84 54
0.980439 -0.381647 3.759000 123 84 59
0.980439 -0.375067 3.759000 120 85 65
0.980439 -0.368487 3.759000 117 86 59
0.991133 -0.365854 3.800000 120 87 53
0.980439 -0.355327 3.759000 123 87 52
0.980439 -0.348747 3.759000 124 86 52
0.980439 -0.342167 3.759000 125 86 50
0.980439 -0.335587 3.759000 125 86 49
0.991133 -0.332595 3.800000 125 86 47
0.991133 -0.325943 3.800000 124 87 46
0.991133 -0.319291 3.800000 123 86 51
0.991133 -0.312639 3.800000 123 85 57
0.991133 -0.305987 3.800000 123 85 53
0.991133 -0.299335 3.800000 124 85 49
0.991133 -0.292684 3.800000 125 85 49
0.991133 -0.286032 3.800000 126 84 49
0.991133 -0.279380 3.800000 127 85 47
0.991133 -0.272728 3.800000 126 86 45
0.980439 -0.263205 3.759000 126 85 46
0.980439 -0.256625 3.759000 126 84 47
0.980439 -0.250045 3.759000 126 83 50
0.980439 -0.243465 3.759000 126 83 52
0.980439 -0.236885 3.759000 127 83 48
0.980439 -0.230305 3.759000 124 84 43
