ply
format ascii 1.0
element vertex 1316
property float x
property float y
property float z
property uchar red
property uchar green
property uchar blue
end_header
0.770395 -0.071333 1.630000 14 15 15
0.770395 -0.068480 1.630000 16 18 13
0.770395 -0.065626 1.630000 17 18 12
0.770395 -0.062773 1.630000 18 20 12
0.766614 -0.059626 1.622000 19 19 12
0.766614 -0.056786 1.622000 20 18 15
0.770395 -0.054213 1.630000 22 18 19
0.766614 -0.051108 1.622000 25 18 20
0.766614 -0.048268 1.622000 23 19 21
0.766614 -0.045429 1.622000 22 20 23
0.766614 -0.042590 1.622000 23 22 26
0.766614 -0.039750 1.622000 24 25 26
0.766614 -0.036911 1.622000 26 25 26
0.766614 -0.034072 1.622000 28 26 26
0.763306 -0.031098 1.615000 30 25 26
0.766614 -0.028393 1.622000 33 26 27
0.766614 -0.025554 1.622000 33 27 28
0.766614 -0.022714 1.622000 34 31 23
0.766614 -0.019875 1.622000 34 30 19
0.770395 -0.017120 1.630000 35 29 17
0.770395 -0.014267 1.630000 38 29 15
0.770395 -0.011413 1.630000 40 31 20
0.770395 -0.008560 1.630000 37 32 26
0.770395 -0.005707 1.630000 34 33 29
0.770395 -0.002853 1.630000 35 32 33
0.770395 -0.000000 1.630000 36 33 33
0.770395 0.002853 1.630000 38 32 33
0.770395 0.005707 1.630000 41 32 32
0.770395 0.008560 1.630000 47 40 31
0.770395 0.011413 1.630000 54 49 40
0.768505 0.014232 1.626000 35 37 50
0.777485 0.017278 1.645000 17 14 32
0.759525 0.019691 1.607000 62 29 15
0.759525 0.022504 1.607000 106 77 45
0.756216 0.025207 1.600000 150 115 76
0.756216 0.028008 1.600000 193 148 122
0.756216 0.030809 1.600000 223 219 168
0.756216 0.033610 1.600000 254 254 211
0.759525 0.036570 1.607000 254 254 254
0.759525 0.039383 1.607000 254 254 254
0.763306 0.042406 1.615000 226 236 254
0.763306 0.045233 1.615000 199 185 198
0.759525 0.047822 1.607000 147 120 142
0.763306 0.050887 1.615000 94 78 112
0.766614 0.070983 1.622000 100 88 87
0.766614 0.073822 1.622000 96 78 83
0.766614 0.076661 1.622000 92 76 79
0.759525 0.078766 1.607000 88 74 75
0.759525 0.081579 1.607000 87 71 71
0.745818 0.082869 1.578000 87 69 69
0.742510 0.085251 1.571000 89 73 67
0.742510 0.088001 1.571000 90 77 65
0.738729 0.090289 1.563000 88 79 64
0.738729 0.093025 1.563000 85 79 61
0.752435 0.097538 1.592000 81 69 58
0.752435 0.100325 1.592000 78 62 55
0.752435 0.103111 1.592000 77 64 53
0.815295 0.114745 1.725000 76 65 51
0.877683 0.133278 1.857000 71 55 45
0.938653 0.191207 1.986000 66 56 43
0.938653 0.194684 1.986000 61 54 33
0.933454 0.197063 1.975000 45 40 24
0.938653 0.201637 1.986000 30 18 12
0.933454 0.203977 1.975000 42 29 1
0.928255 0.250973 1.964000 37 27 29
0.928255 0.254411 1.964000 41 34 27
0.928255 0.257849 1.964000 36 28 25
0.928255 0.261287 1.964000 31 26 21
0.928255 0.264725 1.964000 30 23 17
0.928255 0.268163 1.964000 29 22 13
0.928255 0.271601 1.964000 28 21 10
0.928255 0.275039 1.964000 27 21 9
0.928255 0.278477 1.964000 27 19 9
0.928255 0.281915 1.964000 28 19 6
0.928255 0.285353 1.964000 27 18 4
0.928255 0.288791 1.964000 26 20 9
0.933454 0.293865 1.975000 26 19 15
0.928255 0.295666 1.964000 26 20 13
0.922584 0.297277 1.952000 23 16 11
0.922584 0.300694 1.952000 21 12 10
0.922584 0.304111 1.952000 31 14 10
0.922584 0.307528 1.952000 42 21 18
0.922584 0.310945 1.952000 45 30 27
0.917385 0.312590 1.941000 48 37 41
0.917385 0.315988 1.941000 42 31 55
0.917385 0.319386 1.941000 37 25 41
0.917385 0.322784 1.941000 32 18 28
0.922584 0.328030 1.952000 26 17 19
0.663580 0.262974 1.404000 23 10 2
0.658381 0.263352 1.393000 24 9 2
0.658381 0.265791 1.393000 26 8 3
0.658381 0.268229 1.393000 28 9 3
0.663580 0.272805 1.404000 27 10 4
0.661216 0.274282 1.399000 26 11 3
0.658381 0.275544 1.393000 26 9 2
0.658381 0.277983 1.393000 26 8 2
0.658381 0.280421 1.393000 28 9 2
0.658381 0.282860 1.393000 31 7 2
0.656017 0.284274 1.388000 29 6 3
0.656017 0.286704 1.388000 28 8 6
0.656017 0.289134 1.388000 28 8 9
0.656017 0.291563 1.388000 28 9 6
0.656017 0.293993 1.388000 26 9 4
0.656017 0.296423 1.388000 24 10 4
0.656017 0.298852 1.388000 24 11 4
0.656017 0.301282 1.388000 25 12 4
0.656017 0.303712 1.388000 25 10 4
0.656017 0.306142 1.388000 25 9 6
0.656017 0.308571 1.388000 24 9 8
0.658381 0.312121 1.393000 23 10 6
0.663580 0.317044 1.404000 25 10 4
0.663580 0.319501 1.404000 27 9 4
0.661216 0.320812 1.399000 24 9 4
0.658381 0.321875 1.393000 22 12 4
0.658381 0.324313 1.393000 24 10 4
0.658381 0.326752 1.393000 26 11 2
0.658381 0.329190 1.393000 26 9 1
0.658381 0.331629 1.393000 26 10 2
0.656017 0.332868 1.388000 25 8 4
0.658381 0.336506 1.393000 24 9 4
0.658381 0.338944 1.393000 27 9 4
0.658381 0.341383 1.393000 29 10 4
0.658381 0.343821 1.393000 28 12 5
0.658381 0.346259 1.393000 27 13 11
0.658381 0.348698 1.393000 28 12 17
0.663580 0.353909 1.404000 29 12 15
0.663580 0.356367 1.404000 32 12 13
0.666415 0.360358 1.410000 35 13 16
0.666415 0.362826 1.410000 32 13 19
0.663580 0.363740 1.404000 30 13 19
0.663580 0.366198 1.404000 31 14 19
0.663580 0.368655 1.404000 32 16 20
0.663580 0.371113 1.404000 29 15 21
0.663580 0.373571 1.404000 27 13 17
0.666415 0.377635 1.410000 27 15 14
0.663580 0.378486 1.404000 28 16 13
0.663580 0.380944 1.404000 27 15 13
0.666415 0.385040 1.410000 27 16 16
0.663580 0.385859 1.404000 27 17 20
0.663580 0.388317 1.404000 28 19 21
0.661216 0.389383 1.399000 28 18 22
0.663580 0.393232 1.404000 28 17 18
0.661216 0.394281 1.399000 27 14 14
0.658381 0.395028 1.393000 26 14 20
0.658381 0.397467 1.393000 27 14 27
0.658381 0.399905 1.393000 29 15 20
0.658381 0.402344 1.393000 29 14 14
0.658381 0.404782 1.393000 29 15 15
0.658381 0.407221 1.393000 28 13 16
0.658381 0.409659 1.393000 26 12 9
0.661216 0.413873 1.399000 28 13 3
0.661216 0.416321 1.399000 31 12 5
0.658381 0.416974 1.393000 30 14 7
0.658381 0.419413 1.393000 30 16 14
0.658381 0.421851 1.393000 33 14 21
0.658381 0.424290 1.393000 35 15 15
0.658381 0.426728 1.393000 34 17 10
0.658381 0.429167 1.393000 33 19 10
0.658381 0.431605 1.393000 33 18 10
0.658381 0.434044 1.393000 33 19 12
0.658381 0.436482 1.393000 37 17 15
0.661216 0.440811 1.399000 40 17 12
0.663580 0.444844 1.404000 36 18 10
0.663580 0.447302 1.404000 32 19 11
0.669251 0.453604 1.416000 34 21 12
0.669251 0.456082 1.416000 37 25 19
0.669251 0.458561 1.416000 39 23 27
0.669251 0.461040 1.416000 40 24 20
0.669251 0.463519 1.416000 34 24 14
0.666415 0.464023 1.410000 28 23 9
0.666415 0.466491 1.410000 35 24 5
0.666415 0.468959 1.410000 41 22 13
0.663580 0.469421 1.404000 43 21 21
0.663580 0.471879 1.404000 45 21 20
0.663580 0.474337 1.404000 45 24 20
0.663580 0.476794 1.404000 46 27 27
0.663580 0.479252 1.404000 46 28 34
0.663580 0.481710 1.404000 47 29 27
0.663580 0.484167 1.404000 46 28 21
0.661216 0.484892 1.399000 45 31 31
0.658381 0.485251 1.393000 46 32 41
0.658381 0.487689 1.393000 47 34 35
0.656017 0.488369 1.388000 45 31 30
0.656017 0.490798 1.388000 43 30 25
0.653182 0.491096 1.382000 41 27 21
0.650346 0.491372 1.376000 40 25 21
0.647983 0.491987 1.371000 39 25 22
0.645620 0.492584 1.366000 39 26 29
0.642784 0.492801 1.360000 39 23 36
0.642784 0.495182 1.360000 40 22 28
0.640420 0.495733 1.355000 37 22 21
0.640420 0.498105 1.355000 35 23 19
0.640420 0.500477 1.355000 35 22 18
0.640420 0.502849 1.355000 34 23 19
0.638057 0.503356 1.350000 36 23 21
0.635221 0.503472 1.344000 38 22 19
0.632858 0.503943 1.339000 42 24 17
0.632858 0.506287 1.339000 46 26 23
0.630495 0.506731 1.334000 43 22 30
0.628132 0.507158 1.329000 40 17 25
0.625769 0.507568 1.324000 36 18 20
0.625769 0.509886 1.324000 32 17 17
0.621042 0.508335 1.314000 30 18 14
0.618679 0.508692 1.309000 28 21 20
0.618679 0.510983 1.309000 19 16 26
0.815469 -0.655986 1.719000 6 7 10
0.819738 -0.656395 1.728000 7 9 8
0.819738 -0.653371 1.728000 9 8 9
0.819738 -0.650346 1.728000 9 8 11
0.819738 -0.647321 1.728000 9 8 10
0.819738 -0.644296 1.728000 8 9 9
0.819738 -0.641271 1.728000 8 8 8
0.819738 -0.638246 1.728000 8 8 8
0.815469 -0.631913 1.719000 9 9 7
0.815469 -0.628904 1.719000 9 10 6
0.815469 -0.625895 1.719000 9 10 8
0.815469 -0.622886 1.719000 7 12 9
0.815469 -0.619877 1.719000 5 11 8
0.807404 -0.610767 1.702000 7 13 7
0.811674 -0.611002 1.711000 10 12 11
0.807404 -0.601829 1.702000 11 13 16
0.807404 -0.598850 1.702000 11 15 17
0.807404 -0.595870 1.702000 12 15 19
0.807404 -0.592891 1.702000 14 15 21
0.807404 -0.589912 1.702000 17 15 22
0.807404 -0.586932 1.702000 17 17 23
0.807404 -0.583953 1.702000 18 16 22
0.807404 -0.580974 1.702000 17 14 22
0.807404 -0.577994 1.702000 17 14 24
0.807404 -0.575015 1.702000 14 14 26
0.807404 -0.572035 1.702000 12 16 24
0.807404 -0.569056 1.702000 13 17 23
0.807404 -0.566077 1.702000 14 16 27
0.807404 -0.563097 1.702000 17 17 32
0.807404 -0.560118 1.702000 20 17 34
0.803609 -0.554520 1.694000 18 17 36
0.803609 -0.551555 1.694000 16 17 39
0.803609 -0.548589 1.694000 16 17 42
0.803609 -0.545624 1.694000 17 19 39
0.803609 -0.542659 1.694000 21 19 36
0.803609 -0.539693 1.694000 26 19 34
0.803609 -0.536728 1.694000 21 21 31
0.803609 -0.533763 1.694000 17 21 33
0.799814 -0.528290 1.686000 17 21 34
0.799814 -0.525339 1.686000 17 21 32
0.799814 -0.522388 1.686000 17 23 31
0.795545 -0.516664 1.677000 17 22 30
0.795545 -0.513728 1.677000 19 22 30
0.799814 -0.513534 1.686000 22 22 33
0.803609 -0.513005 1.694000 22 23 37
0.803609 -0.510040 1.694000 22 21 32
0.803609 -0.507074 1.694000 23 21 27
0.799814 -0.501728 1.686000 25 21 29
0.803609 -0.501144 1.694000 23 20 32
0.803609 -0.498178 1.694000 21 19 35
0.791749 -0.487905 1.669000 23 20 38
0.787954 -0.482658 1.661000 25 21 35
0.787954 -0.479751 1.661000 25 23 33
0.791749 -0.479140 1.669000 25 21 31
0.787954 -0.473936 1.661000 25 21 30
0.791749 -0.473297 1.669000 25 21 31
0.791749 -0.470375 1.669000 23 20 32
0.795545 -0.469694 1.677000 21 19 31
0.795545 -0.466759 1.677000 22 21 30
0.795545 -0.463823 1.677000 23 21 33
0.791749 -0.458689 1.669000 24 22 36
0.791749 -0.455767 1.669000 26 22 34
0.787954 -0.450675 1.661000 25 24 32
0.787954 -0.447767 1.661000 25 23 31
0.787954 -0.444860 1.661000 25 23 31
0.787954 -0.441952 1.661000 26 21 32
0.787954 -0.439045 1.661000 26 21 34
0.784159 -0.434037 1.653000 26 22 35
0.787954 -0.433230 1.661000 25 25 35
0.787954 -0.430322 1.661000 25 22 34
0.787954 -0.427414 1.661000 23 19 33
0.787954 -0.424507 1.661000 22 20 33
0.787954 -0.421599 1.661000 22 22 34
0.791749 -0.420708 1.669000 23 21 31
0.791749 -0.417787 1.669000 21 21 28
0.787954 -0.412876 1.661000 20 24 31
0.791749 -0.411943 1.669000 21 25 34
0.787954 -0.407061 1.661000 23 22 36
0.787954 -0.404154 1.661000 22 20 38
0.787954 -0.401246 1.661000 22 21 35
0.787954 -0.398339 1.661000 24 23 32
0.787954 -0.395431 1.661000 26 23 33
0.787954 -0.392523 1.661000 26 24 33
0.784159 -0.387739 1.653000 27 24 35
0.784159 -0.384846 1.653000 26 25 38
0.784159 -0.381952 1.653000 26 23 35
0.784159 -0.379059 1.653000 26 21 33
0.780364 -0.374344 1.645000 26 22 34
0.777044 -0.369884 1.638000 28 23 34
0.777044 -0.367017 1.638000 30 23 37
0.780364 -0.365706 1.645000 28 25 40
0.777044 -0.361282 1.638000 27 23 42
0.777044 -0.358415 1.638000 26 21 44
0.777044 -0.355548 1.638000 25 22 41
0.777044 -0.352680 1.638000 22 23 39
0.777044 -0.349813 1.638000 20 23 36
0.780364 -0.348428 1.645000 20 26 34
0.780364 -0.345549 1.645000 20 25 33
0.780364 -0.342669 1.645000 17 26 32
0.784159 -0.341442 1.653000 14 25 32
0.784159 -0.338548 1.653000 15 23 32
0.784159 -0.335655 1.653000 17 21 31
0.784159 -0.332761 1.653000 17 22 31
0.784159 -0.329868 1.653000 18 23 30
0.784159 -0.326974 1.653000 19 26 30
0.787954 -0.325649 1.661000 21 21 28
0.784159 -0.321187 1.653000 23 18 26
0.780364 -0.316753 1.645000 25 17 31
0.780364 -0.313873 1.645000 19 18 36
0.780364 -0.310994 1.645000 14 16 30
0.777044 -0.306803 1.638000 14 14 25
0.777044 -0.303936 1.638000 15 12 27
0.777044 -0.301069 1.638000 15 14 30
0.777044 -0.298201 1.638000 15 13 28
0.773248 -0.293891 1.630000 17 17 26
0.773248 -0.291038 1.630000 20 20 31
0.773248 -0.288185 1.630000 22 26 36
0.773248 -0.285331 1.630000 25 30 47
0.773248 -0.282478 1.630000 25 31 59
0.777044 -0.280997 1.638000 25 26 52
0.777044 -0.278130 1.638000 21 25 45
0.777044 -0.275263 1.638000 18 25 46
0.777044 -0.272395 1.638000 20 26 47
0.777044 -0.269528 1.638000 23 25 45
0.777044 -0.266661 1.638000 22 24 42
0.777044 -0.263793 1.638000 22 25 40
0.777044 -0.260926 1.638000 23 26 39
0.777044 -0.258059 1.638000 25 24 38
0.773248 -0.253945 1.630000 23 22 37
0.773248 -0.251092 1.630000 21 24 43
0.773248 -0.248238 1.630000 22 30 49
0.773248 -0.245385 1.630000 23 25 46
0.773248 -0.242532 1.630000 23 26 43
0.773248 -0.239678 1.630000 23 23 43
0.773248 -0.236825 1.630000 27 22 44
0.773248 -0.233972 1.630000 31 19 37
0.773248 -0.231119 1.630000 25 19 30
0.773248 -0.228265 1.630000 20 22 36
0.773248 -0.225412 1.630000 21 28 42
0.773248 -0.222559 1.630000 22 27 44
0.773248 -0.219705 1.630000 22 30 47
0.777044 -0.217916 1.638000 23 26 45
0.777044 -0.215049 1.638000 23 25 43
0.773248 -0.211145 1.630000 23 24 41
0.773248 -0.208292 1.630000 22 23 40
0.769453 -0.204430 1.622000 22 22 42
0.769453 -0.201591 1.622000 20 21 44
0.769453 -0.198752 1.622000 18 22 38
0.769453 -0.195912 1.622000 14 22 32
0.769453 -0.193073 1.622000 10 22 36
0.769453 -0.190234 1.622000 15 23 40
0.769453 -0.187395 1.622000 21 25 42
0.769453 -0.184555 1.622000 21 26 43
0.769453 -0.181716 1.622000 21 23 42
0.769453 -0.178877 1.622000 21 18 40
0.769453 -0.176037 1.622000 21 19 41
0.769453 -0.173198 1.622000 19 21 42
0.766133 -0.169623 1.615000 18 20 36
0.762338 -0.165970 1.607000 19 18 30
0.762338 -0.163157 1.607000 20 20 32
0.766133 -0.161142 1.615000 21 21 34
0.766133 -0.158315 1.615000 23 22 33
0.766133 -0.155488 1.615000 22 24 31
0.766133 -0.152661 1.615000 22 20 29
0.766133 -0.149834 1.615000 21 18 28
0.766133 -0.147007 1.615000 21 21 28
0.766133 -0.144180 1.615000 19 23 28
0.762338 -0.140653 1.607000 17 21 25
0.762338 -0.137840 1.607000 16 21 23
0.762338 -0.135027 1.607000 15 19 27
0.762338 -0.132213 1.607000 15 17 31
0.762338 -0.129400 1.607000 16 18 30
0.759017 -0.126036 1.600000 15 19 29
0.762338 -0.123774 1.607000 14 18 30
0.766133 -0.121563 1.615000 15 20 32
0.762338 -0.118148 1.607000 16 19 32
0.762338 -0.115335 1.607000 15 19 32
0.762338 -0.112522 1.607000 14 17 36
0.762338 -0.109709 1.607000 14 17 41
0.762338 -0.106896 1.607000 14 17 38
0.769453 -0.105054 1.622000 15 18 36
0.766133 -0.101774 1.615000 16 17 37
0.769453 -0.099376 1.622000 15 18 38
0.769453 -0.096537 1.622000 14 18 29
0.769453 -0.093697 1.622000 14 19 20
0.769453 -0.090858 1.622000 14 19 20
0.769453 -0.088019 1.622000 17 21 21
0.769453 -0.085179 1.622000 20 18 22
0.769453 -0.082340 1.622000 19 17 23
0.761389 -0.078667 1.605000 18 16 22
0.773248 -0.071333 1.630000 14 15 15
0.773248 -0.068480 1.630000 17 17 13
0.769453 -0.065304 1.622000 17 18 11
0.769453 -0.062465 1.622000 17 18 9
0.769453 -0.059626 1.622000 20 20 8
0.769453 -0.056786 1.622000 24 18 12
0.769453 -0.053947 1.622000 25 19 16
0.769453 -0.051108 1.622000 26 18 18
0.769453 -0.048268 1.622000 23 18 21
0.766133 -0.045233 1.615000 20 21 25
0.766133 -0.042406 1.615000 23 25 30
0.766133 -0.039579 1.615000 26 25 28
0.766133 -0.036752 1.615000 28 26 26
0.766133 -0.033925 1.615000 30 25 24
0.762338 -0.030944 1.607000 31 24 22
0.766133 -0.028271 1.615000 33 25 25
0.766133 -0.025443 1.615000 33 27 28
0.769453 -0.022714 1.622000 34 29 25
0.769453 -0.019875 1.622000 35 31 22
0.769453 -0.017036 1.622000 37 30 21
0.769453 -0.014197 1.622000 38 30 20
0.769453 -0.011357 1.622000 39 31 23
0.773248 -0.008560 1.630000 35 32 26
0.773248 -0.005707 1.630000 31 32 29
0.773248 -0.002853 1.630000 32 33 32
0.769453 -0.000000 1.622000 33 33 32
0.769453 0.002839 1.622000 36 34 33
0.773248 0.005707 1.630000 39 35 32
0.773248 0.008560 1.630000 46 43 31
0.773248 0.011413 1.630000 53 46 39
0.766133 0.014135 1.615000 33 44 47
0.766133 0.016962 1.615000 14 21 30
0.762338 0.019691 1.607000 61 17 14
0.762338 0.022504 1.607000 108 71 45
0.759017 0.025207 1.600000 150 118 76
0.759017 0.028008 1.600000 193 159 118
0.759017 0.030809 1.600000 223 238 160
0.759017 0.033610 1.600000 254 250 207
0.759017 0.036410 1.600000 254 254 254
0.762338 0.039383 1.607000 254 254 254
0.766133 0.042406 1.615000 222 254 254
0.766133 0.045233 1.615000 190 178 199
0.766133 0.048060 1.615000 142 104 144
0.762338 0.050635 1.607000 95 88 114
0.762338 0.053448 1.607000 99 85 83
0.766133 0.070676 1.615000 95 91 83
0.769453 0.073822 1.622000 90 79 78
0.769453 0.076661 1.622000 87 74 74
0.766133 0.079158 1.615000 85 74 72
0.762338 0.081579 1.607000 84 71 71
0.748580 0.082869 1.578000 84 72 67
0.748580 0.085631 1.578000 86 72 64
0.748580 0.088393 1.578000 88 76 63
0.741465 0.090289 1.563000 85 78 63
0.755222 0.094751 1.592000 83 76 60
0.755222 0.097538 1.592000 78 70 57
0.755222 0.100325 1.592000 73 62 54
0.755222 0.103111 1.592000 71 60 52
0.759017 0.106430 1.600000 69 58 51
0.819738 0.124019 1.728000 63 51 48
0.931693 0.254411 1.964000 39 29 26
0.931693 0.257849 1.964000 34 26 22
0.931693 0.261287 1.964000 30 23 19
0.931693 0.264725 1.964000 29 21 17
0.931693 0.268163 1.964000 28 21 13
0.931693 0.271601 1.964000 27 22 10
0.931693 0.275039 1.964000 27 21 10
0.931693 0.278477 1.964000 26 20 11
0.931693 0.281915 1.964000 25 19 8
0.931693 0.285353 1.964000 25 19 6
0.931693 0.288791 1.964000 26 19 9
0.931693 0.292229 1.964000 26 21 12
0.931693 0.295666 1.964000 26 18 11
0.920782 0.295602 1.941000 20 16 11
0.920782 0.299000 1.941000 14 13 9
0.920782 0.302397 1.941000 26 14 7
0.920782 0.305795 1.941000 39 20 14
0.920782 0.309193 1.941000 44 29 21
0.920782 0.312590 1.941000 49 33 32
0.916038 0.314360 1.931000 42 33 44
0.916038 0.317740 1.931000 36 25 34
0.916038 0.321121 1.931000 32 15 24
0.916038 0.324501 1.931000 29 14 18
0.663665 0.262038 1.399000 21 12 3
0.660819 0.263352 1.393000 23 10 4
0.658447 0.264837 1.388000 25 10 5
0.658447 0.267266 1.388000 28 9 5
0.660819 0.270668 1.393000 26 9 6
0.660819 0.273106 1.393000 24 9 4
0.658447 0.274556 1.388000 24 9 3
0.658447 0.276985 1.388000 25 8 2
0.658447 0.279415 1.388000 29 9 2
0.658447 0.281845 1.388000 34 8 3
0.658447 0.284274 1.388000 31 7 3
0.658447 0.286704 1.388000 28 9 4
0.658447 0.289134 1.388000 28 9 6
0.655601 0.290303 1.382000 28 9 5
0.655601 0.292722 1.382000 26 10 4
0.655601 0.295141 1.382000 24 10 5
0.658447 0.298852 1.388000 24 11 6
0.658447 0.301282 1.388000 25 10 5
0.655601 0.302399 1.382000 24 11 4
0.655601 0.304818 1.382000 24 10 6
0.655601 0.307237 1.382000 22 9 8
0.658447 0.311001 1.388000 21 9 7
0.658447 0.313431 1.388000 25 11 6
0.655601 0.314495 1.382000 30 9 5
0.658447 0.318290 1.388000 27 9 4
0.658447 0.320720 1.388000 24 9 4
0.658447 0.323149 1.388000 27 10 4
0.658447 0.325579 1.388000 31 10 2
0.658447 0.328009 1.388000 29 10 1
0.658447 0.330438 1.388000 27 8 2
0.658447 0.332868 1.388000 24 7 3
0.658447 0.335298 1.388000 22 8 3
0.658447 0.337728 1.388000 25 10 3
0.660819 0.341383 1.393000 29 11 4
0.660819 0.343821 1.393000 28 14 5
0.660819 0.346259 1.393000 27 13 10
0.660819 0.348698 1.393000 27 12 16
0.660819 0.351136 1.393000 27 12 15
0.660819 0.353575 1.393000 28 14 13
0.660819 0.356013 1.393000 30 14 14
0.660819 0.358452 1.393000 28 15 16
0.660819 0.360890 1.393000 26 14 15
0.660819 0.363329 1.393000 29 14 15
0.666037 0.368655 1.404000 32 15 20
0.666037 0.371113 1.404000 29 16 26
0.666037 0.373571 1.404000 26 15 20
0.666037 0.376028 1.404000 28 16 14
0.660819 0.375521 1.393000 30 14 13
0.660819 0.377959 1.393000 30 14 12
0.660819 0.380398 1.393000 30 14 14
0.660819 0.382836 1.393000 30 16 16
0.660819 0.385275 1.393000 30 16 15
0.660819 0.387713 1.393000 28 17 15
0.658447 0.388751 1.388000 26 15 15
0.660819 0.392590 1.393000 24 14 16
0.658447 0.393610 1.388000 23 13 18
0.658447 0.396040 1.388000 26 14 20
0.660819 0.399905 1.393000 30 15 15
0.660819 0.402344 1.393000 29 16 9
0.660819 0.404782 1.393000 29 13 13
0.660819 0.407221 1.393000 30 11 17
0.660819 0.409659 1.393000 32 13 11
0.660819 0.412098 1.393000 31 17 6
0.660819 0.414536 1.393000 30 14 6
0.660819 0.416974 1.393000 30 15 7
0.660819 0.419413 1.393000 30 15 12
0.660819 0.421851 1.393000 32 14 16
0.660819 0.424290 1.393000 35 15 13
0.660819 0.426728 1.393000 34 19 9
0.660819 0.429167 1.393000 33 18 8
0.658447 0.430056 1.388000 33 18 7
0.658447 0.432486 1.388000 33 17 11
0.660819 0.436482 1.393000 36 17 15
0.660819 0.438920 1.393000 39 17 16
0.660819 0.441359 1.393000 38 17 17
0.660819 0.443797 1.393000 38 18 14
0.668884 0.451682 1.410000 37 20 11
0.668884 0.454150 1.410000 37 22 16
0.668884 0.456618 1.410000 41 22 20
0.668884 0.459086 1.410000 45 24 16
0.668884 0.461554 1.410000 39 24 12
0.666037 0.462048 1.404000 34 24 11
0.666037 0.464506 1.404000 37 25 10
0.666037 0.466963 1.404000 41 22 15
0.666037 0.469421 1.404000 42 21 21
0.663665 0.470198 1.399000 43 23 21
0.663665 0.472647 1.399000 44 27 21
0.663665 0.475096 1.399000 46 26 24
0.660819 0.475497 1.393000 46 27 27
0.660819 0.477936 1.393000 47 27 25
0.660819 0.480374 1.393000 46 27 23
0.660819 0.482812 1.393000 46 30 29
0.660819 0.485251 1.393000 48 34 35
0.658447 0.485939 1.388000 50 33 32
0.658447 0.488369 1.388000 47 30 30
0.658447 0.490798 1.388000 44 30 27
0.655601 0.491096 1.382000 42 30 24
0.652755 0.491372 1.376000 41 27 25
0.650383 0.491987 1.371000 40 25 25
0.650383 0.494387 1.371000 39 24 27
0.648011 0.494975 1.366000 38 23 29
0.645164 0.495182 1.360000 38 23 24
0.642792 0.495733 1.355000 35 24 18
0.642792 0.498105 1.355000 32 24 18
0.642792 0.500477 1.355000 34 23 17
0.642792 0.502849 1.355000 36 22 18
0.640420 0.503356 1.350000 36 23 18
0.637574 0.503472 1.344000 36 23 17
0.635202 0.503943 1.339000 39 28 17
0.632830 0.504396 1.334000 43 27 20
0.632830 0.506731 1.334000 41 26 24
0.630458 0.507158 1.329000 39 22 20
0.630458 0.509485 1.329000 37 20 16
0.628086 0.509886 1.324000 35 19 14
0.625715 0.510269 1.319000 32 21 12
0.620971 0.508692 1.309000 30 19 17
0.618599 0.509031 1.304000 21 15 22
0.814669 -0.652933 1.711000 7 8 10
0.818478 -0.652977 1.719000 8 8 8
0.818478 -0.649968 1.719000 10 9 8
0.818478 -0.646959 1.719000 9 8 9
0.818478 -0.643950 1.719000 9 9 9
0.822763 -0.644296 1.728000 8 8 9
0.818478 -0.637931 1.719000 8 8 8
0.818478 -0.634922 1.719000 8 8 8
0.818478 -0.631913 1.719000 9 10 6
0.818478 -0.628904 1.719000 8 11 4
0.818478 -0.625895 1.719000 7 12 6
0.818478 -0.622886 1.719000 7 11 9
0.818478 -0.619877 1.719000 7 9 9
0.814669 -0.613997 1.711000 8 10 10
0.810384 -0.595870 1.702000 16 17 23
0.810384 -0.592891 1.702000 16 15 26
0.810384 -0.589912 1.702000 15 14 24
0.810384 -0.586932 1.702000 15 16 23
0.810384 -0.583953 1.702000 16 20 23
0.810384 -0.580974 1.702000 16 15 23
0.810384 -0.577994 1.702000 16 14 26
0.810384 -0.575015 1.702000 15 14 29
0.810384 -0.572035 1.702000 14 17 23
0.810384 -0.569056 1.702000 15 17 17
0.810384 -0.566077 1.702000 16 17 25
0.810384 -0.563097 1.702000 17 18 33
0.806575 -0.557485 1.694000 18 19 33
0.806575 -0.554520 1.694000 18 18 34
0.806575 -0.551555 1.694000 18 19 40
0.806575 -0.548589 1.694000 17 18 46
0.806575 -0.545624 1.694000 17 21 43
0.806575 -0.542659 1.694000 20 18 40
0.806575 -0.539693 1.694000 23 17 37
0.806575 -0.536728 1.694000 20 20 35
0.806575 -0.533763 1.694000 17 22 35
0.802765 -0.528290 1.686000 18 21 35
0.802765 -0.525339 1.686000 18 22 31
0.802765 -0.522388 1.686000 17 22 28
0.802765 -0.519436 1.686000 17 22 27
0.802765 -0.516485 1.686000 19 22 26
0.806575 -0.515970 1.694000 21 22 28
0.806575 -0.513005 1.694000 22 22 31
0.806575 -0.510040 1.694000 23 23 28
0.810384 -0.509469 1.702000 23 21 25
0.806575 -0.504109 1.694000 23 20 30
0.806575 -0.501144 1.694000 20 20 35
0.806575 -0.498178 1.694000 17 21 38
0.806575 -0.495213 1.694000 20 20 41
0.794671 -0.484983 1.669000 24 21 38
0.790862 -0.479751 1.661000 22 22 36
0.794671 -0.479140 1.669000 21 23 33
0.794671 -0.476218 1.669000 22 23 31
0.794671 -0.473297 1.669000 22 23 33
0.794671 -0.470375 1.669000 22 22 36
0.798480 -0.469694 1.677000 23 22 33
0.798480 -0.466759 1.677000 25 22 31
0.794671 -0.461610 1.669000 28 21 34
0.794671 -0.458689 1.669000 27 22 38
0.794671 -0.455767 1.669000 26 23 36
0.794671 -0.452846 1.669000 26 25 34
0.790862 -0.447767 1.661000 27 26 33
0.790862 -0.444860 1.661000 29 23 32
0.790862 -0.441952 1.661000 32 22 35
0.790862 -0.439045 1.661000 29 22 38
0.790862 -0.436137 1.661000 25 22 38
0.790862 -0.433230 1.661000 26 24 39
0.790862 -0.430322 1.661000 27 24 37
0.790862 -0.427414 1.661000 26 22 35
0.794671 -0.426551 1.669000 25 21 37
0.790862 -0.421599 1.661000 24 22 39
0.794671 -0.420708 1.669000 24 23 33
0.794671 -0.417787 1.669000 22 25 28
0.794671 -0.414865 1.669000 21 29 33
0.794671 -0.411943 1.669000 23 25 39
0.794671 -0.409022 1.669000 24 25 40
0.794671 -0.406100 1.669000 24 22 41
0.790862 -0.401246 1.661000 24 20 37
0.790862 -0.398339 1.661000 26 24 34
0.790862 -0.395431 1.661000 27 25 34
0.790862 -0.392523 1.661000 28 25 35
0.790862 -0.389616 1.661000 29 25 34
0.787053 -0.384846 1.653000 28 25 34
0.787053 -0.381952 1.653000 28 26 28
0.787053 -0.379059 1.653000 27 24 23
0.787053 -0.376165 1.653000 26 23 30
0.779911 -0.369884 1.638000 26 23 38
0.779911 -0.367017 1.638000 27 22 39
0.783244 -0.365706 1.645000 27 24 41
0.779911 -0.361282 1.638000 28 24 42
0.779911 -0.358415 1.638000 26 23 44
0.779911 -0.355548 1.638000 25 23 41
0.783244 -0.354187 1.645000 23 22 39
0.779911 -0.349813 1.638000 22 23 38
0.779911 -0.346946 1.638000 21 24 38
0.783244 -0.345549 1.645000 20 26 35
0.783244 -0.342669 1.645000 17 26 33
0.787053 -0.341442 1.653000 14 28 34
0.787053 -0.338548 1.653000 15 23 36
0.790862 -0.337279 1.661000 17 20 35
0.790862 -0.334372 1.661000 18 22 34
0.790862 -0.331464 1.661000 19 25 32
0.787053 -0.326974 1.653000 19 24 31
0.787053 -0.324081 1.653000 19 22 28
0.787053 -0.321187 1.653000 20 19 26
0.787053 -0.318293 1.653000 21 17 29
0.779911 -0.312538 1.638000 17 17 32
0.779911 -0.309670 1.638000 14 19 27
0.779911 -0.306803 1.638000 14 15 22
0.779911 -0.303936 1.638000 14 11 28
0.779911 -0.301069 1.638000 15 12 34
0.779911 -0.298201 1.638000 16 12 34
0.776102 -0.293891 1.630000 19 18 34
0.776102 -0.291038 1.630000 23 23 35
0.776102 -0.288185 1.630000 26 28 36
0.779911 -0.286732 1.638000 29 34 42
0.779911 -0.283865 1.638000 30 30 48
0.779911 -0.280997 1.638000 31 26 46
0.779911 -0.278130 1.638000 27 26 45
0.779911 -0.275263 1.638000 23 27 48
0.779911 -0.272395 1.638000 26 25 51
0.779911 -0.269528 1.638000 28 26 48
0.779911 -0.266661 1.638000 27 24 46
0.779911 -0.263793 1.638000 25 26 43
0.779911 -0.260926 1.638000 25 25 40
0.779911 -0.258059 1.638000 26 24 36
0.776102 -0.253945 1.630000 23 25 33
0.776102 -0.251092 1.630000 21 26 39
0.776102 -0.248238 1.630000 22 25 45
0.776102 -0.245385 1.630000 24 19 45
0.776102 -0.242532 1.630000 24 22 45
0.776102 -0.239678 1.630000 24 23 41
0.772293 -0.235663 1.622000 25 21 38
0.772293 -0.232824 1.622000 26 21 32
0.772293 -0.229984 1.622000 22 20 26
0.772293 -0.227145 1.622000 18 23 35
0.772293 -0.224306 1.622000 22 25 45
0.772293 -0.221466 1.622000 26 25 49
0.776102 -0.219705 1.630000 24 26 54
0.776102 -0.216852 1.630000 22 26 49
0.776102 -0.213999 1.630000 24 24 45
0.776102 -0.211145 1.630000 27 25 45
0.776102 -0.208292 1.630000 26 24 46
0.772293 -0.204430 1.622000 25 26 49
0.768960 -0.200721 1.615000 24 24 53
0.772293 -0.198752 1.622000 23 25 46
0.768960 -0.195067 1.615000 23 24 39
0.772293 -0.193073 1.622000 23 25 42
0.772293 -0.190234 1.622000 22 25 45
0.768960 -0.186586 1.615000 22 28 46
0.768960 -0.183759 1.615000 22 27 48
0.768960 -0.180932 1.615000 22 27 45
0.768960 -0.178105 1.615000 23 23 42
0.768960 -0.175278 1.615000 25 21 43
0.765151 -0.171596 1.607000 26 22 45
0.765151 -0.168783 1.607000 27 23 40
0.765151 -0.165970 1.607000 25 21 35
0.765151 -0.163157 1.607000 23 21 34
0.768960 -0.161142 1.615000 26 23 33
0.768960 -0.158315 1.615000 28 25 33
0.768960 -0.155488 1.615000 25 24 33
0.768960 -0.152661 1.615000 21 21 30
0.768960 -0.149834 1.615000 21 20 28
0.768960 -0.147007 1.615000 22 22 28
0.768960 -0.144180 1.615000 20 22 28
0.765151 -0.140653 1.607000 18 21 23
0.765151 -0.137840 1.607000 16 21 19
0.765151 -0.135027 1.607000 14 20 25
0.765151 -0.132213 1.607000 15 18 32
0.765151 -0.129400 1.607000 16 21 29
0.765151 -0.126587 1.607000 16 18 27
0.765151 -0.123774 1.607000 17 17 30
0.765151 -0.120961 1.607000 16 18 33
0.765151 -0.118148 1.607000 16 21 33
0.765151 -0.115335 1.607000 16 19 33
0.765151 -0.112522 1.607000 17 19 36
0.765151 -0.109709 1.607000 17 17 39
0.765151 -0.106896 1.607000 17 17 39
0.772293 -0.105054 1.622000 16 17 40
0.768960 -0.101774 1.615000 16 17 42
0.772293 -0.099376 1.622000 15 17 44
0.768960 -0.096120 1.615000 14 17 29
0.765151 -0.092831 1.607000 14 17 15
0.772293 -0.090858 1.622000 15 19 18
0.768960 -0.087639 1.615000 17 19 21
0.761818 -0.084024 1.600000 20 17 18
0.765151 -0.081579 1.607000 19 17 15
0.761818 -0.078422 1.600000 19 18 18
0.767531 -0.070545 1.612000 15 15 16
0.772293 -0.068143 1.622000 17 17 13
0.772293 -0.065304 1.622000 17 17 10
0.772293 -0.062465 1.622000 17 15 7
0.772293 -0.059626 1.622000 20 16 4
0.772293 -0.056786 1.622000 23 16 9
0.772293 -0.053947 1.622000 23 19 14
0.772293 -0.051108 1.622000 23 20 17
0.768960 -0.048060 1.615000 23 20 21
0.768960 -0.045233 1.615000 23 21 27
0.768960 -0.042406 1.615000 23 23 34
0.768960 -0.039579 1.615000 24 26 30
0.768960 -0.036752 1.615000 26 26 26
0.768960 -0.033925 1.615000 28 25 22
0.765151 -0.030944 1.607000 30 24 18
0.768960 -0.028271 1.615000 32 26 23
0.768960 -0.025443 1.615000 31 28 28
0.768960 -0.022616 1.615000 31 30 27
0.768960 -0.019789 1.615000 32 30 26
0.768960 -0.016962 1.615000 33 31 26
0.768960 -0.014135 1.615000 36 31 26
0.768960 -0.011308 1.615000 39 33 26
0.768960 -0.008481 1.615000 36 32 27
0.768960 -0.005654 1.615000 34 33 29
0.772293 -0.002839 1.622000 34 31 31
0.768960 -0.000000 1.615000 35 32 32
0.768960 0.002827 1.615000 37 33 34
0.765151 0.005626 1.607000 39 34 32
0.776102 0.008560 1.630000 48 42 31
0.776102 0.011413 1.630000 58 50 37
0.768960 0.014135 1.615000 39 36 44
0.768960 0.016962 1.615000 19 11 29
0.765151 0.019691 1.607000 62 27 14
0.761818 0.022406 1.600000 105 72 45
0.761818 0.025207 1.600000 146 110 77
0.761818 0.028008 1.600000 187 134 115
0.761818 0.030809 1.600000 220 210 153
0.761818 0.033610 1.600000 254 254 203
0.765151 0.036570 1.607000 254 254 254
0.765151 0.039383 1.607000 254 254 254
0.768960 0.042406 1.615000 220 233 254
0.768960 0.045233 1.615000 187 172 200
0.768960 0.048060 1.615000 141 109 147
0.772293 0.051108 1.622000 95 86 116
0.765151 0.053448 1.607000 98 85 85
0.768960 0.056541 1.615000 102 87 89
0.768960 0.059368 1.615000 124 108 93
0.768960 0.062195 1.615000 146 136 90
0.768960 0.065022 1.615000 122 111 87
0.772293 0.068143 1.622000 98 90 83
0.768960 0.070676 1.615000 94 85 80
0.768960 0.073504 1.615000 89 74 74
0.772293 0.076661 1.622000 88 74 69
0.768960 0.079158 1.615000 86 78 70
0.768960 0.081985 1.615000 85 76 72
0.751343 0.082869 1.578000 84 76 66
0.765151 0.087205 1.607000 84 76 61
0.758009 0.089178 1.592000 85 78 61
0.761818 0.092426 1.600000 83 77 62
0.761818 0.095227 1.600000 82 77 59
0.761818 0.098028 1.600000 77 69 56
0.761818 0.100829 1.600000 72 58 53
0.761818 0.103630 1.600000 70 58 51
0.761818 0.106430 1.600000 68 53 50
0.761818 0.109231 1.600000 65 54 50
0.761818 0.112032 1.600000 63 56 50
0.761818 0.114833 1.600000 55 50 51
0.929418 0.256273 1.952000 33 26 20
0.935131 0.261287 1.964000 28 21 18
0.929418 0.263107 1.952000 27 20 17
0.935131 0.268163 1.964000 27 21 13
0.935131 0.271601 1.964000 26 21 10
0.935131 0.275039 1.964000 26 21 11
0.935131 0.278477 1.964000 25 19 13
0.935131 0.281915 1.964000 24 18 11
0.935131 0.285353 1.964000 24 18 9
0.940369 0.290408 1.975000 25 19 9
0.940369 0.293865 1.975000 24 18 9
0.935131 0.295666 1.964000 24 18 10
0.935131 0.299105 1.964000 22 15 11
0.924180 0.299000 1.941000 20 12 7
0.924180 0.302397 1.941000 29 13 4
0.924180 0.305795 1.941000 38 17 9
0.924180 0.309193 1.941000 47 27 15
0.924180 0.312590 1.941000 57 36 24
0.924180 0.315988 1.941000 49 32 34
0.924180 0.319386 1.941000 41 27 27
0.924180 0.322784 1.941000 35 18 21
0.929418 0.328030 1.952000 29 11 18
0.663257 0.263352 1.393000 22 10 5
0.660877 0.264837 1.388000 25 9 7
0.660877 0.267266 1.388000 28 9 8
0.660877 0.269696 1.388000 27 9 9
0.658020 0.270949 1.382000 26 9 6
0.658020 0.273369 1.382000 23 7 4
0.660877 0.276985 1.388000 21 6 3
0.658020 0.278207 1.382000 26 8 3
0.658020 0.280626 1.382000 31 9 3
0.658020 0.283045 1.382000 28 10 4
0.658020 0.285465 1.382000 26 14 3
0.655163 0.286634 1.376000 26 10 3
0.655163 0.289043 1.376000 25 9 3
0.655163 0.291451 1.376000 25 10 4
0.655163 0.293860 1.376000 24 11 6
0.655163 0.296269 1.376000 26 10 9
0.655163 0.298677 1.376000 28 9 6
0.655163 0.301086 1.376000 26 10 4
0.655163 0.303495 1.376000 24 11 6
0.655163 0.305903 1.376000 23 9 8
0.658020 0.309657 1.382000 23 8 8
0.658020 0.312076 1.382000 26 9 9
0.658020 0.314495 1.382000 29 9 6
0.658020 0.316914 1.382000 27 8 4
0.658020 0.319333 1.382000 25 8 4
0.658020 0.321753 1.382000 26 9 4
0.660877 0.325579 1.388000 28 11 2
0.658020 0.326591 1.382000 27 8 1
0.660877 0.330438 1.388000 26 7 2
0.660877 0.332868 1.388000 23 7 3
0.660877 0.335298 1.388000 21 8 3
0.660877 0.337728 1.388000 23 9 3
0.660877 0.340157 1.388000 26 11 4
0.658020 0.341106 1.382000 26 12 5
0.660877 0.345017 1.388000 27 13 10
0.660877 0.347446 1.388000 26 12 16
0.660877 0.349876 1.388000 26 12 15
0.660877 0.352306 1.388000 28 14 14
0.660877 0.354735 1.388000 30 16 13
0.660877 0.357165 1.388000 30 15 13
0.660877 0.359595 1.388000 30 15 12
0.663257 0.363329 1.393000 31 13 11
0.660877 0.364454 1.388000 33 14 21
0.660877 0.366884 1.388000 30 14 31
0.660877 0.369314 1.388000 28 15 22
0.660877 0.371743 1.388000 26 15 14
0.660877 0.374173 1.388000 25 13 13
0.660877 0.376603 1.388000 29 13 12
0.658020 0.377394 1.382000 34 13 12
0.658020 0.379813 1.382000 32 14 12
0.658020 0.382232 1.382000 30 15 10
0.658020 0.384651 1.382000 29 15 8
0.658020 0.387071 1.382000 28 15 13
0.660877 0.391181 1.388000 27 13 19
0.660877 0.393610 1.388000 26 12 16
0.660877 0.396040 1.388000 28 13 14
0.663257 0.399905 1.393000 30 15 9
0.660877 0.400900 1.388000 27 14 5
0.663257 0.404782 1.393000 25 12 11
0.660877 0.405759 1.388000 30 12 18
0.660877 0.408189 1.388000 36 12 13
0.663257 0.412098 1.393000 34 13 9
0.663257 0.414536 1.393000 32 14 8
0.663257 0.416974 1.393000 31 15 8
0.663257 0.419413 1.393000 30 16 10
0.660877 0.420337 1.388000 32 14 12
0.663257 0.424290 1.393000 35 13 10
0.660877 0.425197 1.388000 35 16 9
0.663257 0.429167 1.393000 35 16 6
0.660877 0.430056 1.388000 33 16 4
0.660877 0.432486 1.388000 32 17 10
0.660877 0.434915 1.388000 36 18 16
0.660877 0.437345 1.388000 40 20 20
0.660877 0.439775 1.388000 39 18 25
0.663257 0.443797 1.393000 39 17 18
0.663257 0.446236 1.393000 39 19 11
0.666114 0.450607 1.399000 39 21 12
0.666114 0.453056 1.399000 40 23 14
0.666114 0.455505 1.399000 41 26 12
0.668495 0.459590 1.404000 39 25 10
0.668495 0.462048 1.404000 36 25 12
0.666114 0.462852 1.399000 37 24 15
0.666114 0.465300 1.399000 39 22 18
0.666114 0.467749 1.399000 41 21 21
0.663257 0.468182 1.393000 43 23 22
0.663257 0.470620 1.393000 43 24 23
0.663257 0.473059 1.393000 44 23 21
0.663257 0.475497 1.393000 45 25 20
0.663257 0.477936 1.393000 46 27 23
0.663257 0.480374 1.393000 45 28 26
0.663257 0.482812 1.393000 45 31 27
0.660877 0.483509 1.388000 46 33 29
0.660877 0.485939 1.388000 48 34 29
0.658020 0.486257 1.382000 46 32 30
0.660877 0.490798 1.388000 44 30 29
0.658020 0.491096 1.382000 43 29 28
0.655163 0.491372 1.376000 42 29 28
0.655163 0.493781 1.376000 41 26 29
0.652782 0.494387 1.371000 40 25 26
0.650402 0.494975 1.366000 39 24 23
0.647545 0.495182 1.360000 39 24 19
0.645164 0.495733 1.355000 35 26 16
0.645164 0.498105 1.355000 32 27 16
0.645164 0.500477 1.355000 31 24 17
0.642784 0.500993 1.350000 31 22 16
0.642784 0.503356 1.350000 33 21 16
0.639927 0.503472 1.344000 35 20 16
0.637546 0.503943 1.339000 40 26 17
0.635166 0.504396 1.334000 46 31 17
0.632785 0.504832 1.329000 41 26 18
0.632785 0.507158 1.329000 37 25 15
0.630404 0.507568 1.324000 34 20 13
0.630404 0.509886 1.324000 31 18 11
0.625643 0.508335 1.314000 31 19 10
0.623262 0.508692 1.309000 31 22 14
0.620881 0.509031 1.304000 23 16 18
0.821487 -0.655986 1.719000 8 7 9
0.821487 -0.652977 1.719000 9 8 7
0.821487 -0.649968 1.719000 11 7 8
0.821487 -0.646959 1.719000 10 7 9
0.821487 -0.643950 1.719000 9 8 9
0.825788 -0.644296 1.728000 8 9 9
0.821487 -0.637931 1.719000 8 8 8
0.821487 -0.634922 1.719000 8 9 8
0.817664 -0.628972 1.711000 9 10 7
0.817664 -0.625977 1.711000 7 12 6
0.821487 -0.625895 1.719000 5 11 8
0.817664 -0.619987 1.711000 7 12 9
0.817664 -0.616992 1.711000 9 10 10
0.813363 -0.610767 1.702000 9 10 11
0.813363 -0.595870 1.702000 21 14 22
0.813363 -0.592891 1.702000 17 14 23
0.813363 -0.589912 1.702000 14 14 22
0.813363 -0.586932 1.702000 14 15 22
0.813363 -0.583953 1.702000 14 16 22
0.813363 -0.580974 1.702000 15 15 23
0.813363 -0.577994 1.702000 16 14 28
0.813363 -0.575015 1.702000 16 14 33
0.813363 -0.572035 1.702000 17 15 27
0.813363 -0.569056 1.702000 18 20 21
0.813363 -0.566077 1.702000 19 18 30
0.813363 -0.563097 1.702000 18 20 40
0.813363 -0.560118 1.702000 17 19 36
0.809540 -0.554520 1.694000 19 19 33
0.809540 -0.551555 1.694000 21 17 36
0.809540 -0.548589 1.694000 19 17 39
0.809540 -0.545624 1.694000 17 18 37
0.809540 -0.542659 1.694000 18 17 36
0.809540 -0.539693 1.694000 20 18 34
0.809540 -0.536728 1.694000 19 21 32
0.805717 -0.531242 1.686000 18 21 37
0.805717 -0.528290 1.686000 19 21 42
0.801416 -0.522535 1.677000 20 22 35
0.801416 -0.519599 1.677000 18 21 29
0.801416 -0.516664 1.677000 17 21 32
0.801416 -0.513728 1.677000 18 23 35
0.801416 -0.510792 1.677000 20 23 33
0.805717 -0.510582 1.686000 22 23 31
0.809540 -0.510040 1.694000 25 22 29
0.809540 -0.507074 1.694000 23 21 28
0.809540 -0.504109 1.694000 21 21 32
0.809540 -0.501144 1.694000 17 21 36
0.809540 -0.498178 1.694000 14 21 36
0.809540 -0.495213 1.694000 18 21 36
0.809540 -0.492248 1.694000 23 22 31
0.797593 -0.482061 1.669000 20 23 26
0.801416 -0.481437 1.677000 18 23 32
0.797593 -0.476218 1.669000 19 25 37
0.797593 -0.473297 1.669000 20 24 42
0.801416 -0.472630 1.677000 22 23 46
0.801416 -0.469694 1.677000 25 22 40
0.801416 -0.466759 1.677000 29 25 35
0.797593 -0.461610 1.669000 34 23 36
0.797593 -0.458689 1.669000 30 24 38
0.793770 -0.453583 1.661000 26 25 39
0.793770 -0.450675 1.661000 27 27 40
0.793770 -0.447767 1.661000 29 24 37
0.793770 -0.444860 1.661000 34 21 35
0.793770 -0.441952 1.661000 39 23 37
0.793770 -0.439045 1.661000 32 24 39
0.793770 -0.436137 1.661000 25 25 38
0.793770 -0.433230 1.661000 27 25 37
0.793770 -0.430322 1.661000 29 25 37
0.793770 -0.427414 1.661000 28 26 38
0.793770 -0.424507 1.661000 28 24 37
0.793770 -0.421599 1.661000 26 24 37
0.797593 -0.420708 1.669000 25 25 34
0.797593 -0.417787 1.669000 24 27 31
0.797593 -0.414865 1.669000 23 26 35
0.797593 -0.411943 1.669000 24 23 39
0.797593 -0.409022 1.669000 26 25 39
0.797593 -0.406100 1.669000 26 26 40
0.797593 -0.403179 1.669000 27 25 37
0.793770 -0.398339 1.661000 28 29 34
0.793770 -0.395431 1.661000 29 26 32
0.793770 -0.392523 1.661000 30 27 30
0.793770 -0.389616 1.661000 32 26 37
0.793770 -0.386708 1.661000 31 26 43
0.793770 -0.383801 1.661000 30 27 38
0.793770 -0.380893 1.661000 28 26 32
0.789946 -0.376165 1.653000 26 24 35
0.789946 -0.373271 1.653000 25 25 38
0.789946 -0.370378 1.653000 25 25 39
0.789946 -0.367484 1.653000 27 26 41
0.786123 -0.362826 1.645000 29 25 40
0.782778 -0.358415 1.638000 27 26 39
0.782778 -0.355548 1.638000 25 23 35
0.786123 -0.354187 1.645000 25 21 32
0.786123 -0.351308 1.645000 25 23 35
0.786123 -0.348428 1.645000 23 23 39
0.786123 -0.345549 1.645000 21 26 37
0.786123 -0.342669 1.645000 18 27 36
0.789946 -0.341442 1.653000 15 25 39
0.789946 -0.338548 1.653000 16 21 42
0.789946 -0.335655 1.653000 17 20 37
0.789946 -0.332761 1.653000 19 21 33
0.789946 -0.329868 1.653000 21 24 32
0.789946 -0.326974 1.653000 19 26 31
0.789946 -0.324081 1.653000 17 22 32
0.786123 -0.319633 1.645000 17 20 33
0.786123 -0.316753 1.645000 18 18 33
0.782778 -0.312538 1.638000 16 14 33
0.782778 -0.309670 1.638000 14 16 31
0.782778 -0.306803 1.638000 13 17 30
0.782778 -0.303936 1.638000 13 15 32
0.782778 -0.301069 1.638000 15 14 34
0.782778 -0.298201 1.638000 17 18 35
0.778955 -0.293891 1.630000 21 22 37
0.778955 -0.291038 1.630000 26 25 38
0.782778 -0.289599 1.638000 30 29 39
0.782778 -0.286732 1.638000 34 30 45
0.782778 -0.283865 1.638000 36 29 52
0.782778 -0.280997 1.638000 38 27 47
0.786123 -0.279319 1.645000 33 26 43
0.786123 -0.276439 1.645000 29 25 45
0.786123 -0.273559 1.645000 31 23 48
0.786123 -0.270680 1.645000 34 24 46
0.782778 -0.266661 1.638000 31 23 43
0.782778 -0.263793 1.638000 29 25 40
0.782778 -0.260926 1.638000 28 25 37
0.782778 -0.258059 1.638000 27 25 33
0.782778 -0.255191 1.638000 24 28 29
0.778955 -0.251092 1.630000 21 26 42
0.775132 -0.247020 1.622000 23 26 56
0.775132 -0.244181 1.622000 26 24 50
0.775132 -0.241341 1.622000 26 23 45
0.775132 -0.238502 1.622000 26 23 43
0.775132 -0.235663 1.622000 23 18 41
0.775132 -0.232824 1.622000 21 20 37
0.775132 -0.229984 1.622000 19 20 34
0.775132 -0.227145 1.622000 17 23 41
0.775132 -0.224306 1.622000 23 26 47
0.775132 -0.221466 1.622000 30 25 45
0.778955 -0.219705 1.630000 26 26 42
0.778955 -0.216852 1.630000 22 25 44
0.778955 -0.213999 1.630000 26 23 45
0.778955 -0.211145 1.630000 31 24 44
0.778955 -0.208292 1.630000 29 24 43
0.775132 -0.204430 1.622000 28 24 41
0.771787 -0.200721 1.615000 28 27 39
0.771787 -0.197894 1.615000 29 25 39
0.771787 -0.195067 1.615000 32 24 40
0.771787 -0.192240 1.615000 36 25 42
0.771787 -0.189413 1.615000 29 26 45
0.771787 -0.186586 1.615000 23 26 42
0.771787 -0.183759 1.615000 23 28 39
0.771787 -0.180932 1.615000 23 26 40
0.771787 -0.178105 1.615000 26 26 41
0.771787 -0.175278 1.615000 29 24 42
0.767964 -0.171596 1.607000 32 25 42
0.767964 -0.168783 1.607000 36 23 35
0.767964 -0.165970 1.607000 31 24 28
0.767964 -0.163157 1.607000 27 24 32
0.771787 -0.161142 1.615000 30 26 37
0.767964 -0.157531 1.607000 34 26 40
0.771787 -0.155488 1.615000 27 26 43
0.771787 -0.152661 1.615000 21 22 38
0.771787 -0.149834 1.615000 22 21 33
0.771787 -0.147007 1.615000 23 23 36
0.771787 -0.144180 1.615000 21 25 39
0.767964 -0.140653 1.607000 20 23 34
0.767964 -0.137840 1.607000 17 22 30
0.767964 -0.135027 1.607000 14 19 33
0.767964 -0.132213 1.607000 15 17 36
0.767964 -0.129400 1.607000 16 18 34
0.767964 -0.126587 1.607000 18 17 33
0.767964 -0.123774 1.607000 21 17 33
0.767964 -0.120961 1.607000 18 17 33
0.767964 -0.118148 1.607000 16 19 34
0.767964 -0.115335 1.607000 18 20 36
0.767964 -0.112522 1.607000 20 18 37
0.767964 -0.109709 1.607000 20 17 39
0.767964 -0.106896 1.607000 21 18 39
0.771787 -0.104601 1.615000 18 19 40
0.771787 -0.101774 1.615000 16 18 40
0.767964 -0.098457 1.607000 15 17 41
0.767964 -0.095644 1.607000 14 16 34
0.771787 -0.093293 1.615000 15 14 26
0.767964 -0.090018 1.607000 17 17 27
0.767964 -0.087205 1.607000 18 20 27
0.764618 -0.084024 1.600000 20 18 28
0.764618 -0.081223 1.600000 20 17 28
0.764618 -0.078422 1.600000 20 16 26
0.754105 -0.074582 1.578000 17 15 24
0.762229 -0.069801 1.595000 16 16 16
0.771787 -0.067849 1.615000 17 17 17
0.771787 -0.065022 1.615000 17 18 17
0.775132 -0.062465 1.622000 18 15 16
0.771787 -0.059368 1.615000 20 16 15
0.771787 -0.056541 1.615000 23 17 19
0.771787 -0.053714 1.615000 21 21 24
0.767964 -0.050635 1.607000 20 20 18
0.767964 -0.047822 1.607000 23 21 13
0.767964 -0.045009 1.607000 26 20 20
0.767964 -0.042196 1.607000 24 21 27
0.764618 -0.039211 1.600000 23 24 25
0.767964 -0.036570 1.607000 24 27 22
0.767964 -0.033757 1.607000 26 24 22
0.767964 -0.030944 1.607000 28 24 21
0.767964 -0.028131 1.607000 31 25 24
0.767964 -0.025317 1.607000 29 29 27
0.771787 -0.022616 1.615000 28 29 27
0.771787 -0.019789 1.615000 29 30 27
0.771787 -0.016962 1.615000 30 30 26
0.771787 -0.014135 1.615000 34 33 24
0.771787 -0.011308 1.615000 39 33 25
0.771787 -0.008481 1.615000 38 33 27
0.771787 -0.005654 1.615000 38 30 30
0.771787 -0.002827 1.615000 37 27 34
0.767964 -0.000000 1.607000 37 31 34
0.767964 0.002813 1.607000 38 35 34
0.767964 0.005626 1.607000 39 35 32
0.778955 0.008560 1.630000 51 43 30
0.771787 0.011308 1.615000 64 44 37
0.764618 0.014004 1.600000 44 39 44
0.764618 0.016805 1.600000 25 18 29
0.764618 0.019606 1.600000 64 10 15
0.760795 0.022294 1.592000 103 69 45
0.760795 0.025081 1.592000 142 116 74
0.764618 0.028008 1.600000 182 148 117
0.764618 0.030809 1.600000 218 216 159
0.764618 0.033610 1.600000 254 244 206
0.764618 0.036410 1.600000 254 254 254
0.764618 0.039211 1.600000 254 254 254
0.767964 0.042196 1.607000 219 254 254
0.771787 0.045233 1.615000 185 166 193
0.771787 0.048060 1.615000 140 76 132
0.771787 0.050887 1.615000 95 80 108
0.767964 0.053448 1.607000 97 84 85
0.767964 0.056261 1.607000 100 92 87
0.767964 0.059074 1.607000 123 114 90
0.771787 0.062195 1.615000 146 123 86
0.771787 0.065022 1.615000 121 110 83
0.771787 0.067849 1.615000 96 93 80
0.767964 0.070326 1.607000 92 88 77
0.771787 0.073504 1.615000 89 76 73
0.771787 0.076331 1.615000 88 73 69
0.767964 0.078766 1.607000 88 79 68
0.767964 0.081579 1.607000 86 82 68
0.771787 0.084812 1.615000 84 80 67
0.767964 0.087205 1.607000 83 79 66
0.757450 0.088785 1.585000 83 78 64
0.764618 0.092426 1.600000 82 76 62
0.764618 0.095227 1.600000 81 75 61
0.764618 0.098028 1.600000 76 71 60
0.764618 0.100829 1.600000 71 66 57
0.764618 0.103630 1.600000 69 63 54
0.764618 0.106430 1.600000 68 59 53
0.764618 0.109231 1.600000 63 51 53
0.764618 0.112032 1.600000 59 53 52
0.764618 0.114833 1.600000 47 49 52
0.764618 0.117634 1.600000 35 46 45
0.932835 0.259690 1.952000 26 21 15
0.932835 0.263107 1.952000 26 18 14
0.938569 0.268163 1.964000 26 19 11
0.938569 0.271601 1.964000 26 21 9
0.938569 0.275039 1.964000 26 19 10
0.938569 0.278477 1.964000 25 18 12
0.775132 0.232824 1.622000 24 17 15
0.938569 0.285353 1.964000 24 18 17
0.943826 0.290408 1.975000 24 17 15
0.943826 0.293865 1.975000 23 17 12
0.938569 0.295666 1.964000 23 15 14
0.922799 0.294079 1.931000 24 14 17
0.927578 0.299000 1.941000 26 12 12
0.922799 0.300839 1.931000 31 11 8
0.922799 0.304219 1.931000 37 16 13
0.927578 0.309193 1.941000 51 29 18
0.927578 0.312590 1.941000 65 34 32
0.927578 0.315988 1.941000 56 35 47
0.927578 0.319386 1.941000 47 29 37
0.932835 0.324613 1.952000 38 21 27
0.938569 0.330046 1.964000 29 16 22
0.660439 0.261273 1.382000 22 10 6
0.660439 0.263692 1.382000 25 10 7
0.660439 0.266111 1.382000 28 9 6
0.657572 0.267364 1.376000 28 9 6
0.657572 0.269773 1.376000 28 8 5
0.657572 0.272182 1.376000 23 6 3
0.657572 0.274590 1.376000 18 7 2
0.657572 0.276999 1.376000 23 9 2
0.657572 0.279408 1.376000 28 9 3
0.657572 0.281817 1.376000 26 10 4
0.657572 0.284225 1.376000 25 11 5
0.655182 0.285592 1.371000 24 11 6
0.655182 0.287992 1.371000 23 11 5
0.655182 0.290392 1.371000 24 13 4
0.655182 0.292792 1.371000 25 11 6
0.657572 0.296269 1.376000 28 11 9
0.657572 0.298677 1.376000 31 9 7
0.655182 0.299992 1.371000 27 9 6
0.655182 0.302392 1.371000 24 10 7
0.657572 0.305903 1.376000 25 10 8
0.657572 0.308312 1.376000 26 8 7
0.657572 0.310721 1.376000 27 9 6
0.657572 0.313130 1.376000 29 8 6
0.657572 0.315538 1.376000 27 7 6
0.657572 0.317947 1.376000 26 8 7
0.657572 0.320356 1.376000 25 10 9
0.660439 0.324172 1.382000 25 10 5
0.657572 0.325173 1.376000 25 7 2
0.660439 0.329010 1.382000 25 7 3
0.657572 0.329990 1.376000 22 9 4
0.657572 0.332399 1.376000 20 8 3
0.657572 0.334808 1.376000 22 9 2
0.657572 0.337216 1.376000 24 10 3
0.660439 0.341106 1.382000 25 12 5
0.660439 0.343525 1.382000 27 13 9
0.660439 0.345944 1.382000 26 13 13
0.660439 0.348364 1.382000 26 14 13
0.660439 0.350783 1.382000 28 16 14
0.660439 0.353202 1.382000 30 15 15
0.660439 0.355621 1.382000 32 14 17
0.663306 0.359595 1.388000 35 13 14
0.663306 0.362024 1.388000 34 11 11
0.663306 0.364454 1.388000 34 12 18
0.660439 0.365298 1.382000 32 13 25
0.660439 0.367717 1.382000 30 15 19
0.660439 0.370136 1.382000 25 16 12
0.660439 0.372555 1.382000 20 13 11
0.660439 0.374975 1.382000 29 14 9
0.657572 0.375755 1.376000 39 14 13
0.657572 0.378164 1.376000 34 14 16
0.657572 0.380573 1.376000 30 15 15
0.660439 0.384651 1.382000 30 14 13
