ply
format ascii 1.0
element vertex 1210
property float x
property float y
property float z
property uchar red
property uchar green
property uchar blue
end_header
-0.017614 0.637023 1.677000 229 217 227
-0.017530 0.636906 1.669000 230 218 229
-0.017362 0.633693 1.653000 227 213 231
-0.017204 0.630810 1.638000 225 211 232
-0.017120 0.630583 1.630000 226 217 233
-0.016962 0.627607 1.615000 228 223 232
-0.016962 0.630434 1.615000 226 216 231
-0.016878 0.630124 1.607000 225 213 228
-0.016878 0.632937 1.607000 228 214 225
-0.016805 0.632981 1.600000 231 221 229
-0.016721 0.632603 1.592000 231 220 233
-0.016647 0.632596 1.585000 232 217 233
-0.016500 0.629758 1.571000 232 218 233
-0.016343 0.626469 1.556000 232 208 228
-0.016196 0.623532 1.542000 225 205 224
-0.016133 0.623794 1.536000 218 201 226
-0.016059 0.623628 1.529000 219 211 228
-0.015986 0.623437 1.522000 221 213 228
-0.015912 0.623222 1.515000 221 212 228
-0.015849 0.623395 1.509000 222 211 230
-0.015776 0.623133 1.502000 223 219 233
-0.015713 0.623262 1.496000 225 229 231
-0.015639 0.622952 1.489000 225 221 229
-0.027264 0.752488 3.115000 200 190 202
-0.027264 0.757940 3.115000 203 195 201
-0.025356 0.730253 2.897000 211 193 207
-0.025216 0.731263 2.881000 211 197 208
-0.025216 0.736306 2.881000 212 195 209
-0.025006 0.735173 2.857000 214 194 210
-0.024805 0.734216 2.834000 216 195 210
-0.024402 0.727179 2.788000 214 198 209
-0.024201 0.726020 2.765000 213 199 210
-0.024008 0.725045 2.743000 214 200 211
-0.023824 0.724259 2.722000 216 198 212
-0.023641 0.723400 2.701000 220 198 212
-0.023273 0.716805 2.659000 225 200 211
-0.022923 0.710607 2.619000 222 209 211
-0.022748 0.709730 2.599000 219 203 212
-0.022581 0.709058 2.580000 218 199 213
-0.022581 0.713574 2.580000 217 202 215
-0.022406 0.712524 2.560000 217 211 218
-0.022406 0.717005 2.560000 217 201 214
-0.022249 0.716413 2.542000 219 195 210
-0.022083 0.715475 2.523000 222 198 214
-0.021452 0.699348 2.451000 216 210 219
-0.021155 0.693877 2.417000 211 199 216
-0.021155 0.698108 2.417000 213 199 214
-0.020866 0.692750 2.384000 215 202 215
-0.020717 0.691954 2.367000 217 209 216
-0.020577 0.691392 2.351000 220 204 216
-0.020306 0.686336 2.320000 217 202 217
-0.020166 0.685636 2.304000 214 202 219
-0.020166 0.689669 2.304000 211 202 221
-0.020034 0.689186 2.289000 209 202 221
-0.019903 0.688650 2.274000 214 209 221
-0.019772 0.688062 2.259000 220 205 219
-0.019641 0.687422 2.244000 220 209 218
-0.019518 0.687036 2.230000 220 207 218
-0.019387 0.686292 2.215000 223 210 218
-0.019028 0.677395 2.174000 226 210 220
-0.018905 0.676813 2.160000 223 213 222
-0.018792 0.676498 2.147000 221 202 218
-0.018555 0.671702 2.120000 213 202 214
-0.018442 0.671271 2.107000 205 199 214
-0.018442 0.674960 2.107000 212 196 215
-0.018223 0.670596 2.082000 220 201 217
-0.018109 0.670030 2.069000 220 210 220
-0.018004 0.669745 2.057000 220 207 223
-0.017899 0.669418 2.045000 218 206 227
-0.017794 0.669048 2.033000 216 206 224
-0.017689 0.668637 2.021000 218 207 222
-0.017584 0.668183 2.009000 221 206 221
-0.017584 0.671700 2.009000 223 204 220
-0.017286 0.663790 1.975000 225 207 220
-0.016989 0.655760 1.941000 220 215 220
-0.016901 0.655762 1.931000 216 207 214
-0.016805 0.655387 1.920000 215 202 208
-0.016805 0.658748 1.920000 215 210 223
-0.016621 0.654867 1.899000 216 227 239
-0.016621 0.658192 1.899000 218 192 203
-0.016525 0.657684 1.888000 199 151 167
-0.016437 0.657488 1.878000 181 177 191
-0.016350 0.657257 1.868000 208 224 216
-0.016262 0.656991 1.858000 235 225 226
-0.016000 0.649583 1.828000 233 231 236
-0.015509 0.632785 1.772000 231 225 235
-0.015509 0.635887 1.772000 226 228 235
-0.015509 0.638989 1.772000 222 214 231
-0.015431 0.638829 1.763000 228 208 227
-0.015431 0.641916 1.763000 234 210 229
-0.015352 0.641709 1.754000 230 211 231
-0.015352 0.644779 1.754000 227 212 229
-0.015273 0.644525 1.745000 226 210 227
-0.015124 0.641271 1.728000 225 211 227
-0.015124 0.644296 1.728000 226 208 227
-0.014976 0.640953 1.711000 228 214 230
-0.014897 0.640561 1.702000 228 220 233
-0.014827 0.640515 1.694000 228 218 231
-0.014608 0.633984 1.669000 230 217 229
-0.014538 0.633853 1.661000 233 217 229
-0.014468 0.633693 1.653000 230 214 230
-0.014337 0.630810 1.638000 227 210 231
-0.014267 0.630583 1.630000 231 215 232
-0.014135 0.627607 1.615000 235 218 231
-0.014065 0.627311 1.607000 230 217 231
-0.014065 0.630124 1.607000 226 214 230
-0.014065 0.632937 1.607000 228 214 229
-0.014004 0.632981 1.600000 231 218 232
-0.013934 0.632603 1.592000 230 220 236
-0.013873 0.632596 1.585000 230 221 235
-0.013750 0.629758 1.571000 227 223 234
-0.013680 0.629287 1.563000 225 212 230
-0.013496 0.623532 1.542000 221 200 226
-0.013444 0.623794 1.536000 218 209 228
-0.013321 0.620773 1.522000 220 218 230
-0.013321 0.623437 1.522000 223 215 229
-0.013260 0.623222 1.515000 222 213 229
-0.013208 0.623395 1.509000 222 216 233
-0.013094 0.620643 1.496000 224 225 237
-0.013032 0.620346 1.489000 226 220 229
-0.012980 0.620442 1.483000 226 215 222
-0.021811 0.747035 3.115000 203 186 202
-0.021615 0.745724 3.087000 202 181 201
-0.021615 0.751127 3.087000 204 187 200
-0.020229 0.728236 2.889000 211 192 207
-0.020173 0.731263 2.881000 211 193 209
-0.020173 0.736306 2.881000 211 192 209
-0.020005 0.735173 2.857000 211 195 209
-0.019844 0.734216 2.834000 211 199 208
-0.019676 0.732917 2.810000 211 199 208
-0.019522 0.732059 2.788000 212 199 206
-0.019207 0.725045 2.743000 213 199 205
-0.019060 0.724259 2.722000 215 199 209
-0.018912 0.723400 2.701000 217 196 214
-0.018618 0.716805 2.659000 220 194 215
-0.018478 0.716033 2.639000 219 204 216
-0.018338 0.715191 2.619000 219 208 214
-0.018198 0.714279 2.599000 219 201 213
-0.018065 0.713574 2.580000 219 200 215
-0.018065 0.718090 2.580000 217 202 217
-0.017925 0.717005 2.560000 216 199 216
-0.017925 0.721486 2.560000 217 197 215
-0.017540 0.710371 2.505000 219 197 219
-0.017043 0.694497 2.434000 213 200 223
-0.016924 0.693877 2.417000 208 198 218
-0.016924 0.698108 2.417000 211 196 213
-0.016693 0.692750 2.384000 215 194 214
-0.016693 0.696923 2.384000 220 202 215
-0.016462 0.691392 2.351000 225 207 216
-0.016245 0.686336 2.320000 219 204 217
-0.016133 0.685636 2.304000 214 201 220
-0.016133 0.689669 2.304000 213 202 224
-0.016028 0.689186 2.289000 212 196 223
-0.015923 0.688650 2.274000 215 199 222
-0.015818 0.688062 2.259000 218 195 220
-0.015713 0.687422 2.244000 218 202 218
-0.015615 0.687036 2.230000 219 202 217
-0.015411 0.681955 2.201000 220 207 216
-0.015222 0.677395 2.174000 222 211 218
-0.015124 0.676813 2.160000 221 206 220
-0.015033 0.676498 2.147000 219 201 218
-0.014844 0.671702 2.120000 214 203 217
-0.014753 0.671271 2.107000 210 207 216
-0.014753 0.674960 2.107000 214 203 216
-0.014578 0.670596 2.082000 218 202 217
-0.014487 0.670030 2.069000 219 207 219
-0.014403 0.669745 2.057000 220 205 222
-0.014319 0.669418 2.045000 219 207 225
-0.014235 0.669048 2.033000 218 203 223
-0.014151 0.668637 2.021000 219 205 221
-0.014067 0.668183 2.009000 220 208 220
-0.013990 0.668023 1.998000 220 206 219
-0.013829 0.663790 1.975000 221 201 218
-0.013668 0.659477 1.952000 216 205 217
-0.013521 0.655762 1.931000 211 204 214
-0.013521 0.659142 1.931000 215 205 212
-0.013444 0.658748 1.920000 219 209 224
-0.013367 0.658316 1.909000 218 212 237
-0.013297 0.658192 1.899000 218 193 197
-0.013220 0.657684 1.888000 200 170 157
-0.013150 0.657488 1.878000 182 165 187
-0.013080 0.657257 1.868000 209 206 218
-0.013010 0.656991 1.858000 236 224 226
-0.012737 0.646384 1.819000 233 224 235
-0.012534 0.639213 1.790000 230 214 233
-0.012471 0.639116 1.781000 227 218 232
-0.012408 0.638989 1.772000 225 211 231
-0.012408 0.642090 1.772000 228 208 230
-0.012345 0.641916 1.763000 231 211 232
-0.012345 0.645002 1.763000 229 213 235
-0.012282 0.644779 1.754000 227 218 231
-0.012219 0.644525 1.745000 226 215 228
-0.012100 0.641271 1.728000 226 220 229
-0.012100 0.644296 1.728000 223 219 230
-0.011980 0.640953 1.711000 220 216 227
-0.011917 0.640561 1.702000 223 216 225
-0.011805 0.637490 1.686000 227 217 228
-0.011686 0.633984 1.669000 228 218 231
-0.011630 0.633853 1.661000 230 219 230
-0.011574 0.633693 1.653000 228 212 229
-0.011518 0.633506 1.645000 226 203 230
-0.011413 0.630583 1.630000 228 213 231
-0.011308 0.627607 1.615000 231 217 231
-0.011252 0.627311 1.607000 228 216 231
-0.011252 0.630124 1.607000 226 215 232
-0.011203 0.630180 1.600000 229 217 233
-0.011203 0.632981 1.600000 232 219 236
-0.011098 0.629821 1.585000 231 220 239
-0.011049 0.629802 1.578000 229 224 237
-0.011000 0.629758 1.571000 227 225 235
-0.010944 0.629287 1.563000 226 217 232
-0.010818 0.624745 1.545000 226 214 229
-0.010797 0.626231 1.542000 226 219 231
-0.010657 0.620773 1.522000 223 218 233
-0.010608 0.620570 1.515000 221 218 231
-0.010608 0.623222 1.515000 221 215 230
-0.010566 0.623395 1.509000 221 215 235
-0.010475 0.620643 1.496000 224 216 241
-0.010426 0.620346 1.489000 227 213 228
-0.010426 0.622952 1.489000 227 210 215
-0.016358 0.747035 3.115000 204 185 200
-0.016211 0.745724 3.087000 205 185 199
-0.016211 0.751127 3.087000 206 188 197
-0.015130 0.726220 2.881000 212 191 209
-0.015130 0.731263 2.881000 211 192 209
-0.015130 0.736306 2.881000 210 193 207
-0.015003 0.735173 2.857000 208 196 206
-0.014883 0.734216 2.834000 207 198 207
-0.014757 0.732917 2.810000 209 200 208
-0.014520 0.726020 2.765000 211 199 208
-0.014405 0.725045 2.743000 213 199 208
-0.014295 0.724259 2.722000 215 199 213
-0.014184 0.723400 2.701000 215 196 218
-0.013964 0.716805 2.659000 215 197 213
-0.013859 0.716033 2.639000 217 208 208
-0.013859 0.720653 2.639000 219 204 211
-0.013754 0.719776 2.619000 220 200 215
-0.013549 0.713574 2.580000 221 199 215
-0.013549 0.718090 2.580000 218 200 215
-0.013444 0.717005 2.560000 216 198 214
-0.013444 0.721486 2.560000 216 197 213
-0.013349 0.720863 2.542000 216 197 214
-0.012693 0.689646 2.417000 211 196 215
-0.012693 0.693877 2.417000 206 196 213
-0.012604 0.693198 2.400000 210 195 212
-0.012520 0.692750 2.384000 215 195 212
-0.012430 0.691954 2.367000 222 200 213
-0.012346 0.691392 2.351000 230 205 213
-0.012183 0.686336 2.320000 222 207 213
-0.012183 0.690397 2.320000 215 205 217
-0.012099 0.689669 2.304000 215 209 221
-0.012021 0.689186 2.289000 216 200 221
-0.011942 0.688650 2.274000 216 198 221
-0.011942 0.692631 2.274000 216 200 219
-0.011863 0.692017 2.259000 217 204 218
-0.011784 0.691350 2.244000 218 205 215
-0.011559 0.681955 2.201000 218 206 213
-0.011417 0.677395 2.174000 219 206 216
-0.011343 0.676813 2.160000 218 202 219
-0.011275 0.676498 2.147000 218 201 218
-0.011133 0.671702 2.120000 216 202 218
-0.011133 0.675413 2.120000 215 204 218
-0.011065 0.674960 2.107000 215 208 218
-0.010934 0.670596 2.082000 216 207 218
-0.010865 0.670030 2.069000 218 213 219
-0.010802 0.669745 2.057000 220 209 221
-0.010739 0.669418 2.045000 220 215 223
-0.010676 0.669048 2.033000 220 207 221
-0.010613 0.668637 2.021000 219 205 219
-0.010550 0.668183 2.009000 219 207 219
-0.010492 0.668023 1.998000 218 211 219
-0.010372 0.663790 1.975000 217 205 217
-0.010251 0.659477 1.952000 212 202 215
-0.010141 0.655762 1.931000 207 203 214
-0.010083 0.655387 1.920000 215 208 213
-0.010083 0.658748 1.920000 224 212 222
-0.010025 0.658316 1.909000 221 221 232
-0.009973 0.658192 1.899000 218 194 196
-0.009915 0.657684 1.888000 201 171 160
-0.009862 0.657488 1.878000 184 177 188
-0.009757 0.653738 1.858000 211 212 216
-0.009705 0.653455 1.848000 238 221 225
-0.009552 0.646384 1.819000 234 227 234
-0.009400 0.639213 1.790000 230 221 232
-0.009353 0.639116 1.781000 229 220 231
-0.009306 0.638989 1.772000 228 212 230
-0.009306 0.642090 1.772000 228 205 229
-0.009258 0.641916 1.763000 228 207 228
-0.009258 0.645002 1.763000 228 214 228
-0.009211 0.644779 1.754000 228 215 228
-0.009164 0.644525 1.745000 227 213 228
-0.009117 0.644240 1.736000 227 217 230
-0.009075 0.644296 1.728000 219 234 232
-0.009027 0.643950 1.719000 212 219 229
-0.008985 0.643948 1.711000 219 213 225
-0.008896 0.640515 1.694000 226 213 227
-0.008765 0.633984 1.669000 226 219 230
-0.008723 0.633853 1.661000 227 214 228
-0.008681 0.633693 1.653000 226 214 226
-0.008639 0.633506 1.645000 225 214 228
-0.008602 0.633678 1.638000 226 218 231
-0.008518 0.630327 1.622000 227 217 230
-0.008481 0.630434 1.615000 226 215 229
-0.008439 0.630124 1.607000 226 218 231
-0.008402 0.630180 1.600000 230 223 233
-0.008360 0.629816 1.592000 234 220 234
-0.008324 0.629821 1.585000 231 219 235
-0.008324 0.632596 1.585000 229 222 234
-0.008287 0.632564 1.578000 228 237 233
-0.008250 0.632508 1.571000 227 218 230
-0.008135 0.626362 1.549000 231 220 227
-0.008098 0.626231 1.542000 235 219 231
-0.008030 0.623628 1.529000 227 219 236
-0.007993 0.623437 1.522000 219 217 230
-0.007924 0.620754 1.509000 219 214 225
-0.007888 0.620503 1.502000 220 213 229
-0.007856 0.620643 1.496000 224 214 234
-0.007819 0.620346 1.489000 229 211 228
-0.007756 0.617932 1.477000 229 201 222
-0.011207 0.756453 3.201000 203 181 196
-0.011004 0.748248 3.143000 204 183 197
-0.010906 0.747035 3.115000 206 185 199
-0.010906 0.752488 3.115000 209 188 197
-0.010808 0.751127 3.087000 207 187 195
-0.010710 0.749669 3.059000 205 186 199
-0.010619 0.748607 3.033000 207 187 203
-0.010128 0.729245 2.893000 212 192 210
-0.010086 0.731263 2.881000 213 192 209
-0.010002 0.730172 2.857000 214 194 206
-0.009922 0.729255 2.834000 211 196 203
-0.009922 0.734216 2.834000 209 199 205
-0.009761 0.727179 2.788000 210 200 208
-0.009761 0.732059 2.788000 211 200 210
-0.009603 0.725045 2.743000 214 201 212
-0.009530 0.724259 2.722000 218 202 217
-0.009456 0.723400 2.701000 214 198 223
-0.009309 0.716805 2.659000 211 192 211
-0.009309 0.721460 2.659000 214 199 200
-0.009239 0.720653 2.639000 217 201 209
-0.009169 0.719776 2.619000 217 199 218
-0.009033 0.713574 2.580000 217 197 216
-0.009033 0.718090 2.580000 215 198 214
-0.008963 0.717005 2.560000 213 199 213
-0.008900 0.716413 2.542000 214 199 212
-0.008707 0.705266 2.487000 215 198 209
-0.008521 0.694497 2.434000 212 197 207
-0.008462 0.693877 2.417000 209 198 209
-0.008402 0.693198 2.400000 212 196 211
-0.008346 0.692750 2.384000 215 194 211
-0.008287 0.691954 2.367000 220 202 212
-0.008231 0.691392 2.351000 226 207 211
-0.008175 0.690774 2.335000 221 205 210
-0.008122 0.690397 2.320000 216 206 214
-0.008066 0.689669 2.304000 216 205 219
-0.008014 0.689186 2.289000 216 199 219
-0.007961 0.688650 2.274000 216 203 220
-0.007961 0.692631 2.274000 217 205 219
-0.007909 0.692017 2.259000 218 208 218
-0.007807 0.687036 2.230000 220 209 214
-0.007755 0.686292 2.215000 219 207 210
-0.007611 0.677395 2.174000 218 208 214
-0.007562 0.676813 2.160000 218 205 218
-0.007517 0.676498 2.147000 218 201 218
-0.007422 0.671702 2.120000 216 201 219
-0.007422 0.675413 2.120000 215 201 220
-0.007377 0.674960 2.107000 215 207 221
-0.007289 0.670596 2.082000 216 207 220
-0.007244 0.670030 2.069000 217 210 219
-0.007202 0.669745 2.057000 219 206 220
-0.007202 0.673346 2.057000 219 210 222
-0.007118 0.669048 2.033000 219 207 220
-0.007076 0.668637 2.021000 218 206 218
-0.006995 0.664525 1.998000 218 206 218
-0.006953 0.664010 1.986000 217 207 219
-0.006915 0.663790 1.975000 217 209 216
-0.006876 0.663531 1.964000 213 202 213
-0.006795 0.659158 1.941000 209 199 213
-0.006760 0.659142 1.931000 215 205 214
-0.006722 0.658748 1.920000 220 212 221
-0.006648 0.654867 1.899000 218 210 228
-0.006648 0.658192 1.899000 216 191 196
-0.006610 0.657684 1.888000 199 166 164
-0.006575 0.657488 1.878000 182 163 189
-0.006505 0.653738 1.858000 208 201 215
-0.006470 0.653455 1.848000 234 224 224
-0.006333 0.642831 1.809000 232 224 234
-0.006302 0.642784 1.800000 230 223 232
-0.006235 0.639116 1.781000 228 220 230
-0.006235 0.642234 1.781000 227 214 229
-0.006204 0.642090 1.772000 227 206 228
-0.006204 0.645192 1.772000 227 199 225
-0.006172 0.645002 1.763000 227 209 222
-0.006109 0.641471 1.745000 227 215 225
-0.006109 0.644525 1.745000 227 211 228
-0.006078 0.644240 1.736000 228 204 231
-0.006050 0.644296 1.728000 222 216 235
-0.006050 0.647321 1.728000 216 213 230
-0.006018 0.646959 1.719000 221 217 226
-0.005903 0.637490 1.686000 226 204 227
-0.005871 0.637023 1.677000 226 213 229
-0.005843 0.636906 1.669000 225 206 226
-0.005815 0.636760 1.661000 225 214 223
-0.005787 0.636587 1.653000 224 221 227
-0.005787 0.639481 1.653000 224 219 231
-0.005707 0.633436 1.630000 224 219 229
-0.005654 0.630434 1.615000 225 218 227
-0.005626 0.630124 1.607000 226 219 230
-0.005602 0.630180 1.600000 228 219 234
-0.005574 0.629816 1.592000 231 220 232
-0.005549 0.629821 1.585000 229 216 231
-0.005525 0.629802 1.578000 228 209 231
-0.005525 0.632564 1.578000 226 215 232
-0.005500 0.632508 1.571000 225 199 229
-0.005448 0.629193 1.556000 227 213 226
-0.005399 0.626231 1.542000 230 220 232
-0.005353 0.623628 1.529000 224 219 239
-0.005353 0.626305 1.529000 218 218 229
-0.005304 0.623222 1.515000 219 214 220
-0.005304 0.625874 1.515000 221 212 223
-0.005259 0.623133 1.502000 224 216 227
-0.005213 0.620346 1.489000 228 218 228
-0.005192 0.620442 1.483000 228 214 230
-0.005553 0.749599 3.172000 203 185 195
-0.005502 0.748248 3.143000 204 184 197
-0.005502 0.753750 3.143000 209 184 200
-0.005453 0.752488 3.115000 214 186 198
-0.005404 0.751127 3.087000 208 186 197
-0.005355 0.749669 3.059000 203 186 200
-0.005309 0.748607 3.033000 206 189 202
-0.005262 0.747204 3.006000 209 189 205
-0.005085 0.732269 2.905000 213 191 209
-0.005043 0.731263 2.881000 215 190 209
-0.005001 0.730172 2.857000 218 193 208
-0.004961 0.729255 2.834000 215 198 207
-0.004961 0.734216 2.834000 212 200 208
-0.004919 0.732917 2.810000 212 203 208
-0.004881 0.732059 2.788000 212 201 210
-0.004840 0.730860 2.765000 216 203 212
-0.004765 0.724259 2.722000 221 200 215
-0.004691 0.717775 2.680000 214 203 218
-0.004655 0.716805 2.659000 207 197 210
-0.004620 0.716033 2.639000 211 196 202
-0.004620 0.720653 2.639000 216 199 211
-0.004585 0.719776 2.619000 215 199 219
-0.004516 0.713574 2.580000 214 198 215
-0.004516 0.718090 2.580000 212 198 211
-0.004450 0.711963 2.542000 211 201 211
-0.004417 0.711058 2.523000 212 205 212
-0.004354 0.705266 2.487000 214 200 211
-0.004291 0.699348 2.451000 213 196 211
-0.004261 0.698758 2.434000 213 197 211
-0.004231 0.698108 2.417000 214 197 212
-0.004173 0.692750 2.384000 215 198 212
-0.004144 0.691954 2.367000 218 208 212
-0.004116 0.691392 2.351000 222 206 213
-0.004116 0.695507 2.351000 220 201 214
-0.004088 0.694861 2.335000 218 204 219
-0.004061 0.694459 2.320000 217 209 223
-0.004007 0.689186 2.289000 217 206 220
-0.003981 0.688650 2.274000 217 211 216
-0.003954 0.688062 2.259000 218 208 217
-0.003928 0.687422 2.244000 220 215 218
-0.003904 0.687036 2.230000 222 208 216
-0.003853 0.681955 2.201000 219 207 213
-0.003806 0.677395 2.174000 217 208 216
-0.003781 0.676813 2.160000 217 211 219
-0.003734 0.672087 2.133000 218 203 218
-0.003711 0.671702 2.120000 217 200 218
-0.003711 0.675413 2.120000 216 204 219
-0.003688 0.674960 2.107000 216 214 220
-0.003667 0.674783 2.095000 216 210 219
-0.003622 0.670030 2.069000 217 217 218
-0.003601 0.669745 2.057000 218 209 219
-0.003601 0.673346 2.057000 218 214 220
-0.003559 0.669048 2.033000 218 208 217
-0.003538 0.668637 2.021000 217 209 215
-0.003498 0.664525 1.998000 217 207 214
-0.003498 0.668023 1.998000 217 205 214
-0.003457 0.663790 1.975000 218 204 211
-0.003438 0.663531 1.964000 215 200 208
-0.003398 0.659158 1.941000 212 199 209
-0.003380 0.659142 1.931000 214 204 211
-0.003342 0.654974 1.909000 217 211 221
-0.003324 0.654867 1.899000 215 218 231
-0.003305 0.654379 1.888000 214 184 199
-0.003305 0.657684 1.888000 197 142 167
-0.003288 0.657488 1.878000 181 170 191
-0.003270 0.657257 1.868000 205 205 214
-0.003235 0.653455 1.848000 230 216 223
-0.003184 0.646384 1.819000 230 224 232
-0.003151 0.642784 1.800000 230 223 230
-0.003151 0.645935 1.800000 228 223 229
-0.003118 0.642234 1.781000 227 215 228
-0.003102 0.642090 1.772000 226 209 227
-0.003086 0.641916 1.763000 226 207 227
-0.003070 0.641709 1.754000 226 211 226
-0.003055 0.641471 1.745000 226 214 227
-0.003039 0.641201 1.736000 227 215 229
-0.003039 0.644240 1.736000 229 213 230
-0.003025 0.644296 1.728000 225 216 232
-0.003025 0.647321 1.728000 221 219 229
-0.003009 0.646959 1.719000 224 239 227
-0.002951 0.637490 1.686000 227 221 227
-0.002936 0.637023 1.677000 225 224 228
-0.002922 0.636906 1.669000 224 213 227
-0.002908 0.636760 1.661000 224 216 226
-0.002894 0.636587 1.653000 224 217 231
-0.002894 0.639481 1.653000 222 220 235
-0.002867 0.636545 1.638000 221 220 232
-0.002827 0.630434 1.615000 223 219 229
-0.002813 0.630124 1.607000 226 219 232
-0.002801 0.630180 1.600000 227 217 235
-0.002787 0.629816 1.592000 228 217 233
-0.002775 0.629821 1.585000 227 216 232
-0.002775 0.632596 1.585000 227 214 232
-0.002762 0.632564 1.578000 225 216 233
-0.002750 0.632508 1.571000 223 212 231
-0.002712 0.626362 1.549000 224 215 229
-0.002699 0.626231 1.542000 226 218 232
-0.002677 0.623628 1.529000 221 222 235
-0.002677 0.626305 1.529000 217 216 229
-0.002664 0.626101 1.522000 219 212 224
-0.002652 0.625874 1.515000 222 216 226
-0.002629 0.623133 1.502000 224 223 228
-0.002619 0.623262 1.496000 227 216 229
-0.002596 0.620442 1.483000 227 220 230
-0.000000 0.756453 3.201000 201 183 194
-0.000000 0.755152 3.172000 203 185 197
-0.000000 0.753750 3.143000 206 185 201
-0.000000 0.752488 3.115000 210 187 200
-0.000000 0.757940 3.115000 207 186 200
-0.000000 0.756531 3.087000 203 186 201
-0.000000 0.748607 3.033000 206 187 202
-0.000000 0.747204 3.006000 209 189 203
-0.000000 0.745958 2.980000 210 192 205
-0.000000 0.738571 2.930000 211 193 207
-0.000000 0.737355 2.905000 212 195 210
-0.000000 0.736306 2.881000 214 193 211
-0.000000 0.735173 2.857000 212 196 212
-0.000000 0.734216 2.834000 210 201 210
-0.000000 0.732917 2.810000 210 200 209
-0.000000 0.732059 2.788000 211 198 210
-0.000000 0.730860 2.765000 213 195 212
-0.000000 0.724259 2.722000 216 192 213
-0.000000 0.717775 2.680000 213 199 214
-0.000000 0.711414 2.639000 210 198 209
-0.000000 0.710607 2.619000 212 198 205
-0.000000 0.715191 2.619000 215 202 213
-0.000000 0.714279 2.599000 214 200 221
-0.000000 0.708042 2.560000 213 200 214
-0.000000 0.712524 2.560000 212 199 208
-0.000000 0.711963 2.542000 211 203 210
-0.000000 0.705986 2.505000 213 202 212
-0.000000 0.705266 2.487000 215 201 213
-0.000000 0.704484 2.469000 216 197 215
-0.000000 0.703638 2.451000 218 198 214
-0.000000 0.693198 2.400000 217 198 214
-0.000000 0.692750 2.384000 216 194 213
-0.000000 0.691954 2.367000 221 203 213
-0.000000 0.691392 2.351000 226 209 216
-0.000000 0.695507 2.351000 223 207 219
-0.000000 0.694861 2.335000 220 201 223
-0.000000 0.694459 2.320000 218 205 228
-0.000000 0.689186 2.289000 217 207 220
-0.000000 0.688650 2.274000 215 206 213
-0.000000 0.688062 2.259000 214 203 216
-0.000000 0.687422 2.244000 217 205 219
-0.000000 0.687036 2.230000 221 203 218
-0.000000 0.673589 2.174000 219 205 217
-0.000000 0.673032 2.160000 218 207 218
-0.000000 0.672740 2.147000 219 205 220
-0.000000 0.672087 2.133000 220 202 219
-0.000000 0.671702 2.120000 218 202 218
-0.000000 0.675413 2.120000 216 202 218
-0.000000 0.674960 2.107000 215 204 219
-0.000000 0.670596 2.082000 214 202 218
-0.000000 0.670030 2.069000 216 203 217
-0.000000 0.669745 2.057000 217 199 217
-0.000000 0.669418 2.045000 217 204 218
-0.000000 0.669048 2.033000 217 203 215
-0.000000 0.668637 2.021000 215 206 213
-0.000000 0.664525 1.998000 212 208 211
-0.000000 0.668023 1.998000 214 204 209
-0.000000 0.667487 1.986000 216 204 206
-0.000000 0.667247 1.975000 214 202 203
-0.000000 0.662893 1.952000 212 194 205
-0.000000 0.659142 1.931000 214 200 208
-0.000000 0.662522 1.931000 216 213 221
-0.000000 0.654867 1.899000 215 211 234
-0.000000 0.654379 1.888000 215 186 202
-0.000000 0.654201 1.878000 198 166 171
-0.000000 0.657488 1.878000 182 170 192
-0.000000 0.657257 1.868000 206 203 214
-0.000000 0.656991 1.858000 230 211 222
-0.000000 0.646384 1.819000 229 220 230
-0.000000 0.642784 1.800000 229 224 229
-0.000000 0.642346 1.790000 227 221 228
-0.000000 0.638989 1.772000 226 214 227
-0.000000 0.642090 1.772000 226 211 227
-0.000000 0.641916 1.763000 225 212 229
-0.000000 0.641709 1.754000 224 213 231
-0.000000 0.641471 1.745000 224 215 230
-0.000000 0.644525 1.745000 225 216 230
-0.000000 0.644240 1.736000 227 219 230
-0.000000 0.644296 1.728000 224 217 230
-0.000000 0.647321 1.728000 222 208 229
-0.000000 0.646959 1.719000 224 218 228
-0.000000 0.637490 1.686000 226 218 228
-0.000000 0.637023 1.677000 224 215 228
-0.000000 0.636906 1.669000 221 209 229
-0.000000 0.636760 1.661000 224 212 230
-0.000000 0.639668 1.661000 227 214 235
-0.000000 0.639481 1.653000 225 221 240
-0.000000 0.636545 1.638000 223 222 236
-0.000000 0.633166 1.622000 225 220 232
-0.000000 0.630124 1.607000 226 221 234
-0.000000 0.630180 1.600000 225 218 236
-0.000000 0.629816 1.592000 225 217 234
-0.000000 0.629821 1.585000 226 216 233
-0.000000 0.632596 1.585000 228 217 233
-0.000000 0.632564 1.578000 226 219 234
-0.000000 0.632508 1.571000 224 220 233
-0.000000 0.626362 1.549000 226 221 233
-0.000000 0.626231 1.542000 227 218 232
-0.000000 0.623628 1.529000 224 217 232
-0.000000 0.626305 1.529000 220 214 230
-0.000000 0.626101 1.522000 222 214 228
-0.000000 0.625874 1.515000 224 217 228
-0.000000 0.626037 1.509000 225 214 229
-0.000000 0.623262 1.496000 225 204 230
-0.000000 0.620442 1.483000 225 212 231
0.005603 0.756453 3.201000 199 182 194
0.005553 0.755152 3.172000 202 184 198
0.005553 0.760705 3.172000 204 185 202
0.005502 0.759252 3.143000 207 186 200
0.005453 0.757940 3.115000 205 188 198
0.005404 0.756531 3.087000 204 187 200
0.005355 0.755024 3.059000 206 186 202
0.005262 0.747204 3.006000 209 190 203
0.005217 0.745958 2.980000 209 197 203
0.005129 0.738571 2.930000 209 197 206
0.005085 0.737355 2.905000 210 207 209
0.005043 0.736306 2.881000 211 196 209
0.005001 0.735173 2.857000 210 195 210
0.004961 0.734216 2.834000 209 194 209
0.004919 0.732917 2.810000 209 199 209
0.004880 0.732059 2.788000 210 194 209
0.004840 0.730860 2.765000 211 187 210
0.004765 0.724259 2.722000 212 195 211
0.004691 0.717775 2.680000 212 203 213
0.004620 0.711414 2.639000 213 198 209
0.004585 0.710607 2.619000 213 197 205
0.004585 0.715191 2.619000 214 199 210
0.004516 0.709058 2.580000 213 200 216
0.004481 0.708042 2.560000 213 198 212
0.004450 0.707514 2.542000 212 197 209
0.004417 0.706642 2.523000 211 197 210
0.004385 0.705986 2.505000 213 202 211
0.004354 0.705266 2.487000 216 199 212
0.004322 0.704484 2.469000 219 195 212
0.004290 0.703638 2.451000 223 197 212
0.004201 0.693198 2.400000 220 204 212
0.004173 0.692750 2.384000 217 200 212
0.004143 0.691954 2.367000 224 201 212
0.004115 0.691392 2.351000 231 207 215
0.004115 0.695507 2.351000 226 217 219
0.004087 0.694861 2.335000 222 204 221
0.004061 0.694459 2.320000 219 203 224
0.004007 0.689186 2.289000 217 204 219
0.003981 0.688650 2.274000 214 206 215
0.003954 0.688062 2.259000 211 202 216
0.003928 0.687422 2.244000 215 201 217
0.003904 0.687036 2.230000 220 203 217
0.003828 0.677617 2.187000 219 204 217
0.003781 0.673032 2.160000 219 204 219
0.003758 0.672740 2.147000 220 202 222
0.003711 0.667991 2.120000 222 203 220
0.003711 0.671702 2.120000 219 204 218
0.003711 0.675413 2.120000 216 202 217
0.003688 0.674960 2.107000 214 201 216
0.003667 0.674783 2.095000 213 200 215
0.003622 0.670030 2.069000 215 197 213
0.003601 0.669745 2.057000 217 199 215
0.003580 0.669418 2.045000 217 202 218
0.003559 0.669048 2.033000 217 204 217
0.003538 0.668637 2.021000 212 205 217
0.003498 0.664525 1.998000 208 204 214
0.003477 0.664010 1.986000 211 200 212
0.003457 0.663790 1.975000 214 203 209
0.003457 0.667247 1.975000 213 210 206
0.003438 0.666969 1.964000 213 197 205
0.003380 0.659142 1.931000 214 192 205
0.003342 0.654974 1.909000 215 207 218
0.003305 0.651074 1.888000 216 230 231
0.003305 0.654379 1.888000 217 191 199
0.003287 0.654201 1.878000 200 168 168
0.003270 0.653987 1.868000 183 178 190
0.003270 0.657257 1.868000 207 226 212
0.003235 0.653455 1.848000 231 221 223
0.003184 0.646384 1.819000 229 222 233
0.003167 0.645998 1.809000 228 223 231
0.003133 0.642346 1.790000 227 224 229
0.003133 0.645480 1.790000 226 214 227
0.003102 0.642090 1.772000 225 211 225
0.003086 0.641916 1.763000 225 212 225
0.003070 0.641709 1.754000 223 214 225
0.003055 0.641471 1.745000 222 215 226
0.003055 0.644525 1.745000 223 217 228
0.003039 0.644240 1.736000 225 216 228
0.003025 0.644296 1.728000 224 225 228
0.003025 0.647321 1.728000 224 213 226
0.003009 0.646959 1.719000 225 210 224
0.002936 0.634087 1.677000 226 212 225
0.002936 0.637023 1.677000 222 211 227
0.002922 0.636906 1.669000 219 211 228
0.002908 0.636760 1.661000 225 212 230
0.002908 0.639668 1.661000 231 218 232
0.002894 0.639481 1.653000 228 230 234
0.002880 0.639265 1.645000 226 221 231
0.002827 0.630434 1.615000 226 220 228
0.002813 0.630124 1.607000 227 219 231
0.002801 0.630180 1.600000 224 219 233
0.002787 0.629816 1.592000 222 218 233
0.002775 0.629821 1.585000 226 216 232
0.002775 0.632596 1.585000 230 219 232
0.002762 0.632564 1.578000 228 226 232
0.002724 0.626469 1.556000 226 218 232
0.002712 0.626362 1.549000 227 233 233
0.002699 0.626231 1.542000 229 221 233
0.002689 0.626483 1.536000 226 215 233
0.002677 0.626305 1.529000 224 215 231
0.002664 0.626101 1.522000 225 215 229
0.002664 0.628766 1.522000 227 215 231
0.002642 0.626037 1.509000 225 213 233
0.002629 0.625762 1.502000 224 213 232
0.002607 0.622952 1.489000 224 221 231
0.011105 0.755152 3.172000 202 185 199
0.011105 0.760705 3.172000 204 185 204
0.011004 0.759252 3.143000 207 187 200
0.010906 0.757940 3.115000 206 188 197
0.010808 0.756531 3.087000 205 190 200
0.010709 0.755024 3.059000 207 191 203
0.010524 0.747204 3.006000 210 189 202
0.010345 0.739700 2.955000 207 193 202
0.010258 0.738571 2.930000 204 194 205
0.010170 0.737355 2.905000 206 194 208
0.010086 0.736306 2.881000 208 191 208
0.010002 0.735173 2.857000 209 188 209
0.009922 0.734216 2.834000 210 182 209
0.009838 0.732917 2.810000 210 191 209
0.009761 0.732059 2.788000 210 194 209
0.009680 0.730860 2.765000 209 194 209
0.009530 0.724259 2.722000 209 200 210
0.009383 0.717775 2.680000 210 198 212
0.009169 0.706022 2.619000 212 195 208
0.009169 0.710607 2.619000 212 196 205
0.009099 0.709730 2.599000 212 198 208
0.009033 0.709058 2.580000 212 197 211
0.008963 0.708042 2.560000 212 198 210
0.008899 0.707514 2.542000 212 194 210
0.008770 0.701601 2.505000 212 188 210
0.008770 0.705986 2.505000 213 196 211
0.008707 0.705266 2.487000 215 199 210
0.008644 0.704484 2.469000 216 195 210
0.008644 0.708806 2.469000 218 193 210
0.008402 0.693198 2.400000 217 200 210
0.008346 0.692750 2.384000 215 202 210
0.008287 0.691954 2.367000 221 202 211
0.008231 0.691392 2.351000 226 203 215
0.008231 0.695507 2.351000 224 203 220
0.008175 0.694861 2.335000 222 195 220
0.008122 0.694459 2.320000 220 200 220
0.008014 0.689186 2.289000 218 201 218
0.007961 0.688650 2.274000 215 201 217
0.007909 0.688062 2.259000 213 199 216
0.007856 0.687422 2.244000 216 203 216
0.007807 0.687036 2.230000 219 206 217
0.007611 0.673589 2.174000 218 204 218
0.007562 0.673032 2.160000 217 203 221
0.007562 0.676813 2.160000 218 205 224
0.007422 0.667991 2.120000 219 204 221
0.007422 0.671702 2.120000 217 203 218
0.007422 0.675413 2.120000 215 203 216
0.007377 0.674960 2.107000 213 201 214
0.007289 0.670596 2.082000 212 200 212
0.007244 0.670030 2.069000 216 201 210
0.007202 0.669745 2.057000 221 200 214
0.007160 0.669418 2.045000 219 202 218
0.007117 0.669048 2.033000 218 207 220
0.007075 0.668637 2.021000 217 207 222
0.007033 0.668183 2.009000 216 206 218
0.006995 0.668023 1.998000 214 202 215
0.006953 0.667487 1.986000 213 201 212
0.006914 0.667247 1.975000 212 201 209
0.006876 0.666969 1.964000 211 195 205
0.006795 0.662556 1.941000 212 192 202
0.006760 0.662522 1.931000 214 194 215
0.006610 0.651074 1.888000 214 208 228
0.006610 0.654379 1.888000 215 183 196
0.006540 0.650717 1.868000 199 164 165
0.006505 0.650486 1.858000 183 149 188
0.006505 0.653738 1.858000 207 203 211
0.006470 0.653455 1.848000 232 228 224
0.006368 0.646384 1.819000 230 224 237
0.006333 0.645998 1.809000 229 223 234
0.006302 0.645935 1.800000 227 220 231
0.006267 0.645480 1.790000 226 209 227
0.006204 0.642090 1.772000 225 210 224
0.006172 0.641916 1.763000 225 214 221
0.006141 0.641709 1.754000 225 214 219
0.006109 0.641471 1.745000 226 216 222
0.006078 0.641201 1.736000 225 214 226
0.006078 0.644240 1.736000 225 205 226
0.006050 0.644296 1.728000 224 215 226
0.006018 0.643950 1.719000 224 211 223
0.005990 0.643948 1.711000 225 211 220
0.005903 0.637490 1.686000 225 212 223
0.005871 0.637023 1.677000 223 211 227
0.005843 0.636906 1.669000 221 213 228
0.005815 0.636760 1.661000 225 214 230
0.005815 0.639668 1.661000 228 216 229
0.005815 0.642576 1.661000 227 217 229
0.005787 0.642374 1.653000 226 213 227
0.005679 0.633166 1.622000 226 218 225
0.005626 0.630124 1.607000 226 219 228
0.005602 0.630180 1.600000 225 217 231
0.005602 0.632981 1.600000 224 220 231
0.005549 0.629821 1.585000 228 217 232
0.005525 0.629802 1.578000 231 218 231
0.005525 0.632564 1.578000 228 213 231
0.005448 0.626469 1.556000 224 193 232
0.005423 0.626362 1.549000 227 215 233
0.005399 0.626231 1.542000 229 218 234
0.005378 0.626483 1.536000 226 216 235
0.005353 0.626305 1.529000 223 216 233
0.005328 0.626101 1.522000 226 218 231
0.005328 0.628766 1.522000 229 217 234
0.005304 0.628526 1.515000 227 216 238
0.005258 0.625762 1.502000 225 214 235
0.005237 0.625881 1.496000 225 217 232
0.016757 0.759675 3.191000 202 184 197
0.016658 0.760705 3.172000 205 185 202
0.016505 0.759252 3.143000 208 186 200
0.016358 0.757940 3.115000 207 187 199
0.016211 0.756531 3.087000 206 191 200
0.016064 0.755024 3.059000 208 202 202
0.015649 0.740742 2.980000 211 192 202
0.015649 0.745958 2.980000 205 193 202
0.015387 0.738571 2.930000 200 192 204
0.015256 0.737355 2.905000 203 187 206
0.015130 0.736306 2.881000 206 187 206
0.015003 0.735173 2.857000 209 187 206
0.014883 0.734216 2.834000 212 189 207
0.014641 0.727179 2.788000 211 189 208
0.014641 0.732059 2.788000 210 192 207
0.014520 0.730860 2.765000 208 197 207
0.014295 0.724259 2.722000 206 196 209
0.014074 0.717775 2.680000 209 194 211
0.013754 0.706022 2.619000 212 194 209
0.013649 0.705180 2.599000 211 194 208
0.013649 0.709730 2.599000 210 195 208
0.013444 0.703561 2.560000 210 194 209
0.013444 0.708042 2.560000 211 195 209
0.013250 0.702226 2.523000 212 193 209
0.013155 0.701601 2.505000 213 194 209
0.013060 0.700913 2.487000 213 198 210
0.013060 0.705266 2.487000 214 197 208
0.012966 0.704484 2.469000 214 195 206
0.012966 0.708806 2.469000 214 196 207
0.012604 0.693198 2.400000 214 203 209
0.012520 0.692750 2.384000 214 202 210
0.012430 0.691954 2.367000 218 202 211
0.012346 0.691392 2.351000 222 200 214
0.012346 0.695507 2.351000 222 198 218
0.012262 0.694861 2.335000 222 199 218
0.012099 0.689669 2.304000 220 203 219
0.012021 0.689186 2.289000 219 201 217
0.011942 0.688650 2.274000 217 200 216
0.011942 0.692631 2.274000 216 201 215
0.011784 0.687422 2.244000 217 209 214
0.011711 0.687036 2.230000 218 204 215
0.011417 0.673589 2.174000 217 206 216
0.011343 0.673032 2.160000 216 207 219
0.011275 0.672740 2.147000 216 212 221
0.011201 0.672087 2.133000 217 206 218
0.011133 0.671702 2.120000 215 201 215
0.011133 0.675413 2.120000 214 200 215
0.011065 0.674960 2.107000 212 200 215
0.010934 0.670596 2.082000 211 202 216
0.010865 0.670030 2.069000 218 207 218
0.010802 0.669745 2.057000 225 202 218
0.010739 0.669418 2.045000 222 201 218
0.010676 0.669048 2.033000 219 205 217
0.010613 0.668637 2.021000 221 211 215
0.010550 0.668183 2.009000 224 205 214
0.010492 0.668023 1.998000 218 202 214
0.010429 0.667487 1.986000 212 200 211
0.010372 0.667247 1.975000 210 200 208
0.010314 0.666969 1.964000 209 195 203
0.010141 0.659142 1.931000 211 188 199
0.010141 0.662522 1.931000 213 201 215
0.009915 0.651074 1.888000 213 225 232
0.009915 0.654379 1.888000 214 188 196
0.009810 0.650717 1.868000 199 158 161
0.009757 0.650486 1.858000 184 166 186
0.009757 0.653738 1.858000 208 210 212
0.009652 0.649919 1.838000 233 219 224
0.009552 0.646384 1.819000 232 225 235
0.009500 0.645998 1.809000 231 224 233
0.009453 0.645935 1.800000 228 225 231
0.009400 0.645480 1.790000 226 213 227
0.009306 0.642090 1.772000 225 206 224
0.009258 0.641916 1.763000 225 210 222
0.009164 0.638416 1.745000 228 214 220
0.009164 0.641471 1.745000 231 215 223
0.009117 0.641201 1.736000 228 220 226
0.009075 0.641271 1.728000 225 216 226
0.009075 0.644296 1.728000 225 219 227
0.009027 0.643950 1.719000 225 214 227
0.008938 0.640561 1.702000 225 212 227
0.008854 0.637490 1.686000 225 213 227
0.008807 0.637023 1.677000 224 211 228
0.008765 0.636906 1.669000 224 213 230
0.008723 0.636760 1.661000 225 215 232
0.008723 0.639668 1.661000 226 215 230
0.008723 0.642576 1.661000 226 212 228
0.008639 0.639265 1.645000 227 215 228
0.008560 0.636289 1.630000 226 223 228
0.008439 0.630124 1.607000 226 216 230
0.008402 0.630180 1.600000 226 211 232
0.008439 0.635750 1.607000 227 216 231
0.008324 0.629821 1.585000 230 217 231
0.008287 0.629802 1.578000 233 217 230
0.008287 0.632564 1.578000 228 218 230
0.008135 0.623651 1.549000 223 208 230
0.008135 0.626362 1.549000 226 216 230
0.008098 0.626231 1.542000 230 216 231
0.008066 0.626483 1.536000 226 215 232
0.008030 0.626305 1.529000 222 216 230
0.007993 0.626101 1.522000 227 226 229
0.007993 0.628766 1.522000 232 219 232
0.007924 0.626037 1.509000 229 220 234
0.007856 0.623262 1.496000 227 216 232
0.007819 0.622952 1.489000 227 222 229
0.022483 0.764436 3.211000 202 186 196
0.022413 0.767659 3.201000 205 184 200
0.022210 0.766257 3.172000 209 186 200
0.022007 0.764753 3.143000 206 185 201
0.021615 0.756531 3.087000 202 186 201
0.021419 0.755024 3.059000 205 189 201
0.020866 0.740742 2.980000 209 184 201
0.020866 0.745958 2.980000 206 191 202
0.020691 0.744873 2.955000 203 194 203
0.020516 0.743700 2.930000 205 188 205
0.020341 0.742440 2.905000 207 183 204
0.020173 0.741349 2.881000 210 189 204
0.019844 0.734216 2.834000 214 199 205
0.019361 0.721180 2.765000 212 193 207
0.019361 0.726020 2.765000 211 189 206
0.019361 0.730860 2.765000 210 192 206
0.018912 0.718672 2.701000 209 194 208
0.018478 0.706794 2.639000 210 194 211
0.018338 0.706022 2.619000 212 193 211
0.018198 0.705180 2.599000 211 195 211
0.018065 0.704541 2.580000 211 196 209
0.017925 0.703561 2.560000 212 197 208
0.017925 0.708042 2.560000 212 195 208
0.017666 0.702226 2.523000 213 197 209
0.017540 0.701601 2.505000 213 197 209
0.017414 0.700913 2.487000 212 197 209
0.017414 0.705266 2.487000 211 198 206
0.017414 0.709620 2.487000 212 195 203
0.017288 0.708806 2.469000 213 194 205
0.016805 0.693198 2.400000 214 200 208
0.016693 0.692750 2.384000 215 202 209
0.016574 0.691954 2.367000 218 201 211
0.016462 0.691392 2.351000 221 200 214
0.016462 0.695507 2.351000 221 199 217
0.016350 0.694861 2.335000 221 202 217
0.016245 0.694459 2.320000 218 203 218
0.016028 0.689186 2.289000 216 203 217
0.015923 0.688650 2.274000 215 200 216
0.015818 0.688062 2.259000 214 198 214
0.015712 0.687422 2.244000 215 200 212
0.015614 0.687036 2.230000 216 197 213
0.015313 0.677617 2.187000 214 204 215
0.015124 0.673032 2.160000 212 209 217
0.015033 0.672740 2.147000 215 207 219
0.014935 0.672087 2.133000 219 207 216
0.014844 0.671702 2.120000 217 204 213
0.014844 0.675413 2.120000 215 199 214
0.014753 0.674960 2.107000 213 200 216
0.014578 0.670596 2.082000 212 203 221
0.014487 0.670030 2.069000 215 203 226
0.014403 0.669745 2.057000 219 201 222
0.014235 0.665489 2.033000 216 200 219
0.014235 0.669048 2.033000 213 203 214
0.014151 0.668637 2.021000 216 203 209
0.013990 0.664525 1.998000 220 201 211
0.013990 0.668023 1.998000 216 203 213
0.013906 0.667487 1.986000 212 199 210
0.013829 0.667247 1.975000 208 199 207
0.013752 0.666969 1.964000 205 197 201
0.013591 0.662556 1.941000 211 195 196
0.013444 0.658748 1.920000 216 200 216
0.013297 0.654867 1.899000 215 208 236
0.013220 0.654379 1.888000 214 186 196
0.013080 0.650717 1.868000 199 157 157
0.013010 0.650486 1.858000 185 148 185
0.013010 0.653738 1.858000 209 196 214
0.012870 0.649919 1.838000 233 216 224
0.012737 0.646384 1.819000 233 221 234
0.012667 0.645998 1.809000 234 224 233
0.012667 0.649164 1.809000 230 220 232
0.012604 0.649086 1.800000 226 212 228
0.012534 0.648613 1.790000 223 210 224
0.012345 0.641916 1.763000 221 206 223
0.012218 0.638416 1.745000 223 210 222
0.012155 0.638162 1.736000 226 212 224
0.012155 0.641201 1.736000 223 216 227
0.012099 0.641271 1.728000 220 220 227
0.012099 0.644296 1.728000 222 217 228
0.012036 0.643950 1.719000 225 216 231
0.011917 0.640561 1.702000 225 216 235
0.011805 0.637490 1.686000 225 219 232
0.011742 0.637023 1.677000 225 215 229
0.011686 0.636906 1.669000 225 215 232
0.011630 0.636760 1.661000 225 216 235
0.011574 0.636587 1.653000 226 217 231
0.011518 0.636386 1.645000 228 213 227
0.011469 0.636545 1.638000 230 212 229
0.011413 0.636289 1.630000 226 221 232
0.011357 0.636006 1.622000 223 214 233
0.011252 0.632937 1.607000 224 213 234
0.011252 0.635750 1.607000 226 216 232
0.011098 0.629821 1.585000 228 216 230
0.011049 0.629802 1.578000 230 218 230
0.011049 0.632564 1.578000 227 215 230
0.010846 0.623651 1.549000 224 205 228
0.010797 0.623532 1.542000 226 211 227
0.010797 0.626231 1.542000 228 216 228
0.010755 0.626483 1.536000 225 212 229
0.010706 0.626305 1.529000 222 209 228
0.010657 0.626101 1.522000 225 214 228
0.010657 0.628766 1.522000 228 213 229
0.010608 0.628526 1.515000 226 214 231
0.010517 0.625762 1.502000 224 211 229
0.010475 0.625881 1.496000 224 214 227
0.028279 0.769198 3.231000 202 183 196
0.028279 0.774854 3.231000 206 182 199
0.028017 0.773263 3.201000 211 184 201
0.027763 0.771810 3.172000 205 184 204
0.027264 0.763393 3.115000 199 185 200
0.026774 0.755024 3.059000 203 185 197
0.026082 0.740742 2.980000 207 186 199
0.025864 0.739700 2.955000 206 194 202
0.025645 0.738571 2.930000 206 192 203
0.025645 0.743700 2.930000 207 189 205
0.025426 0.742440 2.905000 209 187 205
0.025216 0.741349 2.881000 212 188 206
0.024201 0.716340 2.765000 216 192 207
0.024201 0.721180 2.765000 214 195 209
0.024008 0.720243 2.743000 212 191 209
0.024008 0.725045 2.743000 212 190 208
0.023641 0.718672 2.701000 213 193 211
0.023273 0.712151 2.659000 212 195 214
0.023098 0.711414 2.639000 212 195 212
0.022923 0.710607 2.619000 212 198 211
0.022581 0.704541 2.580000 213 199 207
0.022406 0.703561 2.560000 213 204 204
0.022406 0.708042 2.560000 214 199 206
0.022083 0.702226 2.523000 214 205 208
0.021925 0.701601 2.505000 214 198 208
0.021767 0.700913 2.487000 211 196 209
0.021767 0.705266 2.487000 209 197 207
0.021767 0.709620 2.487000 210 194 206
0.021610 0.708806 2.469000 212 196 208
0.021155 0.698108 2.417000 214 201 210
0.020866 0.692750 2.384000 216 202 211
0.020717 0.691954 2.367000 218 201 212
0.020577 0.691392 2.351000 220 200 214
0.020577 0.695507 2.351000 220 197 215
0.020437 0.694861 2.335000 220 201 214
0.020306 0.694459 2.320000 217 204 213
0.020034 0.689186 2.289000 214 202 213
0.019903 0.688650 2.274000 213 200 213
0.019772 0.688062 2.259000 213 198 210
0.019641 0.687422 2.244000 214 199 207
0.019387 0.682415 2.215000 215 201 210
0.019028 0.673589 2.174000 211 204 214
0.018905 0.673032 2.160000 208 203 215
0.018792 0.672740 2.147000 214 201 216
0.018555 0.667991 2.120000 221 204 215
0.018555 0.671702 2.120000 218 212 214
0.018555 0.675413 2.120000 216 204 214
0.018442 0.674960 2.107000 214 201 215
0.018336 0.674783 2.095000 213 201 218
0.018109 0.670030 2.069000 213 201 222
0.018004 0.669745 2.057000 214 200 221
0.017794 0.665489 2.033000 210 198 221
0.017689 0.665099 2.021000 207 200 215
0.017584 0.664667 2.009000 211 198 210
0.017531 0.666188 2.003000 216 203 212
0.017487 0.668023 1.998000 214 212 213
0.017382 0.667487 1.986000 212 203 210
0.017286 0.667247 1.975000 207 201 207
0.017085 0.662893 1.952000 202 197 203
0.016901 0.659142 1.931000 211 195 199
0.016805 0.658748 1.920000 220 206 216
0.016621 0.654867 1.899000 217 223 234
0.016437 0.650913 1.878000 215 184 197
0.016262 0.647233 1.858000 200 139 161
0.016175 0.646985 1.848000 186 165 187
0.016175 0.650220 1.848000 209 213 214
0.016000 0.646383 1.828000 233 217 225
0.015921 0.646384 1.819000 235 222 236
0.015833 0.645998 1.809000 238 222 231
0.015755 0.645935 1.800000 232 222 225
0.015755 0.649086 1.800000 226 214 223
0.015667 0.648613 1.790000 221 216 222
0.015352 0.638639 1.754000 217 210 221
0.015273 0.638416 1.745000 219 208 221
0.015194 0.638162 1.736000 222 210 223
0.015194 0.641201 1.736000 219 213 225
0.015124 0.641271 1.728000 216 213 224
0.015124 0.644296 1.728000 220 213 224
0.015046 0.643950 1.719000 225 213 228
0.014897 0.640561 1.702000 225 220 231
0.014757 0.637490 1.686000 226 216 229
0.014678 0.637023 1.677000 226 216 228
0.014608 0.636906 1.669000 226 218 230
0.014538 0.636760 1.661000 226 219 232
0.014468 0.636587 1.653000 227 217 228
0.014398 0.636386 1.645000 230 214 224
0.014337 0.636545 1.638000 233 216 227
0.014267 0.636289 1.630000 226 235 230
0.014197 0.636006 1.622000 220 218 230
0.014135 0.636088 1.615000 222 214 230
0.014065 0.635750 1.607000 225 215 229
0.014004 0.635782 1.600000 226 216 229
0.013873 0.632596 1.585000 228 218 229
0.013811 0.632564 1.578000 226 220 230
0.013558 0.623651 1.549000 225 211 231
0.013496 0.623532 1.542000 226 209 232
0.013444 0.623794 1.536000 227 213 231
0.013383 0.623628 1.529000 224 211 230
0.013321 0.623437 1.522000 222 209 229
0.013321 0.626101 1.522000 223 210 229
0.013321 0.628766 1.522000 224 212 231
0.013208 0.626037 1.509000 223 212 233
0.013146 0.625762 1.502000 222 213 230
0.013094 0.625881 1.496000 222 212 228
0.033935 0.769198 3.231000 201 180 196
0.033935 0.774854 3.231000 205 183 199
0.033620 0.773263 3.201000 208 184 203
0.033316 0.771810 3.172000 205 186 207
0.032717 0.763393 3.115000 202 188 200
0.032129 0.755024 3.059000 205 185 193
0.031299 0.740742 2.980000 208 183 198
0.031036 0.739700 2.955000 209 190 203
0.031036 0.744873 2.955000 211 192 204
0.030774 0.743700 2.930000 210 191 205
0.030511 0.742440 2.905000 208 190 206
0.030259 0.741349 2.881000 211 190 208
0.030007 0.740175 2.857000 214 187 210
0.029041 0.721180 2.765000 213 194 212
0.028810 0.720243 2.743000 212 193 211
0.028810 0.725045 2.743000 212 192 211
0.028369 0.718672 2.701000 212 194 214
0.027927 0.712151 2.659000 211 194 218
0.027717 0.711414 2.639000 211 195 214
0.027507 0.710607 2.619000 214 197 211
0.027098 0.704541 2.580000 218 199 206
0.027098 0.709058 2.580000 216 197 201
0.026888 0.708042 2.560000 215 192 204
0.026499 0.702226 2.523000 214 199 207
0.026310 0.701601 2.505000 213 195 208
0.026310 0.705986 2.505000 212 198 209
0.026121 0.705266 2.487000 210 200 209
0.026121 0.709620 2.487000 212 197 210
0.026121 0.713973 2.487000 214 197 211
0.025386 0.698108 2.417000 215 202 213
0.025039 0.692750 2.384000 215 204 213
0.024861 0.691954 2.367000 217 203 214
0.024693 0.691392 2.351000 219 203 214
0.024693 0.695507 2.351000 218 201 214
0.024525 0.694861 2.335000 218 203 211
0.024367 0.694459 2.320000 215 203 208
0.024041 0.689186 2.289000 212 203 209
0.023884 0.688650 2.274000 212 200 211
0.023726 0.688062 2.259000 212 198 206
0.023422 0.683133 2.230000 214 203 202
0.023264 0.682415 2.215000 215 206 207
0.022834 0.673589 2.174000 213 202 213
0.022550 0.668982 2.147000 211 201 213
0.022403 0.668353 2.133000 215 199 214
0.022266 0.667991 2.120000 219 196 215
0.022266 0.671702 2.120000 213 202 216
0.022130 0.671271 2.107000 208 204 215
0.022130 0.674960 2.107000 210 201 214
0.022004 0.674783 2.095000 213 201 216
0.021731 0.670030 2.069000 214 200 219
0.021605 0.669745 2.057000 215 200 221
0.021353 0.665489 2.033000 215 201 223
0.021227 0.665099 2.021000 215 201 217
0.021101 0.664667 2.009000 216 200 212
0.021101 0.668183 2.009000 216 203 213
0.020985 0.668023 1.998000 217 208 214
0.020743 0.663790 1.975000 217 200 211
0.020628 0.663531 1.964000 212 198 208
