ply
format ascii 1.0
element vertex 1195
property float x
property float y
property float z
property uchar red
property uchar green
property uchar blue
end_header
-0.172837 0.597075 1.496000 231 224 232
-0.172029 0.596887 1.489000 229 224 231
-0.172029 0.599494 1.489000 228 217 230
-0.169834 0.594417 1.470000 229 219 230
-0.170642 0.599834 1.477000 230 226 230
-0.169140 0.597117 1.464000 234 223 231
-0.167754 0.594764 1.452000 239 221 235
-0.166368 0.592369 1.440000 233 222 240
-0.164981 0.589933 1.428000 227 203 210
-0.164288 0.589943 1.422000 190 167 180
-0.164288 0.592432 1.422000 153 106 180
-0.163595 0.592411 1.416000 153 143 180
-0.374686 0.720550 3.293000 206 191 209
-0.371159 0.719477 3.262000 208 190 207
-0.364218 0.711626 3.201000 208 189 205
-0.354433 0.697960 3.115000 209 188 207
-0.351247 0.697089 3.087000 208 188 209
-0.348061 0.696122 3.059000 208 188 209
-0.339072 0.683360 2.980000 210 195 209
-0.336227 0.682800 2.955000 212 195 210
-0.333383 0.682153 2.930000 212 193 211
-0.330538 0.681417 2.905000 213 195 211
-0.330538 0.686503 2.905000 216 203 212
-0.327807 0.685874 2.881000 219 199 212
-0.325077 0.685162 2.857000 217 195 212
-0.322460 0.684607 2.834000 216 199 212
-0.319729 0.683728 2.810000 213 205 212
-0.314609 0.677619 2.765000 210 199 213
-0.312105 0.677029 2.743000 216 197 215
-0.307327 0.671390 2.701000 223 200 217
-0.302548 0.665605 2.659000 223 209 219
-0.302548 0.670260 2.659000 224 208 220
-0.300272 0.669838 2.639000 224 209 221
-0.297996 0.669346 2.619000 224 207 222
-0.297996 0.673930 2.619000 226 208 223
-0.291283 0.663230 2.560000 228 208 223
-0.287073 0.658060 2.523000 228 217 223
-0.285025 0.657751 2.505000 228 212 222
-0.282977 0.657378 2.487000 229 217 221
-0.282977 0.661731 2.487000 231 208 222
-0.280929 0.661264 2.469000 229 211 223
-0.276947 0.656151 2.434000 228 216 225
-0.275012 0.655799 2.417000 230 223 228
-0.273078 0.655387 2.400000 232 217 224
-0.269323 0.650519 2.367000 228 217 220
-0.267503 0.650237 2.351000 225 211 222
-0.265682 0.649900 2.335000 221 213 223
-0.260448 0.641103 2.289000 217 213 222
-0.258741 0.640883 2.274000 220 213 221
-0.255328 0.636356 2.244000 224 216 225
-0.255328 0.640284 2.244000 232 222 230
-0.253735 0.640193 2.230000 240 216 229
-0.253735 0.644097 2.230000 235 216 229
-0.252028 0.643641 2.215000 230 215 230
-0.250435 0.643426 2.201000 230 214 232
-0.248842 0.643162 2.187000 230 211 233
-0.247363 0.643144 2.174000 232 214 235
-0.244291 0.638915 2.147000 234 216 235
-0.242698 0.638483 2.133000 234 228 235
-0.238374 0.630775 2.095000 235 224 235
-0.236895 0.630506 2.082000 234 230 235
-0.235416 0.630191 2.069000 233 219 234
-0.235416 0.633812 2.069000 237 217 234
-0.234051 0.633737 2.057000 241 219 234
-0.234051 0.637338 2.057000 240 225 234
-0.232685 0.637200 2.045000 239 228 233
-0.231320 0.637019 2.033000 235 233 233
-0.224720 0.622303 1.975000 232 221 235
-0.224720 0.625760 1.975000 231 216 237
-0.222103 0.621890 1.952000 231 217 235
-0.220852 0.621783 1.941000 233 220 233
-0.219714 0.621960 1.931000 235 223 234
-0.218462 0.621778 1.920000 227 232 236
-0.217211 0.621557 1.909000 219 220 236
-0.216073 0.621625 1.899000 228 235 237
-0.214821 0.621330 1.888000 237 224 235
-0.214821 0.624635 1.888000 236 223 234
-0.212546 0.621288 1.868000 236 225 235
-0.211408 0.621214 1.858000 235 225 237
-0.209132 0.617745 1.838000 235 224 236
-0.207994 0.617584 1.828000 235 225 235
-0.205833 0.614331 1.809000 235 225 235
-0.205833 0.617498 1.809000 234 227 235
-0.204809 0.617576 1.800000 233 223 238
-0.201623 0.611072 1.772000 232 225 242
-0.201623 0.614174 1.772000 231 227 240
-0.200599 0.614140 1.763000 233 231 238
-0.199575 0.614075 1.754000 236 226 238
-0.197526 0.610813 1.736000 235 229 238
-0.196616 0.611023 1.728000 234 220 235
-0.194682 0.608006 1.711000 234 226 232
-0.193658 0.607788 1.702000 234 226 233
-0.192748 0.607896 1.694000 231 228 234
-0.192748 0.610862 1.694000 229 221 232
-0.191837 0.610928 1.686000 229 224 230
-0.189903 0.607690 1.669000 229 228 234
-0.188993 0.607684 1.661000 230 231 238
-0.188082 0.607651 1.653000 231 222 238
-0.187172 0.607590 1.645000 231 222 239
-0.185465 0.604903 1.630000 232 217 236
-0.184555 0.604773 1.622000 234 222 233
-0.184555 0.607613 1.622000 237 217 232
-0.182848 0.604807 1.607000 235 215 231
-0.180345 0.599301 1.585000 234 222 233
-0.179549 0.599417 1.578000 233 229 234
-0.177842 0.596455 1.563000 232 222 233
-0.177046 0.596508 1.556000 233 219 231
-0.177046 0.599231 1.556000 234 225 232
-0.176249 0.599247 1.549000 234 241 232
-0.175453 0.599238 1.542000 235 224 234
-0.174770 0.599595 1.536000 237 239 235
-0.173973 0.599539 1.529000 240 224 233
-0.172381 0.596702 1.515000 229 217 230
-0.171698 0.596980 1.509000 218 213 229
-0.170901 0.596840 1.502000 224 210 228
-0.170219 0.597075 1.496000 231 219 228
-0.169422 0.596887 1.489000 229 226 229
-0.169422 0.599494 1.489000 228 215 229
-0.167260 0.594417 1.470000 229 216 229
-0.167260 0.596991 1.470000 231 222 230
-0.166578 0.597117 1.464000 240 228 232
-0.165212 0.594764 1.452000 249 227 237
-0.163847 0.592369 1.440000 236 235 242
-0.161799 0.587454 1.422000 223 204 211
-0.161116 0.587454 1.416000 185 181 179
-0.161799 0.592432 1.422000 148 141 176
-0.161116 0.592411 1.416000 148 174 173
-0.365449 0.713767 3.262000 208 188 205
-0.361975 0.712639 3.231000 208 191 205
-0.355366 0.705179 3.172000 207 188 205
-0.348980 0.697960 3.115000 206 187 207
-0.345843 0.697089 3.087000 208 187 209
-0.342706 0.696122 3.059000 210 189 210
-0.333855 0.683360 2.980000 210 193 211
-0.331055 0.682800 2.955000 211 196 211
-0.328254 0.682153 2.930000 212 194 212
-0.325453 0.681417 2.905000 213 194 213
-0.325453 0.686503 2.905000 217 198 214
-0.322764 0.685874 2.881000 221 199 213
-0.317499 0.679646 2.834000 219 198 213
-0.314810 0.678809 2.810000 218 200 213
-0.314810 0.683728 2.810000 215 200 213
-0.309769 0.677619 2.765000 213 194 214
-0.307304 0.677029 2.743000 217 197 215
-0.302599 0.671390 2.701000 221 203 218
-0.297893 0.665605 2.659000 222 207 221
-0.295653 0.665218 2.639000 223 209 221
-0.295653 0.669838 2.639000 223 207 221
-0.293412 0.669346 2.619000 223 209 221
-0.291171 0.668784 2.599000 225 206 222
-0.286802 0.663230 2.560000 228 201 223
-0.284785 0.663016 2.542000 228 209 224
-0.280640 0.657751 2.505000 228 210 223
-0.278624 0.657378 2.487000 228 208 222
-0.278624 0.661731 2.487000 229 196 222
-0.276607 0.661264 2.469000 228 209 223
-0.274591 0.660733 2.451000 227 218 226
-0.272686 0.660411 2.434000 226 219 230
-0.268877 0.655387 2.400000 226 215 226
-0.265180 0.650519 2.367000 225 214 223
-0.263387 0.650237 2.351000 225 214 223
-0.261595 0.649900 2.335000 223 214 223
-0.258122 0.645304 2.304000 221 215 222
-0.254761 0.640883 2.274000 227 214 222
-0.251400 0.636356 2.244000 234 222 226
-0.249831 0.636289 2.230000 234 218 230
-0.249831 0.640193 2.230000 233 205 230
-0.248151 0.639764 2.215000 231 213 231
-0.248151 0.643641 2.215000 229 215 232
-0.246583 0.643426 2.201000 230 217 233
-0.243558 0.639339 2.174000 231 216 234
-0.243558 0.643144 2.174000 234 213 236
-0.240533 0.638915 2.147000 236 208 236
-0.238964 0.638483 2.133000 235 216 236
-0.234707 0.630775 2.095000 235 214 234
-0.233251 0.630506 2.082000 233 219 232
-0.231794 0.630191 2.069000 231 211 232
-0.231794 0.633812 2.069000 234 217 233
-0.230450 0.633737 2.057000 237 217 234
-0.230450 0.637338 2.057000 237 222 235
-0.230450 0.640939 2.057000 238 226 235
-0.229106 0.640779 2.045000 235 226 235
-0.221263 0.622303 1.975000 232 219 234
-0.221263 0.625760 1.975000 230 218 234
-0.220031 0.625713 1.964000 229 217 232
-0.217454 0.621783 1.941000 231 220 230
-0.216334 0.621960 1.931000 233 224 232
-0.215102 0.621778 1.920000 228 219 235
-0.213869 0.621557 1.909000 224 201 237
-0.212749 0.621625 1.899000 229 217 239
-0.212749 0.624950 1.899000 235 225 237
-0.211516 0.624635 1.888000 234 223 236
-0.210396 0.624614 1.878000 233 225 237
-0.208156 0.621214 1.858000 231 223 238
-0.205915 0.617745 1.838000 230 221 236
-0.204795 0.617584 1.828000 233 223 235
-0.202666 0.614331 1.809000 237 229 237
-0.201658 0.614426 1.800000 236 225 239
-0.201658 0.617576 1.800000 236 215 239
-0.199529 0.614175 1.781000 235 226 239
-0.198521 0.614174 1.772000 234 228 239
-0.197512 0.614140 1.763000 234 226 239
-0.196504 0.614075 1.754000 234 218 240
-0.195496 0.613979 1.745000 232 222 242
-0.194488 0.613852 1.736000 230 210 234
-0.193591 0.614048 1.728000 231 220 226
-0.189782 0.604931 1.694000 232 227 230
-0.189782 0.607896 1.694000 230 223 235
-0.188886 0.607977 1.686000 229 214 234
-0.187878 0.607667 1.677000 230 222 233
-0.186981 0.607690 1.669000 230 228 234
-0.186085 0.607684 1.661000 230 225 236
-0.185189 0.607651 1.653000 230 223 236
-0.182612 0.602050 1.630000 231 222 236
-0.183508 0.607872 1.638000 231 210 234
-0.181716 0.604773 1.622000 233 218 232
-0.181716 0.607613 1.622000 234 224 232
-0.180036 0.604807 1.607000 233 220 232
-0.178355 0.601948 1.592000 232 221 235
-0.176787 0.599417 1.578000 232 223 239
-0.175106 0.596455 1.563000 232 221 235
-0.174322 0.596508 1.556000 232 219 232
-0.174322 0.599231 1.556000 232 219 232
-0.173538 0.599247 1.549000 231 216 232
-0.172753 0.599238 1.542000 231 195 234
-0.172081 0.599595 1.536000 233 218 237
-0.171297 0.599539 1.529000 235 222 233
-0.169729 0.596702 1.515000 228 216 229
-0.169056 0.596980 1.509000 221 210 225
-0.168272 0.596840 1.502000 228 212 222
-0.166816 0.594281 1.489000 235 219 225
-0.166816 0.596887 1.489000 230 219 228
-0.166816 0.599494 1.489000 226 204 228
-0.164687 0.594417 1.470000 228 211 228
-0.164015 0.594554 1.464000 229 220 231
-0.164015 0.597117 1.464000 237 223 234
-0.162671 0.594764 1.452000 245 226 239
-0.161326 0.592369 1.440000 234 226 245
-0.159310 0.587454 1.422000 223 200 212
-0.159310 0.589943 1.422000 185 161 179
-0.159310 0.592432 1.422000 148 106 172
-0.158637 0.592411 1.416000 148 140 166
-0.349813 0.694073 3.172000 210 186 203
-0.349813 0.699626 3.172000 208 188 203
-0.346615 0.698731 3.143000 206 188 203
-0.343527 0.697960 3.115000 204 187 205
-0.340439 0.697089 3.087000 208 187 207
-0.337351 0.696122 3.059000 212 190 208
-0.328639 0.683360 2.980000 211 192 210
-0.323125 0.677023 2.930000 211 195 210
-0.320368 0.676332 2.905000 212 196 210
-0.320368 0.681417 2.905000 214 194 211
-0.320368 0.686503 2.905000 218 197 213
-0.317721 0.685874 2.881000 223 198 214
-0.312538 0.679646 2.834000 221 198 215
-0.312538 0.684607 2.834000 220 199 214
-0.309891 0.683728 2.810000 218 202 213
-0.304928 0.677619 2.765000 216 198 214
-0.302502 0.677029 2.743000 218 196 216
-0.297870 0.671390 2.701000 220 200 218
-0.293238 0.665605 2.659000 221 208 220
-0.291033 0.665218 2.639000 222 207 220
-0.288827 0.664761 2.619000 222 203 221
-0.288827 0.669346 2.619000 222 206 221
-0.286622 0.668784 2.599000 225 207 222
-0.282321 0.663230 2.560000 228 206 223
-0.280336 0.663016 2.542000 228 210 223
-0.276255 0.657751 2.505000 228 210 223
-0.274270 0.657378 2.487000 227 209 223
-0.272285 0.656942 2.469000 227 207 223
-0.270300 0.656443 2.451000 226 211 223
-0.268425 0.656151 2.434000 226 215 225
-0.266550 0.655799 2.417000 223 220 227
-0.264676 0.655387 2.400000 221 215 224
-0.262911 0.655191 2.384000 223 210 222
-0.259272 0.650237 2.351000 225 212 222
-0.259272 0.654353 2.351000 225 215 223
-0.255853 0.649786 2.320000 225 212 224
-0.250780 0.640883 2.274000 235 206 225
-0.249126 0.640610 2.259000 245 214 227
-0.247472 0.640284 2.244000 236 224 230
-0.245928 0.640193 2.230000 227 217 230
-0.244274 0.639764 2.215000 227 217 230
-0.244274 0.643641 2.215000 228 218 231
-0.242730 0.643426 2.201000 230 225 233
-0.239752 0.639339 2.174000 233 220 234
-0.238208 0.639003 2.160000 236 216 236
-0.236774 0.638915 2.147000 239 214 236
-0.235230 0.638483 2.133000 237 215 236
-0.231040 0.630775 2.095000 235 216 233
-0.231040 0.634443 2.095000 232 222 230
-0.229606 0.634150 2.082000 229 219 232
-0.228172 0.633812 2.069000 231 225 233
-0.226849 0.633737 2.057000 233 221 234
-0.226849 0.637338 2.057000 235 220 235
-0.226849 0.640939 2.057000 237 223 235
-0.225526 0.640779 2.045000 235 226 235
-0.220342 0.629550 1.998000 233 222 235
-0.219019 0.629245 1.986000 230 221 234
-0.216593 0.625713 1.964000 227 219 234
-0.214056 0.621783 1.941000 229 222 234
-0.212954 0.621960 1.931000 231 222 235
-0.211740 0.621778 1.920000 230 219 237
-0.211740 0.625139 1.920000 229 213 239
-0.210527 0.624899 1.909000 231 209 241
-0.209425 0.624950 1.899000 233 221 238
-0.208211 0.624635 1.888000 231 222 236
-0.207109 0.624614 1.878000 230 223 236
-0.206006 0.624557 1.868000 227 224 236
-0.203800 0.621105 1.848000 225 222 233
-0.200602 0.614543 1.819000 232 220 230
-0.199499 0.614331 1.809000 239 225 236
-0.198507 0.614426 1.800000 239 232 241
-0.197404 0.614146 1.790000 239 228 238
-0.195419 0.611072 1.772000 238 236 235
-0.195419 0.614174 1.772000 237 230 236
-0.194426 0.614140 1.763000 235 227 238
-0.193434 0.614075 1.754000 233 225 239
-0.192441 0.613979 1.745000 229 231 239
-0.191449 0.613852 1.736000 226 220 234
-0.190566 0.614048 1.728000 228 219 230
-0.186817 0.604931 1.694000 230 223 233
-0.186817 0.607896 1.694000 230 223 237
-0.185935 0.607977 1.686000 230 218 234
-0.184060 0.604768 1.669000 231 223 232
-0.184060 0.607690 1.669000 232 223 234
-0.183178 0.607684 1.661000 231 220 237
-0.181413 0.604710 1.645000 230 225 236
-0.181413 0.607590 1.645000 230 235 235
-0.180641 0.607872 1.638000 231 221 233
-0.179759 0.607756 1.630000 231 219 232
-0.178877 0.607613 1.622000 232 221 230
-0.177222 0.604807 1.607000 231 221 229
-0.175568 0.601948 1.592000 230 218 232
-0.173252 0.596758 1.571000 231 222 235
-0.172370 0.596455 1.563000 232 219 233
-0.170826 0.593824 1.549000 231 219 232
-0.170826 0.596535 1.549000 230 216 231
-0.170054 0.596539 1.542000 229 212 230
-0.169392 0.596907 1.536000 228 209 232
-0.168620 0.596863 1.529000 229 219 233
-0.167848 0.596795 1.522000 231 219 232
-0.166415 0.594339 1.509000 228 218 230
-0.166415 0.596980 1.509000 225 214 227
-0.164981 0.594456 1.496000 232 211 225
-0.164209 0.594281 1.489000 239 220 227
-0.164209 0.596887 1.489000 232 227 229
-0.162886 0.594663 1.477000 225 214 227
-0.162114 0.594417 1.470000 226 204 226
-0.161452 0.594554 1.464000 228 216 230
-0.160790 0.594669 1.458000 234 220 234
-0.160129 0.594764 1.452000 241 230 241
-0.158805 0.592369 1.440000 232 245 249
-0.157482 0.589933 1.428000 223 202 214
-0.156820 0.589943 1.422000 185 157 179
-0.156159 0.589933 1.416000 148 139 174
-0.156159 0.592411 1.416000 148 176 169
-0.341113 0.693230 3.143000 210 190 202
-0.338074 0.692507 3.115000 208 188 202
-0.338074 0.697960 3.115000 206 188 204
-0.335035 0.697089 3.087000 211 191 206
-0.331996 0.696122 3.059000 217 192 207
-0.317996 0.671895 2.930000 215 196 209
-0.317996 0.677023 2.930000 213 199 209
-0.315283 0.676332 2.905000 214 195 209
-0.315283 0.681417 2.905000 214 190 210
-0.315283 0.686503 2.905000 217 197 212
-0.310073 0.680160 2.857000 219 201 215
-0.307577 0.679646 2.834000 219 199 218
-0.304972 0.678809 2.810000 219 199 215
-0.302584 0.678375 2.788000 218 201 213
-0.297701 0.672227 2.743000 217 203 215
-0.295421 0.671846 2.722000 218 199 218
-0.295421 0.676610 2.722000 220 196 219
-0.293142 0.676119 2.701000 221 204 220
-0.288584 0.670260 2.659000 222 208 220
-0.284243 0.664761 2.619000 221 206 221
-0.284243 0.669346 2.619000 221 207 222
-0.280010 0.663895 2.580000 222 208 223
-0.277839 0.663230 2.560000 222 209 223
-0.275886 0.663016 2.542000 226 209 223
-0.271870 0.657751 2.505000 231 211 224
-0.269917 0.657378 2.487000 229 211 225
-0.269917 0.661731 2.487000 228 213 224
-0.266010 0.656443 2.451000 228 212 223
-0.264164 0.656151 2.434000 229 212 223
-0.262319 0.655799 2.417000 226 216 224
-0.260474 0.655387 2.400000 223 216 223
-0.258738 0.655191 2.384000 224 213 222
-0.255156 0.650237 2.351000 225 210 222
-0.255156 0.654353 2.351000 226 214 223
-0.251792 0.649786 2.320000 227 215 225
-0.248428 0.645110 2.289000 232 212 228
-0.245172 0.640610 2.259000 238 206 229
-0.243544 0.640284 2.244000 233 218 231
-0.242024 0.640193 2.230000 228 223 230
-0.240396 0.639764 2.215000 228 219 229
-0.240396 0.643641 2.215000 228 218 231
-0.238877 0.643426 2.201000 230 221 233
-0.235946 0.639339 2.174000 232 223 234
-0.234427 0.639003 2.160000 234 221 236
-0.234427 0.642784 2.160000 236 219 236
-0.231497 0.638483 2.133000 236 219 236
-0.227372 0.630775 2.095000 235 216 232
-0.225962 0.630506 2.082000 234 219 229
-0.225962 0.634150 2.082000 233 220 231
-0.224551 0.633812 2.069000 233 222 234
-0.223248 0.633737 2.057000 233 225 234
-0.223248 0.637338 2.057000 234 222 235
-0.223248 0.640939 2.057000 235 221 235
-0.221946 0.640779 2.045000 234 222 236
-0.216845 0.629550 1.998000 233 223 235
-0.216845 0.633047 1.998000 231 222 235
-0.214349 0.629217 1.975000 228 219 236
-0.211853 0.625307 1.952000 230 220 238
-0.209573 0.621960 1.931000 231 223 238
-0.208380 0.621778 1.920000 233 222 239
-0.206100 0.618301 1.899000 235 224 241
-0.204907 0.618025 1.888000 235 222 243
-0.204907 0.621330 1.888000 235 228 239
-0.203821 0.621326 1.878000 233 225 236
-0.203821 0.624614 1.878000 231 224 235
-0.202736 0.624557 1.868000 230 224 235
-0.200565 0.621105 1.848000 228 224 230
-0.198395 0.617584 1.828000 232 221 226
-0.196333 0.614331 1.809000 237 222 235
-0.195356 0.614426 1.800000 236 227 244
-0.194271 0.614146 1.790000 235 229 237
-0.193294 0.614175 1.781000 235 229 231
-0.192317 0.614174 1.772000 236 229 234
-0.191340 0.614140 1.763000 234 229 238
-0.190363 0.614075 1.754000 232 226 237
-0.189387 0.613979 1.745000 230 224 237
-0.188410 0.613852 1.736000 228 222 235
-0.187542 0.614048 1.728000 229 222 234
-0.184720 0.607788 1.702000 231 226 236
-0.183852 0.607896 1.694000 231 224 239
-0.182983 0.607977 1.686000 232 213 235
-0.181138 0.604768 1.669000 234 221 232
-0.181138 0.607690 1.669000 236 224 235
-0.179402 0.604758 1.653000 233 229 238
-0.177774 0.602137 1.638000 231 225 236
-0.176906 0.602050 1.630000 231 224 234
-0.176906 0.604903 1.630000 230 223 233
-0.176037 0.604773 1.622000 231 226 232
-0.176037 0.607613 1.622000 231 223 229
-0.174409 0.604807 1.607000 230 218 227
-0.172781 0.601948 1.592000 230 209 229
-0.171262 0.599417 1.578000 230 215 232
-0.169634 0.596455 1.563000 231 216 232
-0.168115 0.593824 1.549000 229 220 232
-0.168115 0.596535 1.549000 227 217 230
-0.167355 0.596539 1.542000 228 215 229
-0.166704 0.596907 1.536000 228 213 229
-0.165944 0.596863 1.529000 229 217 230
-0.164425 0.594050 1.515000 231 219 231
-0.163773 0.594339 1.509000 229 219 232
-0.163773 0.596980 1.509000 228 218 230
-0.162362 0.594456 1.496000 231 217 228
-0.161603 0.594281 1.489000 234 223 229
-0.160300 0.592077 1.477000 231 223 231
-0.159541 0.591844 1.470000 229 221 227
-0.159541 0.594417 1.470000 229 218 224
-0.158889 0.594554 1.464000 230 223 229
-0.158238 0.594669 1.458000 234 225 234
-0.156936 0.592306 1.446000 238 232 243
-0.156285 0.592369 1.440000 229 231 253
-0.154331 0.587454 1.422000 220 206 216
-0.154331 0.589943 1.422000 184 161 179
-0.153680 0.589933 1.416000 149 117 175
-0.153680 0.592411 1.416000 149 144 172
-0.332621 0.692507 3.115000 210 188 201
-0.332621 0.697960 3.115000 208 189 203
-0.329632 0.697089 3.087000 215 197 205
-0.326642 0.696122 3.059000 223 194 206
-0.312867 0.671895 2.930000 219 201 207
-0.312867 0.677023 2.930000 216 199 208
-0.312867 0.682153 2.930000 215 197 209
-0.312867 0.687281 2.930000 215 196 208
-0.310198 0.686503 2.905000 215 202 208
-0.305072 0.680160 2.857000 216 201 211
-0.302616 0.679646 2.834000 217 201 215
-0.300053 0.678809 2.810000 218 201 212
-0.297704 0.678375 2.788000 218 201 210
-0.292899 0.672227 2.743000 218 199 213
-0.290657 0.671846 2.722000 219 204 216
-0.290657 0.676610 2.722000 220 202 217
-0.286172 0.670862 2.680000 221 205 219
-0.281794 0.665218 2.639000 222 206 218
-0.279658 0.664761 2.619000 221 207 217
-0.279658 0.669346 2.619000 221 206 220
-0.275494 0.663895 2.580000 219 210 223
-0.271436 0.658566 2.542000 217 209 223
-0.269407 0.658060 2.523000 225 209 223
-0.267485 0.657751 2.505000 234 212 223
-0.265563 0.657378 2.487000 231 213 224
-0.263641 0.656942 2.469000 229 213 221
-0.261719 0.656443 2.451000 230 214 219
-0.259904 0.656151 2.434000 232 214 221
-0.256273 0.651186 2.400000 229 216 223
-0.254565 0.651018 2.384000 226 215 223
-0.251041 0.646122 2.351000 226 217 222
-0.251041 0.650237 2.351000 226 214 221
-0.249333 0.649900 2.335000 227 216 221
-0.247731 0.649786 2.320000 229 216 225
-0.242819 0.640883 2.274000 230 221 230
-0.241217 0.640610 2.259000 232 218 230
-0.239616 0.640284 2.244000 231 221 231
-0.238121 0.640193 2.230000 230 220 230
-0.236519 0.639764 2.215000 229 220 229
-0.235024 0.639573 2.201000 228 219 229
-0.235024 0.643426 2.201000 229 220 229
-0.233529 0.643162 2.187000 231 223 232
-0.230646 0.639003 2.160000 232 227 235
-0.229258 0.638915 2.147000 234 224 237
-0.227763 0.638483 2.133000 235 226 238
-0.223705 0.630775 2.095000 236 220 235
-0.222317 0.630506 2.082000 237 219 231
-0.222317 0.634150 2.082000 238 220 232
-0.220929 0.633812 2.069000 236 221 233
-0.219648 0.633737 2.057000 234 222 234
-0.219648 0.637338 2.057000 234 223 235
-0.219648 0.640939 2.057000 234 219 234
-0.215804 0.633259 2.021000 234 218 234
-0.213348 0.629550 1.998000 234 222 233
-0.212066 0.629245 1.986000 232 226 232
-0.210892 0.629217 1.975000 230 217 232
-0.209717 0.629151 1.964000 231 219 231
-0.206193 0.621960 1.931000 232 218 235
-0.205019 0.621778 1.920000 236 223 239
-0.202776 0.618301 1.899000 241 224 239
-0.201602 0.618025 1.888000 239 227 239
-0.201602 0.621330 1.888000 237 227 237
-0.200534 0.621326 1.878000 235 227 236
-0.199466 0.621288 1.868000 233 225 235
-0.198398 0.621214 1.858000 232 224 235
-0.196263 0.617745 1.838000 232 221 233
-0.194234 0.614543 1.819000 233 218 230
-0.193166 0.614331 1.809000 235 223 236
-0.192205 0.614426 1.800000 233 227 241
-0.191137 0.614146 1.790000 231 224 237
-0.190176 0.614175 1.781000 233 225 233
-0.189215 0.614174 1.772000 236 229 235
-0.188254 0.614140 1.763000 234 235 236
-0.187293 0.614075 1.754000 232 225 236
-0.185371 0.610813 1.736000 231 220 235
-0.185371 0.613852 1.736000 230 221 234
-0.184517 0.614048 1.728000 231 221 234
-0.181740 0.607788 1.702000 232 226 234
-0.180886 0.607896 1.694000 233 236 235
-0.180032 0.607977 1.686000 234 223 232
-0.179071 0.607667 1.677000 237 226 229
-0.178217 0.607690 1.669000 240 228 235
-0.177363 0.607684 1.661000 236 248 241
-0.174907 0.602137 1.638000 233 221 236
-0.174052 0.602050 1.630000 231 213 232
-0.174052 0.604903 1.630000 230 220 232
-0.174052 0.607756 1.630000 230 240 232
-0.173198 0.607613 1.622000 231 226 230
-0.171596 0.604807 1.607000 230 220 228
-0.169995 0.601948 1.592000 230 216 230
-0.168500 0.599417 1.578000 230 215 232
-0.166898 0.596455 1.563000 230 217 232
-0.165403 0.593824 1.549000 227 229 232
-0.165403 0.596535 1.549000 225 222 230
-0.164656 0.596539 1.542000 227 220 228
-0.164015 0.596907 1.536000 229 217 229
-0.163267 0.596863 1.529000 230 218 229
-0.161773 0.594050 1.515000 231 219 229
-0.161132 0.594339 1.509000 231 223 230
-0.160384 0.594211 1.502000 231 219 227
-0.159744 0.594456 1.496000 230 219 224
-0.158996 0.594281 1.489000 230 217 227
-0.158996 0.596887 1.489000 231 224 230
-0.156967 0.591844 1.470000 233 221 228
-0.156967 0.594417 1.470000 232 224 226
-0.156327 0.594554 1.464000 232 224 229
-0.155045 0.592222 1.452000 234 228 232
-0.155045 0.594764 1.452000 236 232 240
-0.153764 0.592369 1.440000 227 244 248
-0.151842 0.587454 1.422000 218 200 214
-0.151842 0.589943 1.422000 184 166 180
-0.151201 0.589933 1.416000 150 143 176
-0.151201 0.592411 1.416000 150 169 172
-0.330109 0.698731 3.143000 209 189 200
-0.327168 0.697960 3.115000 209 183 202
-0.324228 0.697089 3.087000 214 188 204
-0.324228 0.702493 3.087000 220 189 204
-0.318556 0.695514 3.033000 217 197 205
-0.307738 0.677023 2.930000 215 200 207
-0.307738 0.682153 2.930000 214 199 209
-0.307738 0.687281 2.930000 214 196 206
-0.305112 0.686503 2.905000 215 199 204
-0.300071 0.680160 2.857000 217 201 208
-0.300071 0.685162 2.857000 218 204 212
-0.295134 0.678809 2.810000 220 203 209
-0.292824 0.678375 2.788000 219 197 207
-0.288097 0.672227 2.743000 219 190 210
-0.285892 0.671846 2.722000 220 199 214
-0.285892 0.676610 2.722000 221 204 216
-0.281480 0.670862 2.680000 222 207 219
-0.275074 0.660177 2.619000 223 207 216
-0.272973 0.659685 2.599000 223 205 213
-0.270977 0.659379 2.580000 223 202 218
-0.268877 0.658748 2.560000 221 206 224
-0.266986 0.658566 2.542000 220 208 224
-0.264991 0.658060 2.523000 225 210 224
-0.263100 0.657751 2.505000 230 218 223
-0.261210 0.657378 2.487000 228 214 223
-0.259319 0.656942 2.469000 226 214 219
-0.259319 0.661264 2.469000 225 213 215
-0.255643 0.656151 2.434000 225 214 219
-0.253858 0.655799 2.417000 225 213 223
-0.252072 0.655387 2.400000 226 214 223
-0.248606 0.650519 2.367000 226 214 223
-0.246926 0.650237 2.351000 227 216 221
-0.245245 0.649900 2.335000 227 217 219
-0.243670 0.649786 2.320000 228 213 225
-0.240414 0.645110 2.289000 230 220 232
-0.237263 0.640610 2.259000 231 225 232
-0.235687 0.640284 2.244000 231 221 232
-0.234217 0.640193 2.230000 232 216 231
-0.232641 0.639764 2.215000 228 217 230
-0.232641 0.643641 2.215000 224 220 228
-0.231171 0.643426 2.201000 227 220 226
-0.229701 0.643162 2.187000 230 223 230
-0.228335 0.643144 2.174000 231 223 235
-0.226865 0.642784 2.160000 232 226 238
-0.222664 0.634591 2.120000 233 224 241
-0.221298 0.634388 2.107000 234 220 237
-0.218672 0.630506 2.082000 235 219 234
-0.217307 0.630191 2.069000 236 223 233
-0.217307 0.633812 2.069000 235 221 232
-0.216047 0.633737 2.057000 233 221 233
-0.216047 0.637338 2.057000 233 219 235
-0.212266 0.629722 2.021000 233 215 234
-0.211005 0.629499 2.009000 233 219 233
-0.209850 0.629550 1.998000 232 222 231
-0.208590 0.629245 1.986000 231 217 230
-0.207434 0.629217 1.975000 229 206 227
-0.205019 0.625307 1.952000 231 217 225
-0.201658 0.618417 1.920000 233 210 232
-0.200502 0.618215 1.909000 235 221 239
-0.199452 0.618301 1.899000 238 223 237
-0.198297 0.618025 1.888000 237 224 235
-0.198297 0.621330 1.888000 237 226 235
-0.197246 0.621326 1.878000 236 225 236
-0.196196 0.621288 1.868000 236 226 236
-0.194095 0.617871 1.848000 234 223 236
-0.193045 0.617745 1.838000 233 218 235
-0.191050 0.614543 1.819000 235 222 235
-0.189999 0.614331 1.809000 237 226 237
-0.189054 0.614426 1.800000 236 224 239
-0.189054 0.617576 1.800000 236 216 237
-0.188004 0.617279 1.790000 236 225 236
-0.187058 0.617293 1.781000 236 230 235
-0.186113 0.617275 1.772000 233 227 235
-0.184223 0.614075 1.754000 230 220 234
-0.182332 0.610813 1.736000 231 221 234
-0.182332 0.613852 1.736000 232 221 234
-0.181492 0.614048 1.728000 232 224 234
-0.178761 0.607788 1.702000 232 222 233
-0.177921 0.607896 1.694000 232 224 232
-0.177921 0.610862 1.694000 233 219 229
-0.176135 0.607667 1.677000 234 219 227
-0.175295 0.607690 1.669000 236 215 235
-0.174455 0.607684 1.661000 234 218 244
-0.172774 0.604710 1.645000 233 198 237
-0.172039 0.605004 1.638000 234 212 231
-0.171199 0.604903 1.630000 235 204 232
-0.171199 0.607756 1.630000 231 225 233
-0.169623 0.604990 1.615000 227 224 231
-0.168783 0.604807 1.607000 229 221 230
-0.166473 0.599301 1.585000 232 222 231
-0.165737 0.599417 1.578000 231 216 232
-0.164162 0.596455 1.563000 230 210 232
-0.162691 0.593824 1.549000 228 220 233
-0.161956 0.593840 1.542000 226 223 230
-0.161326 0.594218 1.536000 227 218 228
-0.160591 0.594186 1.529000 228 219 228
-0.159856 0.594130 1.522000 229 219 229
-0.159120 0.594050 1.515000 230 219 228
-0.158490 0.594339 1.509000 230 219 228
-0.157755 0.594211 1.502000 230 219 224
-0.157125 0.594456 1.496000 229 214 221
-0.156390 0.594281 1.489000 228 203 225
-0.155759 0.594482 1.483000 229 214 229
-0.155129 0.594663 1.477000 230 215 228
-0.154394 0.594417 1.470000 230 219 228
-0.153134 0.592117 1.458000 231 221 229
-0.152504 0.592222 1.452000 232 224 231
-0.151873 0.592306 1.446000 233 224 237
-0.150613 0.589901 1.434000 226 224 244
-0.149983 0.589933 1.428000 219 187 212
-0.149353 0.589943 1.422000 183 154 181
-0.148722 0.589933 1.416000 147 120 177
-0.148722 0.592411 1.416000 147 148 173
-0.324608 0.698731 3.143000 208 194 201
-0.321716 0.697960 3.115000 211 189 203
-0.318824 0.697089 3.087000 214 186 204
-0.318824 0.702493 3.087000 217 191 205
-0.313247 0.695514 3.033000 215 201 206
-0.310458 0.694584 3.006000 214 200 208
-0.302609 0.682153 2.930000 214 205 210
-0.302609 0.687281 2.930000 214 199 208
-0.300027 0.686503 2.905000 216 198 207
-0.297548 0.685874 2.881000 218 200 210
-0.292694 0.679646 2.834000 220 211 213
-0.290215 0.678809 2.810000 223 203 211
-0.287943 0.678375 2.788000 221 197 210
-0.281127 0.667081 2.722000 220 196 211
-0.281127 0.671846 2.722000 221 201 212
-0.281127 0.676610 2.722000 222 205 216
-0.278958 0.676119 2.701000 223 215 221
-0.276789 0.675553 2.680000 224 209 220
-0.266461 0.654862 2.580000 224 206 219
-0.266461 0.659379 2.580000 225 205 223
-0.264396 0.658748 2.560000 224 206 227
-0.262537 0.658566 2.542000 223 207 226
-0.260574 0.658060 2.523000 224 208 225
-0.258715 0.657751 2.505000 226 211 224
-0.256856 0.657378 2.487000 225 214 223
-0.254997 0.656942 2.469000 224 211 221
-0.253138 0.656443 2.451000 221 213 218
-0.251382 0.656151 2.434000 218 213 221
-0.249627 0.655799 2.417000 222 210 223
-0.247871 0.655387 2.400000 226 211 223
-0.244463 0.650519 2.367000 227 212 224
-0.242810 0.650237 2.351000 228 217 223
-0.241158 0.649900 2.335000 228 224 222
-0.239609 0.649786 2.320000 228 219 225
-0.236407 0.645110 2.289000 229 223 229
-0.234858 0.644863 2.274000 231 219 231
-0.231759 0.640284 2.244000 232 224 234
-0.230313 0.640193 2.230000 234 218 233
-0.228764 0.639764 2.215000 227 215 232
-0.228764 0.643641 2.215000 221 217 230
-0.227318 0.643426 2.201000 225 219 229
-0.225872 0.643162 2.187000 230 219 231
-0.224530 0.643144 2.174000 230 219 234
-0.221741 0.638915 2.147000 230 220 235
-0.220295 0.638483 2.133000 231 226 236
-0.217610 0.634388 2.107000 233 221 235
-0.215028 0.630506 2.082000 234 217 234
-0.213685 0.630191 2.069000 235 219 233
-0.213685 0.633812 2.069000 234 219 231
-0.212446 0.633737 2.057000 233 217 232
-0.211207 0.633620 2.045000 233 219 233
-0.208728 0.629722 2.021000 233 219 232
-0.207489 0.629499 2.009000 232 222 232
-0.206353 0.629550 1.998000 231 220 230
-0.205113 0.629245 1.986000 230 217 229
-0.203977 0.629217 1.975000 229 214 228
-0.202841 0.629151 1.964000 231 234 227
-0.198297 0.618417 1.920000 234 223 231
-0.196128 0.614977 1.899000 234 231 235
-0.196128 0.618301 1.899000 235 224 232
-0.194992 0.618025 1.888000 236 222 230
-0.194992 0.621330 1.888000 237 224 232
-0.193959 0.621326 1.878000 238 224 234
-0.192926 0.621288 1.868000 239 225 234
-0.190861 0.617871 1.848000 237 226 235
-0.188795 0.614384 1.828000 235 222 236
-0.187865 0.614543 1.819000 237 228 237
-0.186833 0.614331 1.809000 239 222 238
-0.185903 0.614426 1.800000 240 227 240
-0.185903 0.617576 1.800000 242 225 238
-0.184870 0.617279 1.790000 239 231 237
-0.183941 0.617293 1.781000 236 227 236
-0.183011 0.617275 1.772000 232 226 235
-0.180223 0.610925 1.745000 229 221 234
-0.179293 0.610813 1.736000 231 223 234
-0.178467 0.611023 1.728000 234 224 234
-0.178467 0.614048 1.728000 233 232 234
-0.177538 0.613859 1.719000 233 224 233
-0.174956 0.607896 1.694000 232 222 233
-0.174129 0.607977 1.686000 232 219 231
-0.173200 0.607667 1.677000 232 216 230
-0.172374 0.607690 1.669000 233 215 235
-0.170721 0.604758 1.653000 233 214 240
-0.169172 0.602137 1.638000 233 216 237
-0.168346 0.602050 1.630000 236 235 234
-0.168346 0.604903 1.630000 240 220 233
-0.168346 0.607756 1.630000 231 233 232
-0.167519 0.607613 1.622000 223 224 232
-0.166796 0.607817 1.615000 229 221 231
-0.163698 0.599301 1.585000 235 221 233
-0.162252 0.596758 1.571000 233 219 235
-0.160703 0.593784 1.556000 231 217 234
-0.159980 0.593824 1.549000 229 221 232
-0.159257 0.593840 1.542000 228 218 230
-0.159980 0.599247 1.549000 228 210 228
-0.157914 0.594186 1.529000 228 214 227
-0.157191 0.594130 1.522000 229 222 226
-0.156469 0.594050 1.515000 230 220 227
-0.155849 0.594339 1.509000 229 217 228
-0.155126 0.594211 1.502000 229 217 225
-0.154506 0.594456 1.496000 227 215 223
-0.153783 0.594281 1.489000 226 210 225
-0.153164 0.594482 1.483000 227 215 227
-0.151821 0.591844 1.470000 228 213 228
-0.151821 0.594417 1.470000 229 216 230
-0.151201 0.594554 1.464000 230 221 232
-0.149342 0.589775 1.446000 230 223 234
-0.149342 0.592306 1.446000 231 226 239
-0.147483 0.587433 1.428000 226 244 244
-0.146864 0.587454 1.422000 221 194 213
-0.146864 0.589943 1.422000 182 143 182
-0.146244 0.589933 1.416000 144 136 178
-0.146244 0.592411 1.416000 144 183 174
-0.319106 0.698731 3.143000 213 189 203
-0.316263 0.697960 3.115000 213 193 204
-0.313420 0.697089 3.087000 215 190 205
-0.310577 0.696122 3.059000 217 191 206
-0.307937 0.695514 3.033000 216 195 208
-0.305196 0.694584 3.006000 216 196 209
-0.300018 0.687973 2.955000 214 202 211
-0.297480 0.687281 2.930000 212 200 211
-0.297480 0.692410 2.930000 215 196 211
-0.294942 0.691588 2.905000 219 192 212
-0.287733 0.679646 2.834000 219 201 214
-0.276362 0.662316 2.722000 219 201 214
-0.276362 0.667081 2.722000 219 199 212
-0.276362 0.671846 2.722000 221 201 210
-0.274230 0.671390 2.701000 222 200 216
-0.274230 0.676119 2.701000 224 209 223
-0.272098 0.675553 2.680000 225 211 224
-0.261945 0.654862 2.580000 226 208 225
-0.261945 0.659379 2.580000 227 207 227
-0.259914 0.658748 2.560000 226 207 230
-0.258087 0.658566 2.542000 225 209 228
-0.256158 0.658060 2.523000 225 208 226
-0.254330 0.657751 2.505000 226 207 225
-0.252503 0.657378 2.487000 225 209 224
-0.250675 0.656942 2.469000 224 206 223
-0.248848 0.656443 2.451000 223 212 222
-0.248848 0.660733 2.451000 223 216 223
-0.247122 0.660411 2.434000 227 214 224
-0.243670 0.655387 2.400000 231 210 224
-0.242045 0.655191 2.384000 230 213 225
-0.238695 0.650237 2.351000 229 218 225
-0.237070 0.649900 2.335000 227 219 226
-0.235547 0.649786 2.320000 225 219 226
-0.232400 0.645110 2.289000 227 215 226
-0.230877 0.644863 2.274000 229 207 231
-0.230877 0.648844 2.274000 232 216 236
-0.230877 0.652825 2.274000 234 217 235
-0.224887 0.639764 2.215000 232 220 235
-0.223465 0.639573 2.201000 230 217 233
-0.223465 0.643426 2.201000 231 217 232
-0.222044 0.643162 2.187000 232 216 233
-0.220724 0.643144 2.174000 231 217 234
-0.217983 0.638915 2.147000 230 210 233
-0.215241 0.634591 2.120000 232 220 232
-0.213922 0.634388 2.107000 234 223 233
-0.212703 0.634443 2.095000 234 222 235
-0.211383 0.634150 2.082000 235 218 233
-0.210063 0.633812 2.069000 233 218 231
-0.208845 0.633737 2.057000 232 211 231
-0.207627 0.633620 2.045000 231 216 231
-0.205190 0.629722 2.021000 231 221 231
-0.203972 0.629499 2.009000 231 224 232
-0.202855 0.629550 1.998000 231 221 230
-0.201637 0.629245 1.986000 229 214 228
-0.200520 0.629217 1.975000 227 200 229
-0.198185 0.625307 1.952000 228 215 230
-0.196052 0.621960 1.931000 230 218 231
-0.193819 0.618215 1.909000 231 222 232
-0.192804 0.618301 1.899000 232 220 228
-0.192804 0.621625 1.899000 234 222 225
-0.191687 0.621330 1.888000 236 225 228
-0.190671 0.621326 1.878000 235 224 232
-0.189656 0.621288 1.868000 235 224 233
-0.187626 0.617871 1.848000 233 221 234
-0.185595 0.614384 1.828000 232 216 236
-0.184681 0.614543 1.819000 232 218 239
-0.183666 0.614331 1.809000 232 209 240
-0.182752 0.614426 1.800000 234 221 242
-0.181737 0.614146 1.790000 237 228 240
-0.181737 0.617279 1.790000 234 226 238
-0.179909 0.614174 1.772000 231 224 236
-0.178996 0.614140 1.763000 230 221 235
-0.177574 0.612325 1.749000 230 218 235
-0.176254 0.610813 1.736000 231 221 235
-0.176254 0.613852 1.736000 233 223 234
-0.175442 0.614048 1.728000 232 224 234
-0.174528 0.613859 1.719000 232 221 234
-0.172802 0.610767 1.702000 230 220 234
-0.171178 0.607977 1.686000 228 222 234
-0.169452 0.604768 1.669000 229 217 234
-0.168640 0.604777 1.661000 231 215 235
-0.167827 0.604758 1.653000 231 217 236
-0.166304 0.602137 1.638000 231 217 237
-0.165492 0.602050 1.630000 232 225 238
-0.165492 0.604903 1.630000 234 210 235
-0.164680 0.604773 1.622000 230 221 232
-0.163969 0.604990 1.615000 226 221 232
-0.163157 0.604807 1.607000 229 222 233
-0.162446 0.604973 1.600000 233 225 236
-0.160213 0.599417 1.578000 231 221 239
-0.158690 0.596455 1.563000 229 221 235
-0.157573 0.594974 1.552000 228 219 232
-0.157268 0.596535 1.549000 227 218 230
-0.156558 0.596539 1.542000 226 213 229
-0.155238 0.594186 1.529000 224 205 226
-0.154527 0.594130 1.522000 228 217 223
-0.153816 0.594050 1.515000 232 223 225
-0.153207 0.594339 1.509000 229 219 228
-0.152497 0.594211 1.502000 226 218 226
-0.151887 0.594456 1.496000 225 214 225
-0.151177 0.594281 1.489000 225 207 225
-0.149958 0.592077 1.477000 226 209 225
-0.149958 0.594663 1.477000 227 207 229
-0.149248 0.594417 1.470000 228 212 233
-0.148638 0.594554 1.464000 229 225 235
-0.147420 0.592222 1.452000 232 220 238
-0.146811 0.592306 1.446000 235 214 241
-0.145593 0.589901 1.434000 227 224 245
-0.144983 0.589933 1.428000 220 202 214
-0.144374 0.589943 1.422000 184 149 183
-0.143765 0.589933 1.416000 148 98 179
-0.143156 0.589901 1.410000 148 138 175
-0.308016 0.697089 3.087000 216 191 207
-0.305223 0.696122 3.059000 217 192 210
-0.302628 0.695514 3.033000 217 192 213
-0.299934 0.694584 3.006000 218 195 210
-0.297340 0.693793 2.980000 214 208 208
-0.294846 0.693146 2.955000 210 199 210
-0.292351 0.692410 2.930000 215 194 211
-0.289857 0.691588 2.905000 221 195 213
-0.271597 0.667081 2.722000 219 202 213
-0.271597 0.671846 2.722000 221 206 212
-0.269502 0.671390 2.701000 223 206 217
-0.269502 0.676119 2.701000 225 211 222
-0.267406 0.675553 2.680000 227 210 223
-0.257429 0.654862 2.580000 228 208 224
-0.257429 0.659379 2.580000 229 206 225
-0.255433 0.658748 2.560000 228 206 227
-0.251741 0.653644 2.523000 228 208 226
-0.251741 0.658060 2.523000 227 211 225
-0.249945 0.657751 2.505000 226 209 225
-0.248149 0.657378 2.487000 225 209 225
-0.246353 0.656942 2.469000 225 210 224
-0.244557 0.656443 2.451000 226 215 223
-0.242861 0.656151 2.434000 228 216 224
-0.241165 0.655799 2.417000 232 221 225
-0.239468 0.655387 2.400000 236 213 225
-0.237872 0.655191 2.384000 233 215 226
-0.234579 0.650237 2.351000 230 213 226
-0.232983 0.649900 2.335000 226 216 226
-0.231486 0.649786 2.320000 223 215 227
-0.228393 0.645110 2.289000 225 214 228
-0.228393 0.649117 2.289000 228 213 231
-0.226896 0.648844 2.274000 231 216 235
-0.226896 0.652825 2.274000 235 221 236
-0.221009 0.639764 2.215000 237 233 238
-0.219613 0.639573 2.201000 240 220 233
-0.219613 0.643426 2.201000 237 216 229
-0.218216 0.643162 2.187000 234 219 232
-0.216918 0.643144 2.174000 232 226 235
-0.215522 0.642784 2.160000 231 220 233
-0.211530 0.634591 2.120000 233 222 232
-0.210233 0.634388 2.107000 236 224 235
-0.209036 0.634443 2.095000 235 230 237
-0.207739 0.634150 2.082000 235 223 234
-0.206442 0.633812 2.069000 233 226 231
-0.205244 0.633737 2.057000 231 214 231
-0.204047 0.633620 2.045000 230 215 231
-0.200455 0.625982 2.009000 229 217 231
-0.199357 0.626052 1.998000 230 233 231
-0.198160 0.625769 1.986000 232 224 231
-0.197063 0.625760 1.975000 228 221 230
-0.197063 0.629217 1.975000 225 209 229
-0.193670 0.621783 1.941000 226 210 229
-0.191575 0.618417 1.920000 227 215 231
-0.189479 0.614977 1.899000 228 220 233
-0.189479 0.618301 1.899000 230 221 233
-0.188382 0.618025 1.888000 232 222 234
-0.187384 0.618039 1.878000 235 222 234
-0.187384 0.621326 1.878000 233 223 234
-0.186386 0.621288 1.868000 232 222 234
-0.184391 0.617871 1.848000 230 219 234
-0.183393 0.617745 1.838000 229 218 236
-0.181497 0.614543 1.819000 227 222 238
-0.180499 0.614331 1.809000 226 219 238
-0.180499 0.617498 1.809000 229 223 239
-0.179601 0.617576 1.800000 232 224 238
-0.178604 0.617279 1.790000 229 224 237
-0.176808 0.614174 1.772000 226 221 236
-0.176808 0.617275 1.772000 228 217 236
-0.175012 0.614075 1.754000 231 217 231
-0.174114 0.613979 1.745000 231 221 227
-0.172417 0.611023 1.728000 232 220 230
-0.171519 0.610849 1.719000 232 220 234
-0.171519 0.613859 1.719000 232 220 234
-0.169823 0.610767 1.702000 228 218 234
-0.169025 0.610862 1.694000 224 217 233
-0.167329 0.607667 1.677000 227 216 232
-0.166530 0.607690 1.669000 230 217 233
-0.164934 0.604758 1.653000 229 224 234
-0.163437 0.602137 1.638000 229 221 235
-0.162639 0.602050 1.630000 229 238 236
-0.162639 0.604903 1.630000 229 219 234
-0.162639 0.607756 1.630000 229 220 232
-0.161142 0.604990 1.615000 230 221 232
-0.160344 0.604807 1.607000 230 223 232
-0.158149 0.599301 1.585000 231 220 233
-0.156752 0.596758 1.571000 229 220 235
-0.155255 0.593784 1.556000 227 217 233
-0.155255 0.596508 1.556000 227 217 231
-0.154557 0.596535 1.549000 227 219 230
-0.153858 0.596539 1.542000 224 220 230
-0.153260 0.596907 1.536000 221 213 227
-0.151863 0.594130 1.522000 228 220 225
-0.151164 0.594050 1.515000 235 220 226
-0.150566 0.594339 1.509000 229 218 227
-0.149867 0.594211 1.502000 224 215 225
-0.149269 0.594456 1.496000 224 216 224
-0.148570 0.594281 1.489000 224 211 224
-0.147373 0.592077 1.477000 225 209 224
-0.146674 0.591844 1.470000 226 205 227
-0.146076 0.591991 1.464000 227 203 230
-0.145477 0.592117 1.458000 229 215 232
-0.144280 0.589775 1.446000 234 219 234
-0.143681 0.589849 1.440000 239 220 238
-0.143082 0.589901 1.434000 229 239 242
-0.141885 0.587454 1.422000 219 198 211
-0.141286 0.587454 1.416000 186 156 181
-0.141286 0.589933 1.416000 153 141 177
-0.140688 0.589901 1.410000 153 176 173
-0.299868 0.696122 3.059000 215 194 214
-0.297319 0.695514 3.033000 215 191 218
-0.294672 0.694584 3.006000 215 187 212
-0.292124 0.693793 2.980000 214 198 206
-0.292124 0.699010 2.980000 212 196 209
-0.289673 0.698318 2.955000 217 195 212
-0.266832 0.667081 2.722000 220 198 215
-0.264774 0.666662 2.701000 221 205 214
-0.264774 0.671390 2.701000 222 208 218
-0.264774 0.676119 2.701000 224 208 222
-0.262715 0.675553 2.680000 226 210 222
-0.252912 0.654862 2.580000 226 210 223
-0.252912 0.659379 2.580000 227 206 223
-0.249187 0.654116 2.542000 227 206 224
-0.247325 0.653644 2.523000 227 209 224
-0.247325 0.658060 2.523000 226 210 224
-0.245560 0.657751 2.505000 225 209 225
-0.243796 0.657378 2.487000 225 212 226
-0.242031 0.656942 2.469000 226 211 225
-0.240267 0.656443 2.451000 227 213 225
-0.238600 0.656151 2.434000 228 214 225
-0.236934 0.655799 2.417000 228 213 226
-0.233699 0.651018 2.384000 229 209 227
-0.232032 0.650519 2.367000 229 212 228
-0.230464 0.650237 2.351000 229 205 227
-0.228895 0.649900 2.335000 227 212 226
-0.227425 0.649786 2.320000 225 214 228
-0.225857 0.649338 2.304000 228 213 230
-0.222916 0.644863 2.274000 231 216 232
-0.222916 0.648844 2.274000 231 217 235
-0.218603 0.640193 2.230000 232 220 238
-0.217132 0.639764 2.215000 232 222 241
-0.215760 0.639573 2.201000 232 214 233
-0.215760 0.643426 2.201000 232 216 226
-0.214387 0.643162 2.187000 232 220 231
-0.213113 0.643144 2.174000 232 227 236
-0.211741 0.642784 2.160000 233 224 234
-0.207819 0.634591 2.120000 236 222 233
-0.206545 0.634388 2.107000 239 222 236
-0.205369 0.634443 2.095000 236 221 240
-0.202820 0.630191 2.069000 234 219 235
-0.202820 0.633812 2.069000 230 216 231
-0.201644 0.633737 2.057000 226 204 231
-0.198115 0.626184 2.021000 227 208 231
-0.196938 0.625982 2.009000 228 201 231
-0.196350 0.627619 2.003000 229 219 231
-0.195860 0.629550 1.998000 231 224 232
-0.194684 0.629245 1.986000 229 217 233
-0.193605 0.629217 1.975000 227 207 230
-0.190272 0.621783 1.941000 227 210 228
-0.188214 0.618417 1.920000 227 212 231
-0.186155 0.614977 1.899000 231 220 235
-0.186155 0.618301 1.899000 236 225 239
-0.185077 0.618025 1.888000 235 222 243
-0.184097 0.618039 1.878000 235 221 240
-0.184097 0.621326 1.878000 233 221 237
-0.182136 0.617962 1.858000 231 223 236
-0.181156 0.617871 1.848000 231 220 235
-0.180176 0.617745 1.838000 230 216 236
-0.178313 0.614543 1.819000 229 218 237
-0.177333 0.614331 1.809000 228 222 236
-0.177333 0.617498 1.809000 230 223 236
-0.175470 0.614146 1.790000 233 224 236
-0.174588 0.614175 1.781000 231 222 236
-0.173706 0.614174 1.772000 229 222 236
-0.172823 0.614140 1.763000 229 219 237
-0.171941 0.614075 1.754000 230 213 228
-0.171059 0.613979 1.745000 229 217 220
-0.169392 0.611023 1.728000 228 219 227
-0.168510 0.610849 1.719000 232 223 234
-0.167726 0.611002 1.711000 236 222 234
-0.166844 0.610767 1.702000 232 222 235
-0.166060 0.610862 1.694000 229 215 233
-0.164393 0.607667 1.677000 229 216 231
-0.163609 0.607690 1.669000 230 216 232
-0.162040 0.604758 1.653000 229 218 233
-0.160570 0.602137 1.638000 228 208 233
-0.159786 0.602050 1.630000 228 219 234
-0.159786 0.604903 1.630000 229 211 233
-0.159001 0.604773 1.622000 229 218 232
-0.157531 0.601994 1.607000 230 223 231
-0.156845 0.602172 1.600000 231 219 231
-0.155374 0.599301 1.585000 231 215 231
-0.154688 0.599417 1.578000 227 215 231
-0.153218 0.596455 1.563000 224 210 231
-0.152532 0.596508 1.556000 227 218 231
-0.151845 0.596535 1.549000 231 221 231
-0.151159 0.596539 1.542000 228 217 231
-0.151159 0.599238 1.542000 224 208 229
-0.149199 0.594130 1.522000 228 216 228
-0.148512 0.594050 1.515000 233 222 227
-0.147924 0.594339 1.509000 228 219 226
-0.147238 0.594211 1.502000 224 211 224
-0.146650 0.594456 1.496000 223 213 223
-0.145964 0.594281 1.489000 222 215 223
-0.145376 0.594482 1.483000 224 209 224
-0.144787 0.594663 1.477000 225 202 226
-0.144101 0.594417 1.470000 227 210 228
-0.143513 0.594554 1.464000 230 214 229
-0.141749 0.589775 1.446000 234 218 231
-0.141749 0.592306 1.446000 238 211 235
-0.141160 0.592369 1.440000 226 217 239
-0.139396 0.587454 1.422000 215 196 209
-0.139396 0.589943 1.422000 182 154 179
-0.138808 0.589933 1.416000 149 134 175
-0.137631 0.587391 1.404000 149 154 171
-0.292010 0.695514 3.033000 213 194 215
-0.289410 0.694584 3.006000 213 195 211
-0.286907 0.693793 2.980000 214 202 208
-0.284500 0.693146 2.955000 215 195 209
-0.284500 0.698318 2.955000 219 193 211
-0.262067 0.667081 2.722000 221 202 215
-0.260046 0.666662 2.701000 221 211 216
-0.260046 0.671390 2.701000 222 208 218
-0.260046 0.676119 2.701000 223 205 221
-0.258024 0.675553 2.680000 225 209 221
-0.256002 0.674914 2.659000 225 216 222
-0.248396 0.659379 2.580000 226 210 224
-0.244737 0.654116 2.542000 226 206 225
-0.242908 0.653644 2.523000 226 209 225
-0.241175 0.653365 2.505000 225 212 226
-0.239442 0.653024 2.487000 224 211 225
-0.239442 0.657378 2.487000 226 219 225
-0.237709 0.656942 2.469000 228 211 223
-0.235976 0.656443 2.451000 228 215 222
-0.234339 0.656151 2.434000 228 213 225
-0.232703 0.655799 2.417000 225 210 229
-0.229526 0.651018 2.384000 223 212 228
-0.227889 0.650519 2.367000 226 220 227
-0.226348 0.650237 2.351000 229 213 226
-0.224808 0.649900 2.335000 228 215 225
-0.223364 0.649786 2.320000 227 215 227
-0.221823 0.649338 2.304000 230 211 229
-0.218935 0.644863 2.274000 234 214 231
-0.217491 0.644564 2.259000 232 217 233
-0.214699 0.640193 2.230000 230 219 235
-0.213255 0.639764 2.215000 227 224 238
-0.211907 0.639573 2.201000 225 219 233
-0.211907 0.643426 2.201000 228 217 228
-0.210559 0.643162 2.187000 231 221 231
-0.209307 0.643144 2.174000 233 239 234
-0.206708 0.638915 2.147000 235 226 233
-0.204108 0.634591 2.120000 238 222 231
-0.202857 0.634388 2.107000 242 220 233
-0.199198 0.626569 2.069000 237 216 235
-0.199198 0.630191 2.069000 233 217 233
-0.199198 0.633812 2.069000 227 218 231
-0.198043 0.633737 2.057000 221 212 230
-0.194577 0.626184 2.021000 224 215 230
-0.194577 0.629722 2.021000 228 213 230
-0.193422 0.629499 2.009000 229 218 230
-0.192362 0.629550 1.998000 230 219 230
-0.192362 0.633047 1.998000 229 219 230
-0.190148 0.629217 1.975000 229 213 226
-0.189089 0.629151 1.964000 228 211 223
-0.184853 0.618417 1.920000 227 214 227
-0.182831 0.614977 1.899000 234 226 232
-0.181772 0.614720 1.888000 242 221 234
-0.181772 0.618025 1.888000 239 222 237
-0.181772 0.621330 1.888000 236 220 236
-0.180809 0.621326 1.878000 233 220 234
-0.179846 0.621288 1.868000 231 221 234
-0.177921 0.617871 1.848000 231 224 234
-0.176958 0.617745 1.838000 232 218 234
-0.175995 0.617584 1.828000 231 215 235
