ply
format ascii 1.0
element vertex 1269
property float x
property float y
property float z
property uchar red
property uchar green
property uchar blue
end_header
-1.256523 0.161685 2.639000 65 38 52
-1.256523 0.166305 2.639000 68 38 46
-1.266046 0.172219 2.659000 68 38 41
-1.266046 0.176874 2.659000 69 37 41
-1.266046 0.181529 2.659000 68 42 41
-1.266046 0.186183 2.659000 68 42 26
-1.266046 0.190838 2.659000 70 43 12
-1.266046 0.195492 2.659000 73 42 26
-1.266046 0.200147 2.659000 67 42 40
-1.266046 0.204802 2.659000 61 46 36
-1.276045 0.211110 2.680000 65 47 33
-1.276045 0.215802 2.680000 69 49 23
-1.266046 0.218765 2.659000 64 45 14
-1.266046 0.223420 2.659000 58 44 26
-1.256523 0.226359 2.639000 63 45 38
-1.256523 0.230979 2.639000 69 47 36
-1.256523 0.235598 2.639000 68 44 35
-1.256523 0.240218 2.639000 68 43 33
-1.266046 0.246693 2.659000 73 42 31
-1.266046 0.251347 2.659000 78 41 31
-1.266046 0.256002 2.659000 76 44 32
-1.266046 0.260656 2.659000 75 47 32
-1.266046 0.265311 2.659000 77 45 33
-1.276045 0.272098 2.680000 79 41 38
-1.276045 0.276789 2.680000 76 43 43
-1.276045 0.281481 2.680000 73 44 49
-1.276045 0.286172 2.680000 68 41 56
-1.276045 0.290863 2.680000 63 40 47
-1.276045 0.295555 2.680000 67 42 38
-1.276045 0.300246 2.680000 71 40 24
-1.276045 0.304937 2.680000 69 37 11
-1.276045 0.309629 2.680000 68 40 18
-1.276045 0.314320 2.680000 68 42 26
-1.266046 0.316512 2.659000 68 44 31
-1.266046 0.321166 2.659000 67 42 37
-1.266046 0.325821 2.659000 67 46 42
-1.266046 0.330475 2.659000 66 42 47
-1.266046 0.335130 2.659000 65 41 33
-1.266046 0.339784 2.659000 68 39 19
-1.266046 0.344439 2.659000 71 38 32
-1.266046 0.349094 2.659000 68 37 46
-1.266046 0.353748 2.659000 66 38 27
-1.266046 0.358403 2.659000 66 39 8
-1.266046 0.363057 2.659000 67 39 17
-1.266046 0.367712 2.659000 60 39 27
-1.276045 0.375307 2.680000 54 41 27
-1.266046 0.377021 2.659000 50 40 28
-1.266046 0.381676 2.659000 45 39 33
-1.256523 0.383424 2.639000 53 35 39
-1.256523 0.388044 2.639000 60 34 27
-1.256523 0.392664 2.639000 59 35 15
-1.256523 0.397283 2.639000 58 38 22
-1.256523 0.401903 2.639000 58 40 29
-1.256523 0.406522 2.639000 57 42 30
-1.256523 0.411142 2.639000 57 35 31
-1.256523 0.415761 2.639000 58 30 32
-1.256523 0.420381 2.639000 58 29 34
-1.256523 0.425001 2.639000 58 31 33
-1.256523 0.429620 2.639000 57 34 32
-1.256523 0.434240 2.639000 56 39 27
-1.247000 0.435533 2.619000 56 37 23
-1.256523 0.443479 2.639000 56 35 15
-1.247000 0.444702 2.619000 56 28 7
-1.256523 0.452718 2.639000 56 25 14
-1.256523 0.457337 2.639000 54 30 21
-1.266046 0.465458 2.659000 53 33 24
-1.266046 0.470113 2.659000 52 29 28
-1.276045 0.478517 2.680000 52 29 39
-1.286044 0.486995 2.701000 55 30 51
-1.286044 0.491723 2.701000 58 28 27
-1.296042 0.500311 2.722000 52 27 3
-1.296042 0.505075 2.722000 46 26 10
-1.286044 0.505907 2.701000 51 28 17
-1.286044 0.510635 2.701000 56 23 20
-1.276045 0.511356 2.680000 51 27 24
-1.276045 0.516048 2.680000 46 32 21
-1.266046 0.516658 2.659000 51 23 19
-1.256523 0.517392 2.639000 57 24 23
-1.256523 0.522012 2.639000 48 26 28
-1.256523 0.526631 2.639000 38 27 27
-1.256523 0.531251 2.639000 41 28 26
-1.256523 0.535870 2.639000 44 32 24
-1.256523 0.540490 2.639000 44 27 22
-1.256523 0.545109 2.639000 44 26 21
-1.256523 0.549729 2.639000 41 21 20
-1.266046 0.558550 2.659000 38 18 31
-1.266046 0.563204 2.659000 40 19 42
-1.266046 0.567859 2.659000 43 20 36
-1.266046 0.572513 2.659000 48 19 31
-1.266046 0.577168 2.659000 54 18 25
-1.266046 0.581823 2.659000 45 21 20
-1.266046 0.586477 2.659000 37 24 18
-1.276045 0.595800 2.680000 33 21 17
-1.256523 0.591305 2.639000 29 25 14
-1.266046 0.600441 2.659000 26 21 12
-1.256523 0.600544 2.639000 24 18 8
-1.256523 0.605164 2.639000 26 15 5
-1.266046 0.614405 2.659000 29 13 8
-1.256523 0.614403 2.639000 29 14 12
-1.256523 0.619022 2.639000 29 17 10
-1.266046 0.628368 2.659000 30 14 9
-1.276045 0.638022 2.680000 31 12 7
-1.276045 0.642714 2.680000 29 10 6
-1.276045 0.647405 2.680000 28 12 5
-1.286044 0.657206 2.701000 22 11 5
-1.276045 0.656788 2.680000 17 13 15
-1.276045 0.661479 2.680000 16 8 25
-1.276045 0.666170 2.680000 15 6 15
-1.276045 0.670862 2.680000 20 7 5
-1.266046 0.670260 2.659000 24 10 4
-1.266046 0.674914 2.659000 27 5 4
-1.266046 0.679569 2.659000 30 4 3
-1.266046 0.684223 2.659000 25 2 3
-1.266046 0.688878 2.659000 21 1 3
-0.929418 0.642392 1.952000 117 103 120
-0.924180 0.642169 1.941000 119 105 122
-0.924180 0.645567 1.941000 122 105 127
-0.919419 0.645621 1.931000 125 108 133
-0.914181 0.645304 1.920000 128 112 134
-0.908944 0.644949 1.909000 129 119 135
-0.904182 0.644895 1.899000 130 129 138
-0.894184 0.641051 1.878000 126 126 141
-0.889422 0.640907 1.868000 122 127 147
-0.884661 0.640729 1.858000 127 124 154
-0.879899 0.640515 1.848000 132 123 148
-0.879899 0.643750 1.848000 134 125 143
-0.875138 0.643484 1.838000 137 129 144
-0.875138 0.646701 1.838000 138 127 145
-0.866091 0.643200 1.819000 139 123 148
-0.861330 0.642831 1.809000 140 136 152
-0.839428 0.629571 1.763000 142 142 151
-0.830857 0.626198 1.745000 144 140 150
-0.826572 0.626007 1.736000 146 137 154
-0.826572 0.629046 1.736000 149 137 158
-0.826572 0.632085 1.736000 152 136 160
-0.822763 0.632197 1.728000 153 143 163
-0.822763 0.635222 1.728000 155 141 167
-0.818478 0.634922 1.719000 157 142 172
-0.810384 0.631623 1.702000 159 149 172
-0.806575 0.631619 1.694000 161 151 172
-0.794671 0.625219 1.669000 163 152 173
-0.790862 0.625130 1.661000 164 150 175
-0.787053 0.625013 1.653000 165 151 183
-0.787053 0.627906 1.653000 167 151 191
-0.783244 0.627747 1.645000 169 151 185
-0.776102 0.624876 1.630000 169 152 180
-0.776102 0.627729 1.630000 169 148 179
-0.772293 0.627488 1.622000 168 154 178
-0.765151 0.624498 1.607000 167 156 180
-0.754676 0.618723 1.585000 163 160 183
-0.751343 0.618753 1.578000 160 168 185
-0.748010 0.618758 1.571000 164 164 187
-0.744201 0.618343 1.563000 167 159 188
-0.740868 0.618298 1.556000 167 164 189
-0.737535 0.618228 1.549000 166 167 188
-0.737535 0.620939 1.549000 170 162 187
-0.734202 0.620832 1.542000 174 158 186
-0.728012 0.618275 1.529000 171 168 185
-0.724679 0.618109 1.522000 168 169 186
-0.721346 0.617918 1.515000 172 166 187
-0.712300 0.612787 1.496000 176 165 188
-0.712300 0.615406 1.496000 178 168 189
-0.708967 0.615133 1.489000 180 171 190
-0.706110 0.615250 1.483000 177 173 191
-0.703253 0.615346 1.477000 173 171 192
-0.699920 0.615003 1.470000 173 170 194
-1.146590 -0.236934 2.417000 89 32 13
-1.146590 -0.232703 2.417000 97 31 15
-1.146590 -0.228472 2.417000 105 73 52
-1.146590 -0.224241 2.417000 124 115 89
-1.146590 -0.220010 2.417000 144 113 99
-1.154654 -0.217297 2.434000 122 101 110
-1.162719 -0.214524 2.451000 101 62 86
-1.171258 -0.211777 2.469000 177 146 62
-1.179797 -0.208968 2.487000 254 188 108
-1.333023 -0.216432 2.810000 220 173 137
-1.333023 -0.211513 2.810000 170 134 127
-1.333023 -0.206594 2.810000 121 103 98
-1.333023 -0.201675 2.810000 99 87 68
-1.333023 -0.196756 2.810000 77 32 36
-1.333023 -0.191837 2.810000 88 24 4
-1.333023 -0.186918 2.810000 99 47 9
-1.171258 -0.025932 2.469000 83 38 14
-1.162719 -0.021452 2.451000 85 37 11
-1.162719 -0.017162 2.451000 87 38 8
-1.171258 -0.012966 2.469000 86 41 5
-1.171258 -0.008644 2.469000 86 40 7
-1.171258 -0.004322 2.469000 86 41 10
-1.162719 -0.000000 2.451000 87 39 12
-1.162719 0.004291 2.451000 85 37 15
-1.162719 0.008581 2.451000 83 36 21
-1.171258 0.012966 2.469000 82 37 27
-1.171258 0.017288 2.469000 81 41 15
-1.171258 0.021610 2.469000 80 45 2
-1.171258 0.025932 2.469000 80 41 14
-1.171258 0.030254 2.469000 83 39 25
-1.171258 0.034576 2.469000 86 35 16
-1.171258 0.038898 2.469000 84 31 6
-1.171258 0.043220 2.469000 83 29 6
-1.171258 0.047542 2.469000 75 29 5
-1.171258 0.051864 2.469000 68 28 15
-1.171258 0.056186 2.469000 73 31 26
-1.171258 0.060508 2.469000 79 34 19
-1.171258 0.064830 2.469000 78 32 12
-1.171258 0.069152 2.469000 78 33 12
-1.179797 0.074010 2.487000 80 37 11
-1.171258 0.077796 2.469000 82 32 15
-1.171258 0.082118 2.469000 85 28 19
-1.171258 0.086440 2.469000 88 28 13
-1.171258 0.090762 2.469000 82 30 7
-1.171258 0.095084 2.469000 77 33 12
-1.171258 0.099406 2.469000 77 36 16
-1.171258 0.103728 2.469000 78 33 13
-1.171258 0.108050 2.469000 79 26 10
-1.171258 0.112372 2.469000 80 29 13
-1.171258 0.116694 2.469000 78 34 15
-1.179797 0.121898 2.487000 76 38 23
-1.179797 0.126251 2.487000 73 43 31
-1.179797 0.130605 2.487000 71 47 36
-1.188336 0.135935 2.505000 69 48 41
-1.196875 0.141328 2.523000 68 47 42
-1.232928 0.150135 2.599000 61 46 42
-1.251904 0.157065 2.639000 55 40 42
-1.261391 0.162910 2.659000 51 34 43
-1.261391 0.167565 2.659000 47 39 34
-1.271353 0.173580 2.680000 56 41 26
-1.271353 0.178271 2.680000 65 41 31
-1.271353 0.182962 2.680000 66 45 37
-1.271353 0.187654 2.680000 67 45 29
-1.271353 0.192345 2.680000 68 44 21
-1.271353 0.197036 2.680000 69 41 30
-1.271353 0.201728 2.680000 62 40 39
-1.271353 0.206419 2.680000 55 43 39
-1.271353 0.211110 2.680000 58 46 39
-1.271353 0.215802 2.680000 62 47 31
-1.271353 0.220493 2.680000 45 47 24
-1.271353 0.225184 2.680000 29 47 35
-1.271353 0.229876 2.680000 48 45 46
-1.271353 0.234567 2.680000 67 42 40
-1.271353 0.239258 2.680000 67 42 34
-1.271353 0.243950 2.680000 68 42 33
-1.271353 0.248641 2.680000 75 41 31
-1.271353 0.253332 2.680000 82 40 32
-1.271353 0.258024 2.680000 77 42 33
-1.271353 0.262715 2.680000 73 44 31
-1.271353 0.267406 2.680000 73 46 30
-1.271353 0.272098 2.680000 73 43 36
-1.271353 0.276789 2.680000 73 42 42
-1.281316 0.283686 2.701000 73 41 46
-1.281316 0.288414 2.701000 70 41 50
-1.281316 0.293142 2.701000 68 43 44
-1.281316 0.297870 2.701000 68 45 39
-1.271353 0.300246 2.680000 69 41 30
-1.271353 0.304937 2.680000 68 35 21
-1.271353 0.309629 2.680000 67 38 25
-1.271353 0.314320 2.680000 67 41 28
-1.271353 0.319011 2.680000 68 42 31
-1.261391 0.321166 2.659000 74 39 34
-1.271353 0.328394 2.680000 80 42 36
-1.271353 0.333085 2.680000 71 44 38
-1.281316 0.340423 2.701000 63 43 28
-1.271353 0.342468 2.680000 63 45 19
-1.261391 0.344439 2.659000 64 41 28
-1.261391 0.349094 2.659000 65 41 37
-1.261391 0.353748 2.659000 66 38 26
-1.271353 0.361233 2.680000 70 37 16
-1.271353 0.365925 2.680000 74 36 20
-1.271353 0.370616 2.680000 64 38 24
-1.281316 0.378248 2.701000 54 37 27
-1.271353 0.379999 2.680000 44 36 29
-1.271353 0.384690 2.680000 35 37 32
-1.261391 0.386330 2.659000 44 39 35
-1.251904 0.388044 2.639000 54 37 29
-1.251904 0.392664 2.639000 47 38 22
-1.251904 0.397283 2.639000 41 36 26
-1.251904 0.401903 2.639000 48 37 29
-1.261391 0.409603 2.659000 55 39 27
-1.261391 0.414258 2.659000 57 36 26
-1.261391 0.418912 2.659000 60 31 27
-1.271353 0.426912 2.680000 68 28 28
-1.271353 0.431603 2.680000 77 31 29
-1.271353 0.436295 2.680000 67 32 31
-1.261391 0.437531 2.659000 58 35 30
-1.251904 0.438859 2.639000 57 37 29
-1.251904 0.443479 2.639000 56 31 24
-1.251904 0.448098 2.639000 55 25 19
-1.261391 0.456149 2.659000 55 27 24
-1.261391 0.460803 2.659000 55 29 30
-1.271353 0.469134 2.680000 55 31 27
-1.271353 0.473825 2.680000 54 31 24
-1.271353 0.478517 2.680000 54 32 31
-1.271353 0.483208 2.680000 58 37 38
-1.281316 0.491723 2.701000 63 31 26
-1.281316 0.496451 2.701000 54 28 14
-1.281316 0.501179 2.701000 45 29 15
-1.281316 0.505907 2.701000 47 31 17
-1.281316 0.510635 2.701000 50 28 19
-1.281316 0.515363 2.701000 48 29 21
-1.281316 0.520091 2.701000 47 26 22
-1.281316 0.524819 2.701000 48 20 24
-1.271353 0.525430 2.680000 50 23 26
-1.271353 0.530122 2.680000 48 27 29
-1.261391 0.530622 2.659000 46 25 31
-1.261391 0.535277 2.659000 46 26 33
-1.261391 0.539931 2.659000 47 27 27
-1.261391 0.544586 2.659000 46 30 21
-1.261391 0.549241 2.659000 45 25 16
-1.261391 0.553895 2.659000 43 19 12
-1.271353 0.562961 2.680000 42 18 25
-1.261391 0.563204 2.659000 43 18 37
-1.261391 0.567859 2.659000 44 17 33
-1.271353 0.577035 2.680000 44 15 28
-1.261391 0.577168 2.659000 44 17 24
-1.261391 0.581823 2.659000 39 18 21
-1.261391 0.586477 2.659000 35 21 17
-1.271353 0.595800 2.680000 32 18 13
-1.261391 0.595786 2.659000 30 20 13
-1.271353 0.605183 2.680000 33 21 14
-1.271353 0.609874 2.680000 36 15 10
-1.271353 0.614566 2.680000 35 13 7
-1.281316 0.624109 2.701000 34 13 7
-1.271353 0.623948 2.680000 30 18 8
-1.271353 0.628640 2.680000 26 18 8
-1.271353 0.633331 2.680000 28 16 8
-1.281316 0.643022 2.701000 31 11 6
-1.271353 0.642714 2.680000 30 9 5
-1.281316 0.652478 2.701000 30 10 5
-1.271353 0.652096 2.680000 21 10 5
-1.271353 0.656788 2.680000 12 10 9
-1.271353 0.661479 2.680000 7 8 14
-1.271353 0.666170 2.680000 3 7 9
-1.271353 0.670862 2.680000 9 9 3
-1.261391 0.670260 2.659000 15 8 3
-1.261391 0.674914 2.659000 16 5 3
-1.261391 0.679569 2.659000 18 5 2
-1.261391 0.684223 2.659000 17 3 2
-1.261391 0.688878 2.659000 17 2 2
-0.931693 0.642903 1.964000 116 104 121
-0.926001 0.642392 1.952000 118 104 121
-0.926001 0.645809 1.952000 120 105 121
-0.920782 0.645567 1.941000 123 109 125
-0.916039 0.645621 1.931000 126 114 130
-0.910820 0.645304 1.920000 130 117 132
-0.905602 0.644949 1.909000 131 124 134
-0.900858 0.644895 1.899000 133 126 139
-0.890896 0.641051 1.878000 130 125 144
-0.886152 0.640907 1.868000 127 125 147
-0.881408 0.640729 1.858000 130 124 150
-0.876665 0.640515 1.848000 133 123 144
-0.871921 0.640266 1.838000 136 127 137
-0.871921 0.643484 1.838000 140 128 142
-0.867177 0.643183 1.828000 140 127 147
-0.858164 0.639664 1.809000 141 130 154
-0.858164 0.642831 1.809000 143 137 161
-0.840611 0.632785 1.772000 145 136 157
-0.827803 0.626198 1.745000 146 137 153
-0.823533 0.626007 1.736000 147 142 155
-0.823533 0.629046 1.736000 149 141 158
-0.823533 0.632085 1.736000 152 147 160
-0.819738 0.632197 1.728000 153 157 163
-0.815469 0.631913 1.719000 155 145 166
-0.811674 0.631967 1.711000 158 135 169
-0.807404 0.631623 1.702000 161 147 170
-0.803609 0.631619 1.694000 164 154 171
-0.799814 0.631588 1.686000 168 153 173
-0.791749 0.628141 1.669000 167 152 175
-0.787954 0.628038 1.661000 166 151 179
-0.784159 0.627906 1.653000 168 151 184
-0.780364 0.627747 1.645000 171 152 181
-0.777044 0.627943 1.638000 171 158 178
-0.777044 0.630810 1.638000 171 155 179
-0.773249 0.630583 1.630000 170 155 181
-0.769453 0.630327 1.622000 170 152 183
-0.762338 0.627311 1.607000 170 151 185
-0.748580 0.618753 1.578000 170 163 185
-0.745260 0.618758 1.571000 170 167 186
-0.738144 0.615574 1.556000 171 163 189
-0.734823 0.615516 1.549000 172 164 192
-0.734823 0.618228 1.549000 173 165 190
-0.734823 0.620939 1.549000 175 166 187
-0.731503 0.620832 1.542000 177 167 186
-0.728656 0.621105 1.536000 175 179 185
-0.725336 0.620952 1.529000 173 169 186
-0.722015 0.620773 1.522000 175 165 187
-0.718694 0.620570 1.515000 178 165 189
-0.715848 0.620754 1.509000 180 166 192
-0.706360 0.615133 1.489000 183 172 195
-0.703514 0.615250 1.483000 179 184 197
-0.700668 0.615346 1.477000 176 173 195
-0.697347 0.615003 1.470000 176 168 194
-1.142359 -0.236934 2.417000 88 17 3
-1.142359 -0.232703 2.417000 94 36 6
-1.142359 -0.228472 2.417000 100 67 41
-1.150394 -0.225818 2.434000 120 97 77
-1.150394 -0.221557 2.434000 140 121 96
-1.150394 -0.217297 2.434000 121 87 115
-1.158428 -0.214524 2.451000 101 1 95
-1.166936 -0.211777 2.469000 177 122 76
-1.175443 -0.208968 2.487000 254 209 115
-1.183951 -0.206095 2.505000 245 195 155
-1.328104 -0.216432 2.810000 223 186 134
-1.328104 -0.211513 2.810000 171 140 125
-1.328104 -0.206594 2.810000 119 100 94
-1.328104 -0.201675 2.810000 90 70 63
-1.328104 -0.196756 2.810000 62 9 33
-1.328104 -0.191837 2.810000 77 19 3
-1.328104 -0.186918 2.810000 93 33 6
-1.166936 -0.025932 2.469000 84 40 10
-1.166936 -0.021610 2.469000 86 38 8
-1.166936 -0.017288 2.469000 88 39 5
-1.166936 -0.012966 2.469000 90 40 3
-1.166936 -0.008644 2.469000 92 39 7
-1.166936 -0.004322 2.469000 90 37 11
-1.166936 -0.000000 2.469000 87 37 14
-1.166936 0.004322 2.469000 87 36 18
-1.166936 0.008644 2.469000 86 38 28
-1.166936 0.012966 2.469000 81 39 38
-1.166936 0.017288 2.469000 76 43 19
-1.166936 0.021610 2.469000 77 41 1
-1.166936 0.025932 2.469000 79 42 19
-1.166936 0.030254 2.469000 81 38 37
-1.166936 0.034576 2.469000 83 38 20
-1.166936 0.038898 2.469000 84 31 4
-1.166936 0.043220 2.469000 84 24 6
-1.166936 0.047542 2.469000 82 25 9
-1.166936 0.051864 2.469000 80 23 23
-1.166936 0.056186 2.469000 81 29 38
-1.166936 0.060508 2.469000 82 32 25
-1.166936 0.064830 2.469000 84 32 13
-1.166936 0.069152 2.469000 85 34 8
-1.175443 0.074010 2.487000 83 32 4
-1.175443 0.078363 2.487000 81 33 4
-1.166936 0.082118 2.469000 82 29 5
-1.166936 0.086440 2.469000 84 25 3
-1.166936 0.090762 2.469000 81 28 1
-1.175443 0.095777 2.487000 78 34 4
-1.175443 0.100130 2.487000 78 31 7
-1.166936 0.103728 2.469000 78 28 7
-1.175443 0.108837 2.487000 81 29 8
-1.175443 0.113191 2.487000 83 30 11
-1.175443 0.117544 2.487000 79 33 15
-1.175443 0.121898 2.487000 75 35 20
-1.175443 0.126251 2.487000 72 43 26
-1.183951 0.131550 2.505000 70 45 32
-1.192458 0.136912 2.523000 67 46 39
-1.209946 0.143401 2.560000 65 50 40
-1.219398 0.149038 2.580000 62 45 41
-1.247284 0.157065 2.639000 58 40 37
-1.266662 0.164197 2.680000 58 40 34
-1.266662 0.168888 2.680000 57 45 22
-1.266662 0.173580 2.680000 62 44 11
-1.266662 0.178271 2.680000 67 44 22
-1.266662 0.182962 2.680000 67 45 34
-1.266662 0.187654 2.680000 67 49 32
-1.266662 0.192345 2.680000 70 44 31
-1.266662 0.197036 2.680000 73 39 34
-1.266662 0.201728 2.680000 67 39 38
-1.266662 0.206419 2.680000 61 40 41
-1.266662 0.211110 2.680000 62 44 45
-1.276587 0.217493 2.701000 63 48 40
-1.276587 0.222221 2.701000 52 49 35
-1.266662 0.225184 2.680000 42 54 45
-1.266662 0.229876 2.680000 53 45 55
-1.266662 0.234567 2.680000 65 36 44
-1.276587 0.241133 2.701000 66 40 34
-1.276587 0.245861 2.701000 67 42 33
-1.276587 0.250589 2.701000 72 40 32
-1.266662 0.253332 2.680000 78 39 33
-1.276587 0.260046 2.701000 76 41 34
-1.276587 0.264774 2.701000 74 41 31
-1.276587 0.269502 2.701000 70 43 28
-1.276587 0.274230 2.701000 65 46 34
-1.276587 0.278958 2.701000 68 41 41
-1.276587 0.283686 2.701000 70 37 43
-1.276587 0.288414 2.701000 69 42 45
-1.276587 0.293142 2.701000 68 49 42
-1.276587 0.297870 2.701000 70 46 40
-1.266662 0.300246 2.680000 72 45 36
-1.266662 0.304937 2.680000 70 40 32
-1.266662 0.309629 2.680000 67 39 31
-1.276587 0.316783 2.701000 64 43 31
-1.266662 0.319011 2.680000 61 47 31
-1.266662 0.323703 2.680000 66 42 31
-1.266662 0.328394 2.680000 71 40 30
-1.276587 0.335695 2.701000 66 42 30
-1.276587 0.340423 2.701000 60 44 24
-1.276587 0.345152 2.701000 60 43 19
-1.276587 0.349880 2.701000 61 41 23
-1.266662 0.351851 2.680000 58 39 28
-1.266662 0.356542 2.680000 56 38 26
-1.266662 0.361233 2.680000 61 35 25
-1.266662 0.365925 2.680000 66 32 23
-1.266662 0.370616 2.680000 59 34 22
-1.276587 0.378248 2.701000 52 35 26
-1.266662 0.379999 2.680000 46 34 31
-1.266662 0.384690 2.680000 41 34 31
-1.266662 0.389381 2.680000 47 38 32
-1.256737 0.390985 2.659000 54 37 31
-1.256737 0.395639 2.659000 52 35 30
-1.256737 0.400294 2.659000 49 33 30
-1.256737 0.404949 2.659000 52 36 30
-1.256737 0.409603 2.659000 54 41 25
-1.256737 0.414258 2.659000 57 35 21
-1.266662 0.422221 2.680000 61 30 21
-1.266662 0.426912 2.680000 65 32 22
-1.266662 0.431603 2.680000 69 34 26
-1.266662 0.436295 2.680000 63 35 31
-1.266662 0.440986 2.680000 58 34 33
-1.266662 0.445677 2.680000 57 33 35
-1.256737 0.446840 2.659000 57 30 33
-1.256737 0.451494 2.659000 56 30 31
-1.256737 0.456149 2.659000 55 31 35
-1.266662 0.464443 2.680000 57 32 39
-1.266662 0.469134 2.680000 60 32 29
-1.266662 0.473825 2.680000 57 32 20
-1.276587 0.482266 2.701000 54 33 23
-1.276587 0.486995 2.701000 56 34 26
-1.276587 0.491723 2.701000 59 34 25
-1.276587 0.496451 2.701000 53 29 25
-1.286513 0.505075 2.722000 48 31 21
-1.286513 0.509840 2.722000 49 29 18
-1.276587 0.510635 2.701000 51 29 18
-1.276587 0.515363 2.701000 50 27 18
-1.276587 0.520091 2.701000 48 26 23
-1.286513 0.528900 2.722000 49 23 29
-1.276587 0.529547 2.701000 50 21 30
-1.276587 0.534276 2.701000 49 23 31
-1.256737 0.530622 2.659000 48 21 36
-1.256737 0.535277 2.659000 48 21 41
-1.256737 0.539931 2.659000 49 21 30
-1.256737 0.544586 2.659000 47 25 20
-1.266662 0.553578 2.680000 45 26 12
-1.266662 0.558270 2.680000 44 21 5
-1.276587 0.567372 2.701000 44 20 19
-1.276587 0.572100 2.701000 44 17 33
-1.266662 0.572344 2.680000 44 16 29
-1.276587 0.581556 2.701000 43 16 26
-1.266662 0.581726 2.680000 43 17 24
-1.266662 0.586418 2.680000 42 20 22
-1.266662 0.591109 2.680000 41 26 15
-1.266662 0.595800 2.680000 31 19 9
-1.256737 0.595786 2.659000 22 18 12
-1.266662 0.605183 2.680000 32 15 16
-1.256737 0.605095 2.659000 42 11 13
-1.266662 0.614566 2.680000 39 10 10
-1.266662 0.619257 2.680000 37 10 7
-1.266662 0.623948 2.680000 31 15 4
-1.266662 0.628640 2.680000 26 21 5
-1.276587 0.638294 2.701000 28 16 7
-1.276587 0.643022 2.701000 31 10 5
-1.276587 0.647750 2.701000 35 9 4
-1.286513 0.657551 2.722000 39 9 4
-1.276587 0.657206 2.701000 26 9 5
-1.276587 0.661934 2.701000 14 12 4
-1.276587 0.666662 2.701000 11 8 4
-1.276587 0.671390 2.701000 7 7 3
-1.266662 0.670862 2.680000 10 8 2
-1.256737 0.670260 2.659000 13 9 2
-1.256737 0.674914 2.659000 11 6 2
-1.256737 0.679569 2.659000 10 8 1
-1.256737 0.684223 2.659000 14 4 1
-1.256737 0.688878 2.659000 18 2 2
-1.256737 0.693532 2.659000 27 4 3
-1.247284 0.692936 2.639000 36 7 5
-0.928255 0.642903 1.964000 120 103 123
-0.922584 0.642392 1.952000 121 105 121
-0.922584 0.645809 1.952000 122 109 120
-0.917385 0.645567 1.941000 124 114 124
-0.912658 0.645621 1.931000 127 113 128
-0.907459 0.645304 1.920000 131 118 130
-0.902260 0.644949 1.909000 132 123 133
-0.897534 0.644895 1.899000 134 128 140
-0.887609 0.641051 1.878000 133 125 147
-0.882882 0.640907 1.868000 132 125 147
-0.878156 0.640729 1.858000 132 122 147
-0.873430 0.640515 1.848000 133 121 139
-0.873430 0.643750 1.848000 137 128 132
-0.868703 0.643484 1.838000 141 129 141
-0.863977 0.643183 1.828000 141 130 150
-0.859723 0.643200 1.819000 142 133 160
-0.850743 0.639633 1.800000 144 133 170
-0.833256 0.629571 1.763000 145 129 163
-0.824748 0.626198 1.745000 146 142 157
-0.820494 0.626007 1.736000 146 156 157
-0.820494 0.629046 1.736000 148 151 158
-0.820494 0.632085 1.736000 151 157 161
-0.816713 0.632197 1.728000 152 154 164
-0.812460 0.631913 1.719000 154 150 165
-0.808679 0.631967 1.711000 157 146 167
-0.804425 0.631623 1.702000 160 151 169
-0.800644 0.631619 1.694000 162 152 171
-0.796863 0.631588 1.686000 165 154 173
-0.788828 0.628141 1.669000 165 152 175
-0.785047 0.628038 1.661000 165 151 176
-0.781266 0.627906 1.653000 165 153 177
-0.774176 0.625076 1.638000 165 151 177
-0.774176 0.627943 1.638000 169 157 177
-0.770395 0.627729 1.630000 173 162 180
-0.766614 0.627488 1.622000 172 156 184
-0.766614 0.630327 1.622000 171 148 185
-0.759525 0.627311 1.607000 173 158 187
-0.742510 0.616008 1.571000 175 169 186
-0.745818 0.621515 1.578000 174 167 186
-0.742510 0.621508 1.571000 174 165 191
-0.732112 0.615516 1.549000 173 163 196
-0.732112 0.618228 1.549000 173 163 192
-0.732112 0.620939 1.549000 171 165 188
-0.728803 0.620832 1.542000 169 167 187
-0.725967 0.621105 1.536000 172 169 186
-0.722659 0.620952 1.529000 175 165 186
-0.719351 0.620773 1.522000 177 164 187
-0.707062 0.612787 1.496000 180 164 191
-0.707062 0.615406 1.496000 184 166 196
-0.703754 0.615133 1.489000 188 170 200
-0.700918 0.615250 1.483000 183 174 204
-0.698082 0.615346 1.477000 179 170 199
-0.694773 0.615003 1.470000 179 168 194
-1.146133 -0.238600 2.434000 87 26 6
-1.138128 -0.232703 2.417000 91 29 4
-1.138128 -0.228472 2.417000 96 53 34
-1.146133 -0.225818 2.434000 116 86 65
-1.146133 -0.221557 2.434000 137 109 86
-1.154138 -0.218814 2.451000 119 127 107
-1.162614 -0.216099 2.469000 102 85 92
-1.162614 -0.211777 2.469000 178 135 77
-1.171090 -0.208968 2.487000 254 186 120
-1.179566 -0.206095 2.505000 245 198 163
-1.323186 -0.226270 2.810000 236 188 151
-1.323186 -0.221351 2.810000 231 201 139
-1.323186 -0.216432 2.810000 227 181 129
-1.323186 -0.211513 2.810000 172 143 120
-1.323186 -0.206594 2.810000 118 103 92
-1.323186 -0.201675 2.810000 82 84 64
-1.323186 -0.196756 2.810000 47 30 33
-1.323186 -0.191837 2.810000 67 13 2
-1.334487 -0.188515 2.834000 87 39 5
-1.171090 -0.026121 2.487000 86 40 9
-1.171090 -0.021767 2.487000 87 39 8
-1.162614 -0.017288 2.469000 89 39 7
-1.162614 -0.012966 2.469000 94 43 6
-1.162614 -0.008644 2.469000 99 39 9
-1.162614 -0.004322 2.469000 93 33 12
-1.162614 -0.000000 2.469000 88 35 14
-1.162614 0.004322 2.469000 89 34 17
-1.162614 0.008644 2.469000 90 37 22
-1.171090 0.013061 2.487000 81 39 27
-1.171090 0.017414 2.487000 72 36 18
-1.171090 0.021768 2.487000 75 34 10
-1.171090 0.026121 2.487000 78 38 17
-1.171090 0.030474 2.487000 79 36 25
-1.171090 0.034828 2.487000 81 36 13
-1.162614 0.038898 2.469000 83 34 2
-1.162614 0.043220 2.469000 86 29 4
-1.162614 0.047542 2.469000 89 26 7
-1.171090 0.052242 2.487000 93 25 15
-1.171090 0.056595 2.487000 89 30 24
-1.171090 0.060949 2.487000 86 29 17
-1.171090 0.065302 2.487000 89 30 10
-1.171090 0.069656 2.487000 93 28 7
-1.179566 0.074545 2.505000 86 25 4
-1.179566 0.078930 2.505000 80 30 5
-1.171090 0.082716 2.487000 80 32 7
-1.171090 0.087070 2.487000 80 26 4
-1.171090 0.091423 2.487000 80 24 1
-1.179566 0.096470 2.505000 80 27 4
-1.179566 0.100855 2.505000 79 29 8
-1.179566 0.105240 2.505000 79 29 7
-1.179566 0.109625 2.505000 83 33 6
-1.179566 0.114010 2.505000 87 31 11
-1.171090 0.117544 2.487000 80 34 16
-1.179566 0.122780 2.505000 74 40 28
-1.171090 0.126251 2.487000 71 49 39
-1.179566 0.131550 2.505000 69 46 40
-1.179566 0.135935 2.505000 66 42 41
-1.179566 0.140320 2.505000 63 45 42
-1.233247 0.151291 2.619000 62 44 43
-1.252082 0.158256 2.659000 62 41 41
-1.261971 0.164197 2.680000 65 41 39
-1.271859 0.170212 2.701000 68 43 39
-1.271859 0.174940 2.701000 68 47 40
-1.271859 0.179668 2.701000 69 44 40
-1.261971 0.182962 2.680000 68 44 39
-1.261971 0.187654 2.680000 67 46 34
-1.261971 0.192345 2.680000 72 46 28
-1.261971 0.197036 2.680000 78 41 32
-1.261971 0.201728 2.680000 72 40 36
-1.261971 0.206419 2.680000 67 42 42
-1.261971 0.211110 2.680000 66 44 49
-1.271859 0.217493 2.701000 65 46 43
-1.271859 0.222221 2.701000 60 47 37
-1.271859 0.226949 2.701000 55 48 41
-1.271859 0.231677 2.701000 59 46 44
-1.271859 0.236405 2.701000 63 41 40
-1.271859 0.241133 2.701000 64 41 35
-1.271859 0.245861 2.701000 66 41 34
-1.271859 0.250589 2.701000 70 39 33
-1.271859 0.255317 2.701000 75 38 31
-1.271859 0.260046 2.701000 75 42 29
-1.271859 0.264774 2.701000 76 41 28
-1.271859 0.269502 2.701000 67 42 27
-1.271859 0.274230 2.701000 58 43 32
-1.271859 0.278958 2.701000 63 42 37
-1.271859 0.283686 2.701000 68 41 38
-1.271859 0.288414 2.701000 68 42 40
-1.271859 0.293142 2.701000 69 45 40
-1.271859 0.297870 2.701000 72 47 40
-1.261971 0.300246 2.680000 76 44 37
-1.261971 0.304937 2.680000 72 41 34
-1.271859 0.312055 2.701000 68 40 32
-1.271859 0.316783 2.701000 61 47 30
-1.271859 0.321511 2.701000 55 46 31
-1.271859 0.326239 2.701000 59 45 32
-1.271859 0.330967 2.701000 63 42 30
-1.271859 0.335695 2.701000 60 41 28
-1.281748 0.343070 2.722000 58 43 25
-1.281748 0.347835 2.722000 58 45 22
-1.271859 0.349880 2.701000 58 41 27
-1.271859 0.354608 2.701000 52 39 33
-1.271859 0.359336 2.701000 47 38 30
-1.271859 0.364064 2.701000 53 36 28
-1.271859 0.368792 2.701000 59 33 25
-1.271859 0.373520 2.701000 55 34 22
-1.271859 0.378248 2.701000 51 35 25
-1.271859 0.382976 2.701000 49 32 29
-1.271859 0.387704 2.701000 47 36 23
-1.271859 0.392432 2.701000 51 42 18
-1.261971 0.394073 2.680000 55 38 23
-1.261971 0.398764 2.680000 56 35 27
-1.261971 0.403455 2.680000 58 34 29
-1.261971 0.408147 2.680000 56 34 30
-1.261971 0.412838 2.680000 54 35 31
-1.261971 0.417529 2.680000 58 36 32
-1.271859 0.425529 2.701000 62 35 23
-1.271859 0.430257 2.701000 62 37 14
-1.271859 0.434985 2.701000 62 36 20
-1.271859 0.439713 2.701000 60 42 27
-1.271859 0.444442 2.701000 58 36 34
-1.271859 0.449170 2.701000 58 31 41
-1.261971 0.450369 2.680000 59 31 32
-1.261971 0.455060 2.680000 57 36 23
-1.252082 0.456149 2.659000 56 35 27
-1.261971 0.464443 2.680000 60 39 31
-1.261971 0.469134 2.680000 65 34 22
-1.261971 0.473825 2.680000 59 32 13
-1.271859 0.482266 2.701000 54 34 18
-1.261971 0.483208 2.680000 54 35 23
-1.271859 0.491723 2.701000 55 32 24
-1.271859 0.496451 2.701000 53 26 25
-1.271859 0.501179 2.701000 51 26 22
-1.271859 0.505907 2.701000 52 27 20
-1.271859 0.510635 2.701000 53 25 15
-1.271859 0.515363 2.701000 51 26 10
-1.271859 0.520091 2.701000 50 24 17
-1.281748 0.528900 2.722000 50 25 24
-1.281748 0.533665 2.722000 50 23 25
-1.271859 0.534276 2.701000 50 23 26
-1.261971 0.534813 2.680000 50 20 25
-1.261971 0.539504 2.680000 51 19 23
-1.261971 0.544196 2.680000 52 22 22
-1.261971 0.548887 2.680000 48 26 20
-1.271859 0.557916 2.701000 45 23 15
-1.271859 0.562644 2.701000 45 19 11
-1.271859 0.567372 2.701000 46 16 19
-1.271859 0.572100 2.701000 45 14 28
-1.271859 0.576828 2.701000 45 15 27
-1.271859 0.581556 2.701000 43 17 27
-1.271859 0.586285 2.701000 42 17 30
-1.271859 0.591013 2.701000 44 21 34
-1.271859 0.595741 2.701000 47 20 20
-1.271859 0.600469 2.701000 30 17 6
-1.261971 0.600492 2.680000 14 17 10
-1.261971 0.605183 2.680000 31 12 15
-1.261971 0.609874 2.680000 49 11 17
-1.271859 0.619381 2.701000 44 8 20
-1.271859 0.624109 2.701000 40 12 14
-1.271859 0.628838 2.701000 33 14 9
-1.271859 0.633566 2.701000 26 18 11
-1.271859 0.638294 2.701000 29 19 14
-1.271859 0.643022 2.701000 32 12 9
-1.271859 0.647750 2.701000 40 9 4
-1.281748 0.657551 2.722000 48 8 3
-1.271859 0.657206 2.701000 32 8 3
-1.281748 0.667081 2.722000 17 8 3
-1.281748 0.671846 2.722000 14 6 3
-1.281748 0.676610 2.722000 12 6 2
-1.271859 0.676119 2.701000 11 9 1
-1.252082 0.670260 2.659000 11 6 1
-1.252082 0.674914 2.659000 7 5 1
-1.252082 0.679569 2.659000 3 6 1
-1.252082 0.684223 2.659000 11 5 1
-1.252082 0.688878 2.659000 19 3 2
-0.924817 0.642903 1.964000 125 103 123
-0.919167 0.642392 1.952000 124 106 123
-0.919167 0.645809 1.952000 124 112 123
-0.919167 0.649226 1.952000 125 111 126
-0.909278 0.645621 1.931000 128 108 128
-0.904098 0.645304 1.920000 132 119 129
-0.894210 0.641571 1.899000 134 125 131
-0.889030 0.641159 1.888000 136 126 142
-0.884321 0.641051 1.878000 136 125 153
-0.879612 0.640907 1.868000 137 122 150
-0.874904 0.640729 1.858000 135 120 148
-0.870195 0.640515 1.848000 133 123 142
-0.865486 0.640266 1.838000 137 137 136
-0.865486 0.643484 1.838000 142 132 144
-0.860777 0.643183 1.828000 143 133 151
-0.856539 0.643200 1.819000 144 133 159
-0.842883 0.636079 1.790000 145 134 167
-0.830169 0.629571 1.763000 146 136 163
-0.823577 0.627633 1.749000 146 146 160
-0.821694 0.629252 1.745000 146 149 161
-0.821694 0.632307 1.745000 148 152 162
-0.817456 0.632085 1.736000 150 149 165
-0.813689 0.632197 1.728000 151 155 167
-0.809451 0.631913 1.719000 153 148 167
-0.809451 0.634922 1.719000 156 148 167
-0.805683 0.634962 1.711000 159 151 169
-0.801446 0.634602 1.702000 161 152 171
-0.793911 0.631588 1.686000 163 152 174
-0.785906 0.628141 1.669000 163 151 178
-0.778372 0.625013 1.653000 164 153 173
-0.778372 0.627906 1.653000 162 160 168
-0.771309 0.625076 1.638000 160 157 172
-0.771309 0.627943 1.638000 168 159 176
-0.763775 0.624649 1.622000 176 161 180
-0.763775 0.627488 1.622000 174 161 183
-0.763775 0.630327 1.622000 172 158 183
-0.743056 0.615991 1.578000 176 165 183
-0.743056 0.618753 1.578000 181 165 183
-0.735993 0.615607 1.563000 179 168 183
-0.732696 0.615574 1.556000 177 165 186
-0.729400 0.615516 1.549000 175 163 188
-0.729400 0.618228 1.549000 173 163 187
-0.729400 0.620939 1.549000 167 166 187
-0.726104 0.620832 1.542000 161 168 186
-0.723279 0.621105 1.536000 169 167 186
-0.723279 0.623794 1.536000 177 166 187
-0.719982 0.623628 1.529000 179 163 188
-0.716686 0.623437 1.522000 182 164 192
-0.704443 0.615406 1.496000 187 164 196
-0.704443 0.618025 1.496000 193 168 197
-0.701147 0.617739 1.489000 187 172 199
-0.692200 0.612430 1.470000 182 169 196
-0.692200 0.615003 1.470000 182 167 194
-1.133897 -0.232703 2.417000 90 32 2
-1.141872 -0.230079 2.434000 96 30 27
-1.149848 -0.227395 2.451000 110 64 53
-1.149848 -0.223105 2.451000 123 104 76
-1.149848 -0.218814 2.451000 118 110 100
-1.158292 -0.216099 2.469000 113 78 89
-1.158292 -0.211777 2.469000 183 135 79
-1.166736 -0.208968 2.487000 254 203 125
-1.175181 -0.206095 2.505000 244 192 171
-1.175181 -0.201710 2.505000 235 173 153
-1.318267 -0.221351 2.810000 230 191 135
-1.318267 -0.216432 2.810000 225 195 125
-1.318267 -0.211513 2.810000 171 141 115
-1.318267 -0.206594 2.810000 116 85 90
-1.318267 -0.201675 2.810000 83 59 65
-1.318267 -0.196756 2.810000 49 16 33
-1.329526 -0.193476 2.834000 66 26 1
-1.329526 -0.188515 2.834000 82 47 4
-1.166736 -0.026121 2.487000 80 47 7
-1.166736 -0.021767 2.487000 83 42 8
-1.166736 -0.017414 2.487000 86 36 9
-1.166736 -0.013060 2.487000 86 40 10
-1.166736 -0.008707 2.487000 87 42 11
-1.166736 -0.004353 2.487000 86 37 13
-1.158292 -0.000000 2.469000 85 37 15
-1.158292 0.004322 2.469000 85 37 17
-1.166736 0.008707 2.487000 85 39 16
-1.166736 0.013061 2.487000 80 35 16
-1.166736 0.017414 2.487000 75 30 17
-1.166736 0.021768 2.487000 76 36 19
-1.166736 0.026121 2.487000 77 40 16
-1.166736 0.030474 2.487000 78 39 13
-1.166736 0.034828 2.487000 78 38 7
-1.166736 0.039181 2.487000 81 36 1
-1.166736 0.043535 2.487000 83 34 3
-1.166736 0.047888 2.487000 86 26 5
-1.175181 0.052620 2.505000 89 21 8
-1.175181 0.057005 2.505000 87 24 11
-1.175181 0.061390 2.505000 84 26 9
-1.175181 0.065775 2.505000 86 28 7
-1.175181 0.070160 2.505000 88 26 6
-1.183625 0.075081 2.523000 83 27 5
-1.183625 0.079497 2.523000 78 30 7
-1.175181 0.083315 2.505000 78 29 9
-1.183625 0.088330 2.523000 78 25 5
-1.183625 0.092747 2.523000 76 25 2
-1.183625 0.097163 2.523000 75 23 5
-1.183625 0.101580 2.523000 76 27 9
-1.183625 0.105996 2.523000 78 26 7
-1.183625 0.110413 2.523000 79 29 5
-1.183625 0.114829 2.523000 80 28 11
-1.175181 0.118395 2.505000 76 37 18
-1.175181 0.122780 2.505000 71 45 35
-1.166736 0.126251 2.487000 69 48 53
-1.175181 0.131550 2.505000 67 51 48
-1.175181 0.135935 2.505000 64 46 44
-1.175181 0.140320 2.505000 61 45 44
-1.238045 0.152446 2.639000 61 44 45
-1.257279 0.159506 2.680000 61 42 44
-1.267131 0.165484 2.701000 65 40 44
-1.267131 0.170212 2.701000 70 42 57
-1.267131 0.174940 2.701000 70 42 70
-1.267131 0.179668 2.701000 70 42 57
-1.267131 0.184396 2.701000 68 43 45
-1.267131 0.189124 2.701000 66 47 35
-1.257279 0.192345 2.680000 70 44 26
-1.267131 0.198580 2.701000 74 39 30
-1.267131 0.203308 2.701000 69 41 34
-1.267131 0.208037 2.701000 65 44 43
-1.267131 0.212765 2.701000 65 44 53
-1.267131 0.217493 2.701000 65 45 46
-1.276983 0.223949 2.722000 61 46 40
-1.276983 0.228713 2.722000 57 46 37
-1.276983 0.233478 2.722000 60 45 34
-1.267131 0.236405 2.701000 63 42 35
-1.267131 0.241133 2.701000 59 41 37
-1.276983 0.247773 2.722000 55 43 35
-1.276983 0.252538 2.722000 63 40 34
-1.267131 0.255317 2.701000 71 33 29
-1.276983 0.262067 2.722000 74 37 25
-1.267131 0.264774 2.701000 78 41 26
-1.276983 0.271597 2.722000 70 42 27
-1.276983 0.276362 2.722000 63 44 30
-1.267131 0.278958 2.701000 66 43 34
-1.276983 0.285892 2.722000 68 44 34
-1.267131 0.288414 2.701000 67 44 35
-1.267131 0.293142 2.701000 66 45 37
-1.267131 0.297870 2.701000 66 45 40
-1.267131 0.302599 2.701000 65 44 38
-1.267131 0.307327 2.701000 66 39 37
-1.267131 0.312055 2.701000 67 34 33
-1.267131 0.316783 2.701000 62 42 29
-1.267131 0.321511 2.701000 57 48 31
-1.267131 0.326239 2.701000 59 45 33
-1.267131 0.330967 2.701000 60 44 29
-1.267131 0.335695 2.701000 56 42 26
-1.276983 0.343070 2.722000 51 42 26
-1.276983 0.347835 2.722000 60 43 26
-1.267131 0.349880 2.701000 68 41 32
-1.267131 0.354608 2.701000 59 40 38
-1.267131 0.359336 2.701000 51 40 34
-1.267131 0.364064 2.701000 53 35 31
-1.267131 0.368792 2.701000 56 30 27
-1.267131 0.373520 2.701000 54 36 23
-1.267131 0.378248 2.701000 52 42 25
-1.267131 0.382976 2.701000 50 37 27
-1.276983 0.390719 2.722000 49 36 16
-1.267131 0.392432 2.701000 52 37 5
-1.257279 0.394073 2.680000 55 40 15
-1.267131 0.401889 2.701000 61 36 25
-1.267131 0.406617 2.701000 67 34 28
-1.267131 0.411345 2.701000 62 32 31
-1.276983 0.419308 2.722000 56 32 37
-1.267131 0.420801 2.701000 62 33 44
-1.276983 0.428838 2.722000 68 38 25
-1.276983 0.433602 2.722000 59 34 7
-1.276983 0.438367 2.722000 51 34 15
-1.276983 0.443132 2.722000 53 37 23
-1.276983 0.447897 2.722000 56 37 35
-1.276983 0.452662 2.722000 62 32 48
-1.276983 0.457427 2.722000 68 29 31
-1.276983 0.462192 2.722000 62 33 15
-1.267131 0.463354 2.701000 56 35 19
-1.276983 0.471721 2.722000 56 37 23
-1.276983 0.476486 2.722000 57 36 15
-1.276983 0.481251 2.722000 53 33 7
-1.267131 0.482266 2.701000 49 37 14
-1.267131 0.486995 2.701000 45 36 21
-1.267131 0.491723 2.701000 41 34 23
-1.267131 0.496451 2.701000 45 27 26
-1.276983 0.505075 2.722000 49 23 24
-1.276983 0.509840 2.722000 49 23 22
-1.276983 0.514605 2.722000 50 21 12
-1.276983 0.519370 2.722000 49 22 3
-1.276983 0.524135 2.722000 49 21 11
-1.276983 0.528900 2.722000 52 23 20
-1.276983 0.533665 2.722000 54 24 21
-1.276983 0.538429 2.722000 51 21 22
-1.267131 0.539004 2.701000 48 18 14
-1.267131 0.543732 2.701000 48 21 6
-1.257279 0.544196 2.680000 49 25 13
-1.267131 0.553188 2.701000 46 25 21
-1.267131 0.557916 2.701000 43 23 19
-1.276983 0.567019 2.722000 44 18 17
-1.276983 0.571783 2.722000 46 14 20
-1.276983 0.576548 2.722000 44 13 23
-1.267131 0.576828 2.701000 43 13 25
-1.267131 0.581556 2.701000 37 15 28
-1.267131 0.586285 2.701000 31 13 37
-1.267131 0.591013 2.701000 36 17 46
-1.267131 0.595741 2.701000 42 19 24
-1.267131 0.600469 2.701000 32 18 3
-1.267131 0.605197 2.701000 23 21 8
-1.267131 0.609925 2.701000 34 17 14
-1.267131 0.614653 2.701000 45 14 22
-1.267131 0.619381 2.701000 40 12 30
-1.267131 0.624109 2.701000 35 16 22
-1.267131 0.628838 2.701000 25 16 15
-1.267131 0.633566 2.701000 16 18 18
-1.267131 0.638294 2.701000 22 14 21
-1.267131 0.643022 2.701000 28 12 13
-1.267131 0.647750 2.701000 31 10 5
-1.276983 0.657551 2.722000 35 9 3
-1.276983 0.662316 2.722000 23 8 1
-1.286835 0.672227 2.743000 11 6 2
-1.276983 0.671846 2.722000 11 6 3
-1.286835 0.681830 2.743000 12 5 2
-1.297156 0.692139 2.765000 12 5 1
-1.247427 0.670260 2.659000 12 3 1
-1.247427 0.674914 2.659000 11 4 1
-1.247427 0.679569 2.659000 9 6 1
-0.921379 0.639465 1.964000 124 104 121
-0.921379 0.642903 1.964000 122 105 123
-0.915750 0.642392 1.952000 121 104 125
-0.915750 0.645809 1.952000 123 111 127
-0.915750 0.649226 1.952000 124 112 128
-0.905898 0.645621 1.931000 129 118 129
-0.900737 0.645304 1.920000 133 126 129
-0.890886 0.641571 1.899000 136 125 129
-0.885725 0.641159 1.888000 140 126 144
-0.885725 0.644464 1.888000 144 124 159
-0.881034 0.644338 1.878000 148 121 154
-0.876342 0.644177 1.868000 142 118 150
-0.866960 0.640515 1.848000 137 117 145
-0.862268 0.640266 1.838000 139 127 141
-0.857577 0.639983 1.828000 141 131 147
-0.848663 0.636498 1.809000 144 132 153
-0.844441 0.636482 1.800000 146 134 158
-0.835528 0.632881 1.781000 149 135 164
-0.827083 0.629571 1.763000 152 137 163
-0.822861 0.629427 1.754000 155 141 163
-0.818639 0.629252 1.745000 158 144 165
-0.818639 0.632307 1.745000 154 143 167
-0.814417 0.632085 1.736000 151 134 169
-0.810664 0.632197 1.728000 149 143 171
-0.806441 0.631913 1.719000 147 139 169
-0.806441 0.634922 1.719000 153 148 167
-0.802688 0.634962 1.711000 158 153 169
-0.798466 0.634602 1.702000 160 152 172
-0.794713 0.634584 1.694000 162 152 176
-0.786738 0.631152 1.677000 164 151 181
-0.779232 0.628038 1.661000 166 153 170
-0.779232 0.630945 1.661000 164 155 159
-0.768442 0.625076 1.638000 162 159 167
-0.764688 0.624876 1.630000 168 161 176
-0.764688 0.627729 1.630000 173 163 179
-0.760935 0.627488 1.622000 170 166 183
-0.753898 0.624498 1.607000 168 161 181
-0.743577 0.618723 1.585000 172 160 179
-0.737010 0.616008 1.571000 177 160 180
-0.740294 0.621515 1.578000 175 165 181
-0.729973 0.615574 1.556000 174 167 181
-0.726689 0.615516 1.549000 174 164 181
-0.726689 0.618228 1.549000 175 163 183
-0.723405 0.618133 1.542000 175 166 186
-0.723405 0.620832 1.542000 175 172 186
-0.720590 0.621105 1.536000 176 169 187
-0.717306 0.620952 1.529000 178 171 188
-0.714022 0.620773 1.522000 180 169 190
-0.714022 0.623437 1.522000 182 168 193
-0.704639 0.617874 1.502000 185 169 197
-0.701824 0.618025 1.496000 187 166 195
-0.692911 0.612761 1.477000 183 172 194
-0.689627 0.612430 1.470000 180 170 194
-0.689627 0.615003 1.470000 180 169 195
-1.145557 -0.231686 2.451000 97 35 22
-1.145557 -0.227395 2.451000 103 36 37
-1.153970 -0.224743 2.469000 110 84 66
-1.153970 -0.220421 2.469000 117 134 96
-1.153970 -0.216099 2.469000 125 106 90
-1.153970 -0.211777 2.469000 189 124 84
-1.162383 -0.208968 2.487000 254 178 125
-1.162383 -0.204614 2.487000 244 195 165
-1.170796 -0.201710 2.505000 235 183 154
-1.313348 -0.221351 2.810000 229 197 143
-1.313348 -0.216432 2.810000 224 179 128
-1.313348 -0.211513 2.810000 169 143 113
-1.313348 -0.206594 2.810000 115 93 88
-1.313348 -0.201675 2.810000 83 53 63
-1.313348 -0.196756 2.810000 52 25 32
-1.324565 -0.193476 2.834000 65 29 1
-1.324565 -0.188515 2.834000 78 44 3
-1.170796 -0.026310 2.505000 74 44 4
-1.170796 -0.021925 2.505000 78 46 5
-1.162383 -0.017414 2.487000 83 40 7
-1.162383 -0.013060 2.487000 79 39 8
-1.162383 -0.008707 2.487000 76 39 10
-1.162383 -0.004353 2.487000 79 38 12
-1.162383 -0.000000 2.487000 83 38 14
-1.162383 0.004354 2.487000 82 41 16
-1.162383 0.008707 2.487000 81 39 12
-1.170796 0.013155 2.505000 79 35 9
-1.170796 0.017540 2.505000 78 36 12
-1.170796 0.021925 2.505000 77 40 16
-1.170796 0.026310 2.505000 77 39 14
-1.170796 0.030695 2.505000 76 42 12
-1.162383 0.034828 2.487000 76 39 8
-1.162383 0.039181 2.487000 78 38 5
-1.162383 0.043535 2.487000 81 31 7
-1.162383 0.047888 2.487000 83 24 9
-1.170796 0.052620 2.505000 86 20 12
-1.170796 0.057005 2.505000 84 22 15
-1.179209 0.061831 2.523000 83 27 11
-1.179209 0.066248 2.523000 83 30 7
-1.179209 0.070664 2.523000 83 29 9
-1.188089 0.075646 2.542000 80 29 12
-1.188089 0.080096 2.542000 77 30 9
-1.188089 0.084546 2.542000 76 30 7
-1.188089 0.088995 2.542000 76 28 4
-1.188089 0.093445 2.542000 73 30 1
-1.188089 0.097895 2.542000 70 29 8
-1.188089 0.102345 2.542000 73 31 15
-1.188089 0.106795 2.542000 77 30 11
-1.188089 0.111244 2.542000 75 30 7
-1.188089 0.115694 2.542000 74 35 8
-1.188089 0.120144 2.542000 71 41 9
-1.179209 0.123662 2.523000 69 44 25
-1.170796 0.127165 2.505000 67 49 41
-1.170796 0.131550 2.505000 65 49 42
-1.170796 0.135935 2.505000 62 47 42
-1.179209 0.141328 2.523000 60 46 42
-1.214730 0.150135 2.599000 60 46 42
-1.252588 0.159506 2.680000 60 41 41
-1.262403 0.165484 2.701000 66 36 39
-1.262403 0.170212 2.701000 72 39 48
-1.262403 0.174940 2.701000 72 39 57
-1.262403 0.179668 2.701000 72 40 51
-1.262403 0.184396 2.701000 68 42 44
-1.262403 0.189124 2.701000 65 44 37
-1.262403 0.193852 2.701000 67 44 30
-1.262403 0.198580 2.701000 70 41 31
-1.262403 0.203308 2.701000 67 42 33
-1.262403 0.208037 2.701000 64 44 40
-1.272218 0.214419 2.722000 64 46 46
-1.272218 0.219184 2.722000 65 46 42
-1.272218 0.223949 2.722000 62 49 38
-1.282033 0.230478 2.743000 59 48 33
-1.282033 0.235280 2.743000 61 47 27
-1.282033 0.240081 2.743000 63 43 33
-1.272218 0.243008 2.722000 54 38 39
-1.272218 0.247773 2.722000 45 41 38
-1.272218 0.252538 2.722000 56 45 37
-1.272218 0.257303 2.722000 67 39 33
-1.272218 0.262067 2.722000 73 34 28
-1.272218 0.266832 2.722000 80 38 29
-1.272218 0.271597 2.722000 74 41 30
-1.272218 0.276362 2.722000 69 42 35
-1.272218 0.281127 2.722000 69 42 40
-1.272218 0.285892 2.722000 69 43 35
-1.272218 0.290657 2.722000 66 45 31
-1.272218 0.295422 2.722000 64 45 32
-1.272218 0.300186 2.722000 59 44 33
-1.262403 0.302599 2.701000 55 42 32
-1.262403 0.307327 2.701000 61 38 31
-1.262403 0.312055 2.701000 67 36 30
-1.262403 0.316783 2.701000 63 39 29
-1.272218 0.324011 2.722000 60 44 31
-1.272218 0.328775 2.722000 59 46 33
-1.272218 0.333540 2.722000 58 43 33
-1.272218 0.338305 2.722000 51 41 33
-1.272218 0.343070 2.722000 45 42 28
-1.272218 0.347835 2.722000 62 46 23
-1.272218 0.352600 2.722000 79 41 29
-1.272218 0.357365 2.722000 67 40 36
-1.272218 0.362130 2.722000 55 39 34
-1.272218 0.366894 2.722000 54 36 33
-1.262403 0.368792 2.701000 54 33 30
-1.272218 0.376424 2.722000 54 38 26
-1.272218 0.381189 2.722000 54 40 28
-1.272218 0.385954 2.722000 52 41 30
-1.272218 0.390719 2.722000 51 38 23
-1.272218 0.395484 2.722000 53 33 17
-1.262403 0.397161 2.701000 55 36 22
-1.272218 0.405013 2.722000 66 36 27
-1.272218 0.409778 2.722000 77 34 29
-1.272218 0.414543 2.722000 68 31 32
-1.282033 0.422543 2.743000 59 30 34
-1.292315 0.430772 2.765000 66 27 36
-1.282033 0.432146 2.743000 74 33 27
-1.292315 0.440452 2.765000 57 28 17
-1.282033 0.441749 2.743000 40 33 21
-1.282033 0.446551 2.743000 47 37 25
-1.282033 0.451353 2.743000 54 34 31
-1.272218 0.452662 2.722000 65 34 36
-1.282033 0.460956 2.743000 77 31 25
-1.272218 0.462192 2.722000 66 35 15
-1.272218 0.466957 2.722000 56 38 23
-1.272218 0.471721 2.722000 52 39 31
-1.272218 0.476486 2.722000 49 35 23
-1.272218 0.481251 2.722000 46 30 15
-1.272218 0.486016 2.722000 44 33 18
-1.272218 0.490781 2.722000 35 38 20
-1.272218 0.495546 2.722000 27 32 24
-1.262403 0.496451 2.701000 37 25 27
-1.272218 0.505075 2.722000 47 22 26
-1.272218 0.509840 2.722000 47 21 26
-1.272218 0.514605 2.722000 47 21 19
-1.272218 0.519370 2.722000 48 21 12
-1.272218 0.524135 2.722000 49 21 16
-1.272218 0.528900 2.722000 54 22 19
-1.272218 0.533665 2.722000 59 22 18
-1.272218 0.538429 2.722000 52 19 18
-1.272218 0.543194 2.722000 46 19 14
-1.272218 0.547959 2.722000 46 23 10
-1.262403 0.548460 2.701000 46 25 15
-1.272218 0.557489 2.722000 44 27 20
-1.272218 0.562254 2.722000 42 21 18
-1.272218 0.567019 2.722000 44 17 17
-1.272218 0.571783 2.722000 46 16 18
-1.272218 0.576548 2.722000 44 14 20
-1.272218 0.581313 2.722000 42 13 19
-1.272218 0.586078 2.722000 31 17 19
-1.272218 0.590843 2.722000 21 17 25
-1.272218 0.595608 2.722000 29 17 32
-1.272218 0.600373 2.722000 37 19 19
-1.262403 0.600469 2.701000 35 18 6
-1.262403 0.605197 2.701000 33 19 9
-1.272218 0.614667 2.722000 37 21 11
-1.262403 0.614653 2.701000 41 15 13
-1.272218 0.624197 2.722000 35 12 15
-1.272218 0.628962 2.722000 30 14 12
-1.262403 0.628838 2.701000 18 19 9
-1.262403 0.633566 2.701000 7 15 11
-1.262403 0.638294 2.701000 16 7 13
-1.272218 0.648021 2.722000 25 10 8
-1.272218 0.652786 2.722000 23 12 3
-1.272218 0.657551 2.722000 22 11 3
-1.272218 0.662316 2.722000 13 12 2
-1.272218 0.667081 2.722000 5 11 2
-1.272218 0.671846 2.722000 8 9 3
-1.282033 0.681830 2.743000 12 6 2
-1.282033 0.686632 2.743000 13 4 1
-1.292315 0.696979 2.765000 14 3 1
-1.272218 0.690905 2.722000 15 4 1
-1.272218 0.695670 2.722000 16 5 1
-0.917941 0.639465 1.964000 121 107 123
-0.917941 0.642903 1.964000 120 109 124
-0.912333 0.642392 1.952000 119 112 126
-0.912333 0.645809 1.952000 121 119 129
-0.912333 0.649226 1.952000 124 119 130
-0.902518 0.645621 1.931000 129 127 132
-0.892235 0.641607 1.909000 135 125 133
-0.887561 0.641571 1.899000 139 125 134
-0.882420 0.641159 1.888000 144 124 144
-0.882420 0.644464 1.888000 151 124 154
-0.877746 0.644338 1.878000 159 122 151
-0.873072 0.644177 1.868000 150 117 148
-0.868399 0.643981 1.858000 142 118 145
-0.859051 0.640266 1.838000 141 125 143
-0.850171 0.636832 1.819000 141 130 148
-0.845497 0.636498 1.809000 145 130 154
-0.841290 0.636482 1.800000 149 134 159
-0.832410 0.632881 1.781000 153 137 165
-0.828204 0.632785 1.772000 158 138 165
-0.819791 0.629427 1.754000 164 140 165
-0.815584 0.629252 1.745000 170 143 167
-0.811378 0.629046 1.736000 161 144 170
-0.807639 0.629172 1.728000 153 142 175
-0.803432 0.628904 1.719000 147 146 180
-0.803432 0.631913 1.719000 142 146 174
-0.803432 0.634922 1.719000 150 153 169
-0.799693 0.634962 1.711000 158 153 170
-0.795487 0.634602 1.702000 160 154 171
-0.791748 0.634584 1.694000 162 153 174
-0.783802 0.631152 1.677000 165 151 177
