ply
format ascii 1.0
element vertex 1235
property float x
property float y
property float z
property uchar red
property uchar green
property uchar blue
end_header
0.653847 0.690397 2.320000 147 118 122
0.649337 0.689669 2.304000 146 116 123
0.645110 0.689186 2.289000 146 118 123
0.636655 0.684108 2.259000 147 119 123
0.632428 0.683493 2.244000 149 120 124
0.628482 0.683133 2.230000 149 116 124
0.620309 0.678102 2.201000 150 119 126
0.616363 0.677617 2.187000 149 122 127
0.612699 0.677395 2.174000 149 126 129
0.608754 0.676813 2.160000 150 130 132
0.601144 0.672087 2.133000 152 127 131
0.593817 0.667583 2.107000 156 126 130
0.590435 0.667448 2.095000 160 125 136
0.586771 0.666951 2.082000 156 125 142
0.586771 0.670596 2.082000 153 129 141
0.583107 0.670030 2.069000 153 139 141
0.579725 0.669745 2.057000 153 131 143
0.576343 0.669418 2.045000 153 127 146
0.569579 0.665099 2.021000 153 129 142
0.563097 0.661027 1.998000 154 131 138
0.559715 0.660534 1.986000 156 131 137
0.556615 0.660333 1.975000 164 128 137
0.553515 0.660093 1.964000 173 132 138
0.550133 0.659477 1.952000 163 133 139
0.547033 0.659158 1.941000 154 132 142
0.544215 0.659142 1.931000 142 135 146
0.541115 0.658748 1.920000 130 135 143
0.538014 0.658316 1.909000 141 135 141
0.535196 0.658192 1.899000 152 133 142
0.529278 0.654201 1.878000 146 128 144
0.526459 0.653987 1.868000 141 128 143
0.520823 0.650220 1.848000 147 126 143
0.515186 0.646383 1.828000 154 129 148
0.512650 0.646384 1.819000 155 133 153
0.512650 0.649569 1.819000 156 138 149
0.509831 0.649164 1.809000 158 139 145
0.507295 0.649086 1.800000 160 137 146
0.504477 0.648613 1.790000 159 135 147
0.501940 0.648469 1.781000 159 139 146
0.499404 0.648294 1.772000 159 150 145
0.494331 0.644779 1.754000 160 142 151
0.491794 0.644525 1.745000 163 154 157
0.489258 0.644240 1.736000 166 141 159
0.484467 0.640940 1.719000 165 137 161
0.482212 0.640953 1.711000 165 137 156
0.479676 0.640561 1.702000 160 134 151
0.479676 0.643540 1.702000 156 139 149
0.477421 0.643480 1.694000 148 140 147
0.477421 0.646446 1.694000 141 132 146
0.472630 0.642894 1.677000 149 139 145
0.465866 0.636587 1.653000 158 141 148
0.463611 0.636386 1.645000 161 140 151
0.461638 0.636545 1.638000 164 141 153
0.459384 0.636289 1.630000 164 142 155
0.457129 0.636006 1.622000 164 142 159
0.455156 0.636088 1.615000 164 145 163
0.452902 0.635750 1.607000 165 143 161
0.448674 0.632603 1.592000 165 140 160
0.446701 0.632596 1.585000 165 137 162
0.444729 0.632564 1.578000 165 125 164
0.442756 0.632508 1.571000 166 132 160
0.440501 0.632023 1.563000 168 140 156
0.438528 0.631917 1.556000 170 142 154
0.436555 0.631785 1.549000 167 145 152
0.434583 0.631630 1.542000 165 148 156
0.430919 0.628981 1.529000 165 153 160
0.426973 0.625874 1.515000 165 143 157
0.425282 0.626037 1.509000 167 140 155
0.423309 0.625762 1.502000 169 144 150
0.419646 0.622952 1.489000 169 149 146
1.089518 0.807051 3.842000 104 77 59
1.077608 0.804880 3.800000 104 79 60
1.054354 0.794020 3.718000 104 83 68
1.043295 0.792131 3.679000 112 78 76
1.032235 0.790106 3.640000 121 76 73
1.021459 0.788163 3.602000 118 76 71
0.990549 0.770427 3.493000 116 78 73
0.990549 0.776541 3.493000 113 81 76
0.990549 0.782656 3.493000 111 82 77
0.990549 0.788770 3.493000 117 83 78
0.891295 0.748248 3.143000 125 89 84
0.891295 0.753750 3.143000 126 92 84
0.883355 0.752488 3.115000 128 96 86
0.883355 0.757940 3.115000 125 95 88
0.875415 0.756531 3.087000 123 94 86
0.867474 0.755024 3.059000 125 95 85
0.860101 0.753916 3.033000 127 98 90
0.852445 0.752467 3.006000 131 99 96
0.823803 0.732269 2.905000 136 99 100
0.810191 0.725171 2.857000 131 100 104
0.810191 0.730172 2.857000 126 99 107
0.803669 0.729255 2.834000 129 101 111
0.796863 0.727998 2.810000 133 98 107
0.790624 0.727179 2.788000 139 102 104
0.790624 0.732059 2.788000 145 105 111
0.777863 0.725045 2.743000 143 104 118
0.771908 0.724259 2.722000 141 102 112
0.759997 0.717775 2.680000 139 100 107
0.754042 0.716805 2.659000 137 103 107
0.748370 0.716033 2.639000 136 106 107
0.742699 0.715191 2.619000 136 106 107
0.737027 0.714279 2.599000 136 109 108
0.731639 0.713574 2.580000 135 110 111
0.725968 0.712524 2.560000 136 112 115
0.715475 0.706642 2.523000 137 112 111
0.710370 0.705986 2.505000 140 111 107
0.705266 0.705266 2.487000 143 112 100
0.705266 0.709620 2.487000 147 112 94
0.695057 0.703638 2.451000 152 114 105
0.690236 0.703018 2.434000 148 113 116
0.685415 0.702339 2.417000 145 113 122
0.676057 0.696923 2.384000 146 115 128
0.671236 0.696097 2.367000 147 117 125
0.666699 0.695507 2.351000 146 118 123
0.662162 0.694861 2.335000 146 120 123
0.653371 0.689669 2.304000 145 120 124
0.649117 0.689186 2.289000 143 122 123
0.640610 0.684108 2.259000 148 122 122
0.636356 0.683493 2.244000 152 122 122
0.628132 0.678538 2.215000 152 119 122
0.624162 0.678102 2.201000 152 120 123
0.620192 0.677617 2.187000 152 123 124
0.616505 0.677395 2.174000 153 126 128
0.612535 0.676813 2.160000 152 127 133
0.604878 0.672087 2.133000 152 127 134
0.601192 0.671702 2.120000 155 127 135
0.597505 0.671271 2.107000 158 130 137
0.594102 0.671116 2.095000 157 127 140
0.590416 0.670596 2.082000 155 126 139
0.586729 0.670030 2.069000 156 131 138
0.583326 0.669745 2.057000 157 133 139
0.579923 0.669418 2.045000 153 130 140
0.573117 0.665099 2.021000 149 131 138
0.566595 0.661027 1.998000 151 132 136
0.563192 0.660534 1.986000 153 135 136
0.560073 0.660333 1.975000 159 130 137
0.556953 0.660093 1.964000 166 129 136
0.553550 0.659477 1.952000 160 133 136
0.550431 0.659158 1.941000 155 127 139
0.547595 0.659142 1.931000 148 132 142
0.544476 0.658748 1.920000 141 135 141
0.541356 0.658316 1.909000 151 135 141
0.538520 0.658192 1.899000 161 135 142
0.532565 0.654201 1.878000 154 134 143
0.529729 0.653987 1.868000 148 134 141
0.524058 0.650220 1.848000 151 131 140
0.518386 0.646383 1.828000 154 132 143
0.515834 0.646384 1.819000 156 134 146
0.515834 0.649569 1.819000 158 137 144
0.512998 0.649164 1.809000 159 137 142
0.510446 0.649086 1.800000 161 138 144
0.507610 0.648613 1.790000 160 137 146
0.505058 0.648469 1.781000 159 136 144
0.502506 0.648294 1.772000 160 137 143
0.497401 0.644779 1.754000 162 131 149
0.494849 0.644525 1.745000 162 142 156
0.492297 0.644240 1.736000 163 141 161
0.487476 0.640940 1.719000 164 139 167
0.485207 0.640953 1.711000 165 141 159
0.482655 0.640561 1.702000 161 139 151
0.480386 0.640515 1.694000 157 142 149
0.480386 0.643480 1.694000 153 138 147
0.478118 0.643393 1.686000 149 126 148
0.473297 0.639827 1.669000 155 137 149
0.471028 0.639668 1.661000 161 141 150
0.468759 0.639481 1.653000 162 140 151
0.464506 0.636545 1.638000 163 143 153
0.462237 0.636289 1.630000 164 143 155
0.459968 0.636006 1.622000 165 142 162
0.457983 0.636088 1.615000 168 143 169
0.455715 0.635750 1.607000 171 145 165
0.451461 0.632603 1.592000 169 141 162
0.447491 0.629802 1.578000 168 141 165
0.445506 0.629758 1.571000 166 133 169
0.443237 0.629287 1.563000 164 124 164
0.441252 0.629193 1.556000 165 137 159
0.441252 0.631917 1.556000 167 144 157
0.439267 0.631785 1.549000 165 145 156
0.437282 0.631630 1.542000 163 150 156
0.435580 0.631861 1.536000 163 146 157
0.431610 0.628766 1.522000 163 143 157
0.427924 0.626037 1.509000 164 138 157
0.425939 0.625762 1.502000 165 136 156
0.424237 0.625881 1.496000 165 140 155
1.096244 0.807051 3.842000 103 78 57
1.084260 0.804880 3.800000 106 79 57
1.072561 0.802776 3.759000 110 79 63
1.038607 0.783734 3.640000 119 78 70
1.027764 0.781858 3.602000 129 76 69
1.017207 0.780067 3.565000 123 71 69
1.017207 0.786307 3.565000 118 76 73
1.006649 0.784322 3.528000 115 80 77
0.996663 0.782656 3.493000 113 82 80
0.896797 0.748248 3.143000 125 89 84
0.888808 0.747035 3.115000 125 95 84
0.888808 0.752488 3.115000 126 96 87
0.880818 0.751127 3.087000 123 98 90
0.872829 0.749669 3.059000 121 95 89
0.865411 0.748607 3.033000 124 93 89
0.857707 0.747204 3.006000 128 95 93
0.850288 0.745958 2.980000 134 97 97
0.828888 0.732269 2.905000 141 99 100
0.822040 0.731263 2.881000 135 100 102
0.815192 0.730172 2.857000 129 101 104
0.815192 0.735173 2.857000 132 101 106
0.801782 0.727998 2.810000 135 99 104
0.795504 0.727179 2.788000 144 100 102
0.795504 0.732059 2.788000 154 102 106
0.782664 0.725045 2.743000 147 107 110
0.776672 0.724259 2.722000 141 103 107
0.770680 0.723400 2.701000 140 99 105
0.758696 0.716805 2.659000 139 103 105
0.752990 0.716033 2.639000 140 108 105
0.747283 0.715191 2.619000 142 107 108
0.741577 0.714279 2.599000 139 108 110
0.736155 0.713574 2.580000 137 109 112
0.736155 0.718090 2.580000 137 111 114
0.725313 0.711963 2.542000 138 111 112
0.719891 0.711058 2.523000 140 109 110
0.714755 0.710371 2.505000 142 110 106
0.709619 0.709620 2.487000 143 110 103
0.704484 0.708806 2.469000 145 113 110
0.699348 0.707929 2.451000 145 116 117
0.689646 0.702339 2.417000 146 115 120
0.680230 0.696923 2.384000 147 116 124
0.675380 0.696097 2.367000 149 119 123
0.670814 0.695507 2.351000 147 122 122
0.661969 0.690397 2.320000 146 120 124
0.657404 0.689669 2.304000 143 123 127
0.653124 0.689186 2.289000 141 123 121
0.640284 0.679565 2.244000 148 125 116
0.636289 0.679229 2.230000 156 121 119
0.632009 0.678538 2.215000 155 119 123
0.624020 0.673789 2.187000 154 120 121
0.620311 0.673589 2.174000 155 124 120
0.620311 0.677395 2.174000 157 125 125
0.616316 0.676813 2.160000 155 126 131
0.608612 0.672087 2.133000 153 126 132
0.604903 0.671702 2.120000 155 128 133
0.601193 0.671271 2.107000 157 128 136
0.597769 0.671116 2.095000 157 127 140
0.594060 0.670596 2.082000 158 126 139
0.590351 0.670030 2.069000 159 126 138
0.586927 0.669745 2.057000 161 129 138
0.583503 0.669418 2.045000 153 130 139
0.576655 0.665099 2.021000 145 131 137
0.570092 0.661027 1.998000 148 132 135
0.566668 0.660534 1.986000 151 132 135
0.563530 0.660333 1.975000 155 131 136
0.560391 0.660093 1.964000 159 133 134
0.556967 0.659477 1.952000 157 145 132
0.553828 0.659158 1.941000 156 136 139
0.553828 0.662556 1.941000 154 132 146
0.547836 0.658748 1.920000 153 134 144
0.544698 0.658316 1.909000 161 136 143
0.541844 0.658192 1.899000 170 137 144
0.535853 0.654201 1.878000 162 141 146
0.532999 0.653987 1.868000 155 134 141
0.524439 0.646701 1.838000 155 134 136
0.521586 0.646383 1.828000 155 134 143
0.519018 0.646384 1.819000 157 136 150
0.516165 0.645998 1.809000 160 136 147
0.516165 0.649164 1.809000 161 135 144
0.513597 0.649086 1.800000 162 138 145
0.510743 0.648613 1.790000 161 139 147
0.508175 0.648469 1.781000 160 135 146
0.505607 0.648294 1.772000 162 131 146
0.500471 0.644779 1.754000 164 133 150
0.497903 0.644525 1.745000 162 143 153
0.497903 0.647580 1.745000 161 141 157
0.493053 0.644296 1.728000 163 140 160
0.490485 0.643950 1.719000 166 141 155
0.488202 0.643948 1.711000 162 141 149
0.483352 0.640515 1.694000 159 137 145
0.481069 0.640442 1.686000 158 146 141
0.478501 0.639958 1.677000 158 140 147
0.476218 0.639827 1.669000 161 144 153
0.471653 0.636587 1.653000 164 139 151
0.469370 0.636386 1.645000 163 137 150
0.467373 0.636545 1.638000 163 140 149
0.465090 0.636289 1.630000 164 146 147
0.462808 0.636006 1.622000 166 142 154
0.460810 0.636088 1.615000 172 141 162
0.458528 0.635750 1.607000 178 141 160
0.456530 0.635782 1.600000 174 141 158
0.450253 0.629802 1.578000 171 141 160
0.448256 0.629758 1.571000 167 142 162
0.445973 0.629287 1.563000 163 138 158
0.443976 0.629193 1.556000 163 143 155
0.443976 0.631917 1.556000 164 143 152
0.441979 0.631785 1.549000 163 144 150
0.439981 0.631630 1.542000 162 145 155
0.438269 0.631861 1.536000 162 141 160
0.434275 0.628766 1.522000 162 140 158
0.430565 0.626037 1.509000 161 136 156
0.430565 0.628678 1.509000 161 136 153
0.428568 0.628391 1.502000 161 142 150
1.056175 0.792131 3.679000 116 77 64
1.034069 0.781858 3.602000 122 79 65
1.023447 0.780067 3.565000 119 74 67
1.023447 0.786307 3.565000 115 75 73
1.012825 0.784322 3.528000 110 78 79
1.012825 0.790498 3.528000 105 84 84
0.902299 0.753750 3.143000 123 91 85
0.894260 0.752488 3.115000 124 95 88
0.886222 0.751127 3.087000 121 97 92
0.870720 0.743297 3.033000 118 98 92
0.862969 0.741943 3.006000 122 95 93
0.855504 0.740742 2.980000 126 95 96
0.855504 0.745958 2.980000 131 96 99
0.848327 0.744873 2.955000 136 100 100
0.833973 0.737355 2.905000 130 102 101
0.827083 0.736306 2.881000 124 106 101
0.820193 0.735173 2.857000 127 103 102
0.800385 0.722299 2.788000 131 100 101
0.800385 0.727179 2.788000 133 101 100
0.793782 0.726020 2.765000 136 99 101
0.787466 0.725045 2.743000 137 103 102
0.781437 0.724259 2.722000 138 104 103
0.769380 0.717775 2.680000 137 103 104
0.763351 0.716805 2.659000 135 105 104
0.757609 0.716033 2.639000 137 106 104
0.751868 0.715191 2.619000 139 107 108
0.746126 0.714279 2.599000 136 107 113
0.746126 0.718829 2.599000 134 109 113
0.740672 0.718090 2.580000 135 111 113
0.729762 0.711963 2.542000 137 112 113
0.724308 0.711058 2.523000 137 110 113
0.719140 0.710371 2.505000 137 109 112
0.713973 0.709620 2.487000 140 110 112
0.708806 0.708806 2.469000 143 113 115
0.703638 0.707929 2.451000 144 114 118
0.693877 0.702339 2.417000 146 115 119
0.684403 0.696923 2.384000 149 117 120
0.679523 0.696097 2.367000 153 122 120
0.674930 0.695507 2.351000 150 119 121
0.666030 0.690397 2.320000 147 118 125
0.661437 0.689669 2.304000 144 121 130
0.657131 0.689186 2.289000 142 124 120
0.644212 0.679565 2.244000 147 122 110
0.640193 0.679229 2.230000 152 120 117
0.635887 0.678538 2.215000 151 124 124
0.631868 0.678102 2.201000 150 119 120
0.627848 0.677617 2.187000 152 122 116
0.624116 0.677395 2.174000 154 124 122
0.620097 0.676813 2.160000 152 124 129
0.612346 0.672087 2.133000 150 125 130
0.608614 0.671702 2.120000 154 127 131
0.604882 0.671271 2.107000 158 129 135
0.601437 0.671116 2.095000 158 126 140
0.597705 0.670596 2.082000 158 125 139
0.593973 0.670030 2.069000 158 126 138
0.590528 0.669745 2.057000 158 127 138
0.583638 0.665489 2.033000 153 129 139
0.580193 0.665099 2.021000 148 132 137
0.573590 0.661027 1.998000 150 132 135
0.570145 0.660534 1.986000 153 132 135
0.566987 0.660333 1.975000 157 130 135
0.563829 0.660093 1.964000 162 128 132
0.560384 0.659477 1.952000 159 139 129
0.560384 0.662893 1.952000 156 143 140
0.557226 0.662556 1.941000 155 136 151
0.554355 0.662522 1.931000 153 135 148
0.551197 0.662109 1.920000 158 136 145
0.548040 0.661658 1.909000 164 137 147
0.542011 0.657684 1.888000 158 133 150
0.536269 0.653987 1.868000 152 128 141
0.527657 0.646701 1.838000 154 132 133
0.522202 0.643200 1.819000 155 136 143
0.522202 0.646384 1.819000 157 136 154
0.522202 0.649569 1.819000 159 136 150
0.519331 0.649164 1.809000 156 137 146
0.516748 0.649086 1.800000 153 140 147
0.513877 0.648613 1.790000 156 138 148
0.511293 0.648469 1.781000 160 137 149
0.508709 0.648294 1.772000 164 132 150
0.503542 0.644779 1.754000 168 130 150
0.500958 0.644525 1.745000 160 137 151
0.500958 0.647580 1.745000 153 141 152
0.496078 0.644296 1.728000 157 141 154
0.493494 0.643950 1.719000 162 145 151
0.491197 0.643948 1.711000 158 138 148
0.486317 0.640515 1.694000 155 120 142
0.484020 0.640442 1.686000 159 137 136
0.481437 0.639958 1.677000 163 144 146
0.476843 0.636760 1.661000 163 140 157
0.474547 0.636587 1.653000 163 136 153
0.472250 0.636386 1.645000 160 135 150
0.470240 0.636545 1.638000 158 134 145
0.467944 0.636289 1.630000 161 139 140
0.465647 0.636006 1.622000 164 139 147
0.463637 0.636088 1.615000 168 140 155
0.461341 0.635750 1.607000 172 140 154
0.459331 0.635782 1.600000 170 140 154
0.453015 0.629802 1.578000 168 140 154
0.451006 0.629758 1.571000 165 141 155
0.448709 0.629287 1.563000 162 143 153
0.446700 0.629193 1.556000 165 142 152
0.446700 0.631917 1.556000 168 143 148
0.444690 0.631785 1.549000 163 145 144
0.442680 0.631630 1.542000 159 148 153
0.440958 0.631861 1.536000 160 145 163
0.436939 0.628766 1.522000 162 141 159
0.433207 0.626037 1.509000 163 136 155
0.431197 0.625762 1.502000 164 132 150
0.431197 0.628391 1.502000 164 136 146
1.062615 0.792131 3.679000 113 77 64
1.040375 0.781858 3.602000 116 75 66
1.040375 0.788163 3.602000 114 74 67
1.029688 0.786307 3.565000 113 75 72
1.019001 0.784322 3.528000 105 76 77
1.008892 0.782656 3.493000 98 81 80
0.899713 0.752488 3.115000 122 93 89
0.883539 0.744315 3.059000 118 98 91
0.876029 0.743297 3.033000 115 97 92
0.868231 0.741943 3.006000 120 96 92
0.860721 0.740742 2.980000 125 95 94
0.860721 0.745958 2.980000 128 93 95
0.853500 0.744873 2.955000 131 98 97
0.853500 0.750046 2.955000 125 104 98
0.846279 0.748829 2.930000 119 105 98
0.839058 0.747525 2.905000 123 105 99
0.811619 0.727998 2.810000 127 104 98
0.805265 0.727179 2.788000 122 106 97
0.798622 0.726020 2.765000 118 103 98
0.792268 0.725045 2.743000 127 103 100
0.786202 0.724259 2.722000 136 104 101
0.774071 0.717775 2.680000 134 107 102
0.768006 0.716805 2.659000 132 106 103
0.768006 0.721460 2.659000 134 105 103
0.756452 0.715191 2.619000 137 106 107
0.756452 0.719776 2.619000 134 104 112
0.750676 0.718829 2.599000 131 108 115
0.745188 0.718090 2.580000 134 112 119
0.734212 0.711963 2.542000 137 112 117
0.728724 0.711058 2.523000 135 113 115
0.723526 0.710371 2.505000 133 110 112
0.718327 0.709620 2.487000 137 109 109
0.713128 0.708806 2.469000 141 111 113
0.707929 0.707929 2.451000 143 113 117
0.698108 0.702339 2.417000 146 115 117
0.688577 0.696923 2.384000 151 118 117
0.683667 0.696097 2.367000 157 119 118
0.679045 0.695507 2.351000 152 117 119
0.670092 0.690397 2.320000 148 117 122
0.665470 0.689669 2.304000 146 120 126
0.661138 0.689186 2.289000 144 121 121
0.648140 0.679565 2.244000 146 119 117
0.644096 0.679229 2.230000 148 124 122
0.644096 0.683133 2.230000 147 138 128
0.639764 0.682415 2.215000 147 125 124
0.631677 0.677617 2.187000 149 121 120
0.627922 0.677395 2.174000 151 121 124
0.623878 0.676813 2.160000 149 124 128
0.616080 0.672087 2.133000 147 126 126
0.612325 0.671702 2.120000 153 129 124
0.608570 0.671271 2.107000 159 128 136
0.605104 0.671116 2.095000 158 126 148
0.601349 0.670596 2.082000 158 126 140
0.597594 0.670030 2.069000 156 129 132
0.590662 0.665838 2.045000 155 128 135
0.587196 0.665489 2.033000 153 128 137
0.583731 0.665099 2.021000 152 130 135
0.577087 0.661027 1.998000 153 132 134
0.573621 0.660534 1.986000 155 131 135
0.570444 0.660333 1.975000 160 129 136
0.567267 0.660093 1.964000 165 133 135
0.567267 0.663531 1.964000 161 141 135
0.563801 0.662893 1.952000 157 136 142
0.560624 0.662556 1.941000 155 134 150
0.557736 0.662522 1.931000 154 134 146
0.554558 0.662109 1.920000 156 137 143
0.551381 0.661658 1.909000 158 134 144
0.542428 0.654201 1.878000 154 126 145
0.539539 0.653987 1.868000 150 127 141
0.530874 0.646701 1.838000 153 133 136
0.525386 0.643200 1.819000 156 135 143
0.525386 0.646384 1.819000 157 137 149
0.525386 0.649569 1.819000 158 137 147
0.522498 0.649164 1.809000 151 138 146
0.519899 0.649086 1.800000 144 139 147
0.517010 0.648613 1.790000 152 139 148
0.514411 0.648469 1.781000 161 136 151
0.509212 0.645002 1.763000 167 133 155
0.506612 0.644779 1.754000 173 132 152
0.504013 0.644525 1.745000 159 134 150
0.504013 0.647580 1.745000 145 138 151
0.499103 0.644296 1.728000 152 141 152
0.496503 0.643950 1.719000 159 144 151
0.491593 0.640561 1.702000 155 146 149
0.489282 0.640515 1.694000 151 134 144
0.486972 0.640442 1.686000 160 139 139
0.484372 0.639958 1.677000 169 139 146
0.479751 0.636760 1.661000 166 137 153
0.477440 0.636587 1.653000 163 136 152
0.475130 0.636386 1.645000 158 135 152
0.473108 0.636545 1.638000 153 136 149
0.468486 0.633166 1.622000 157 138 146
0.468486 0.636006 1.622000 162 139 150
0.466465 0.636088 1.615000 164 141 153
0.464154 0.635750 1.607000 166 141 152
0.462132 0.635782 1.600000 165 142 151
0.455778 0.629802 1.578000 165 141 152
0.453756 0.629758 1.571000 163 141 154
0.449423 0.626469 1.556000 162 143 153
0.449423 0.629193 1.556000 167 141 152
0.447402 0.629074 1.549000 173 141 150
0.447402 0.631785 1.549000 164 147 149
0.445380 0.631630 1.542000 156 148 154
0.441625 0.628981 1.529000 159 153 160
0.439603 0.628766 1.522000 162 141 157
0.437581 0.628526 1.515000 165 138 154
0.433826 0.625762 1.502000 168 139 152
0.433826 0.628391 1.502000 168 141 150
1.069055 0.792131 3.679000 113 75 65
1.057722 0.790106 3.640000 116 73 66
1.046680 0.788163 3.602000 114 75 68
0.888893 0.744315 3.059000 125 95 91
0.873492 0.736681 3.006000 125 99 91
0.865937 0.735525 2.980000 126 97 92
0.865937 0.740742 2.980000 128 96 92
0.858673 0.739700 2.955000 132 95 92
0.858673 0.744873 2.955000 137 97 94
0.858673 0.750046 2.955000 130 102 96
0.851408 0.748829 2.930000 123 106 96
0.844144 0.747525 2.905000 127 107 96
0.816538 0.727998 2.810000 130 107 95
0.810145 0.727179 2.788000 128 106 95
0.803462 0.726020 2.765000 125 107 96
0.797069 0.725045 2.743000 130 105 98
0.790967 0.724259 2.722000 136 105 99
0.784865 0.723400 2.701000 134 105 101
0.778762 0.722467 2.680000 133 107 102
0.772660 0.721460 2.659000 134 107 103
0.761037 0.715191 2.619000 135 108 107
0.755225 0.714279 2.599000 132 109 111
0.755225 0.718829 2.599000 129 110 118
0.749704 0.718090 2.580000 134 110 126
0.738662 0.711963 2.542000 140 111 121
0.733141 0.711058 2.523000 143 111 117
0.727910 0.710371 2.505000 146 110 112
0.722680 0.709620 2.487000 144 110 107
0.717449 0.708806 2.469000 142 110 112
0.712219 0.707929 2.451000 143 112 117
0.702339 0.702339 2.417000 144 116 116
0.692750 0.696923 2.384000 144 118 115
0.683161 0.691392 2.351000 144 121 116
0.678511 0.690774 2.335000 145 117 118
0.669503 0.685636 2.304000 146 115 120
0.669503 0.689669 2.304000 145 118 122
0.660786 0.684670 2.274000 144 121 123
0.652068 0.679565 2.244000 144 121 124
0.648000 0.679229 2.230000 144 121 128
0.648000 0.683133 2.230000 142 126 133
0.639573 0.678102 2.201000 141 124 128
0.635505 0.677617 2.187000 148 120 124
0.631727 0.677395 2.174000 154 115 125
0.627659 0.676813 2.160000 152 123 127
0.623882 0.676498 2.147000 149 128 122
0.616036 0.671702 2.120000 153 128 118
0.612258 0.671271 2.107000 158 130 137
0.608771 0.671116 2.095000 160 128 156
0.604994 0.670596 2.082000 162 126 141
0.601216 0.670030 2.069000 159 128 127
0.594242 0.665838 2.045000 156 131 131
0.590755 0.665489 2.033000 154 132 136
0.583781 0.661150 2.009000 153 131 134
0.580585 0.661027 1.998000 154 131 133
0.577098 0.660534 1.986000 155 132 135
0.573901 0.660333 1.975000 158 131 137
0.570705 0.660093 1.964000 161 136 139
0.570705 0.663531 1.964000 158 133 141
0.567218 0.662893 1.952000 156 128 145
0.564022 0.662556 1.941000 153 130 149
0.561116 0.662522 1.931000 150 132 145
0.557919 0.662109 1.920000 153 136 141
0.554723 0.661658 1.909000 157 138 141
0.548621 0.657684 1.888000 154 130 141
0.542809 0.653987 1.868000 151 123 140
0.536997 0.650220 1.848000 153 132 140
0.528570 0.643200 1.819000 156 137 142
0.528570 0.646384 1.819000 158 136 145
0.528570 0.649569 1.819000 161 137 145
0.525665 0.649164 1.809000 159 139 146
0.525665 0.652331 1.809000 158 140 147
0.520144 0.648613 1.790000 160 138 149
0.517528 0.648469 1.781000 162 138 154
0.512298 0.645002 1.763000 165 134 160
0.509683 0.644779 1.754000 169 131 155
0.507067 0.644525 1.745000 160 133 150
0.507067 0.647580 1.745000 151 137 150
0.504452 0.647279 1.736000 156 141 151
0.502127 0.647321 1.728000 161 144 151
0.497187 0.643948 1.711000 158 141 151
0.494572 0.643540 1.702000 155 132 147
0.492248 0.643480 1.694000 160 136 143
0.487308 0.639958 1.677000 166 139 146
0.480334 0.633693 1.653000 164 137 150
0.480334 0.636587 1.653000 163 136 152
0.478009 0.636386 1.645000 159 136 154
0.475975 0.636545 1.638000 156 138 153
0.471326 0.633166 1.622000 158 138 153
0.471326 0.636006 1.622000 160 140 152
0.469292 0.636088 1.615000 160 141 152
0.466967 0.635750 1.607000 160 143 150
0.464933 0.635782 1.600000 162 143 148
0.458540 0.629802 1.578000 163 142 150
0.456506 0.629758 1.571000 160 142 153
0.452147 0.626469 1.556000 156 147 153
0.452147 0.629193 1.556000 162 141 153
0.450113 0.629074 1.549000 169 136 153
0.448079 0.628930 1.542000 163 143 154
0.448079 0.631630 1.542000 158 145 155
0.444301 0.628981 1.529000 160 142 157
0.442267 0.628766 1.522000 162 134 155
0.440233 0.628526 1.515000 164 140 153
0.436456 0.625762 1.502000 165 145 153
0.434712 0.625881 1.496000 165 145 154
1.075495 0.792131 3.679000 113 75 63
1.064094 0.790106 3.640000 116 74 67
1.064094 0.796478 3.640000 114 77 71
0.878755 0.736681 3.006000 135 95 86
0.871154 0.735525 2.980000 133 97 84
0.863846 0.734527 2.955000 131 95 89
0.863846 0.739700 2.955000 137 94 95
0.856537 0.738571 2.930000 143 97 94
0.856537 0.743700 2.930000 135 103 94
0.856537 0.748829 2.930000 128 106 95
0.849229 0.747525 2.905000 131 110 97
0.828473 0.734216 2.834000 134 106 97
0.821457 0.732917 2.810000 133 107 98
0.815026 0.732059 2.788000 133 105 98
0.801871 0.725045 2.743000 134 106 99
0.795732 0.724259 2.722000 136 104 99
0.789593 0.723400 2.701000 135 103 99
0.783454 0.722467 2.680000 134 105 100
0.777315 0.721460 2.659000 134 108 101
0.771468 0.720653 2.639000 134 108 102
0.765622 0.719776 2.619000 130 116 102
0.759775 0.718829 2.599000 127 112 111
0.754221 0.718090 2.580000 135 110 120
0.732296 0.701601 2.505000 144 111 117
0.737557 0.711058 2.523000 152 111 115
0.732296 0.710371 2.505000 160 111 113
0.721771 0.704484 2.469000 151 113 111
0.716510 0.703638 2.451000 143 111 117
0.711540 0.703018 2.434000 142 112 123
0.701600 0.697399 2.400000 142 114 117
0.696923 0.696923 2.384000 136 117 112
0.691953 0.696097 2.367000 131 116 115
0.687276 0.695507 2.351000 137 115 119
0.678214 0.690397 2.320000 144 116 119
0.673537 0.689669 2.304000 144 117 120
0.669151 0.689186 2.289000 144 117 121
0.655997 0.679565 2.244000 142 123 123
0.651904 0.679229 2.230000 140 122 126
0.647519 0.678538 2.215000 138 121 129
0.643426 0.678102 2.201000 136 122 127
0.639333 0.677617 2.187000 147 121 124
0.639333 0.681445 2.187000 158 121 126
0.635533 0.681200 2.174000 155 126 128
0.631440 0.680595 2.160000 152 127 125
0.627640 0.680257 2.147000 154 126 122
0.623547 0.679555 2.133000 157 128 134
0.615947 0.674960 2.107000 162 130 146
0.608638 0.670596 2.082000 167 128 138
0.601330 0.666144 2.057000 162 129 129
0.597822 0.665838 2.045000 157 133 132
0.594314 0.665489 2.033000 156 140 134
0.587298 0.661150 2.009000 155 131 132
0.584082 0.661027 1.998000 155 129 131
0.580574 0.660534 1.986000 155 129 133
0.577359 0.660333 1.975000 156 129 135
0.574143 0.660093 1.964000 157 129 139
0.570635 0.659477 1.952000 156 129 144
0.567419 0.659158 1.941000 156 127 145
0.567419 0.662556 1.941000 151 126 146
0.564496 0.662522 1.931000 146 131 143
0.561280 0.662109 1.920000 151 137 140
0.558065 0.661658 1.909000 157 135 138
0.551926 0.657684 1.888000 154 133 136
0.549002 0.657488 1.878000 152 131 133
0.540232 0.650220 1.848000 154 137 131
0.534386 0.646383 1.828000 157 135 137
0.531755 0.646384 1.819000 160 134 143
0.531755 0.649569 1.819000 164 137 143
0.528831 0.649164 1.809000 168 141 144
0.526200 0.649086 1.800000 173 138 143
0.523277 0.648613 1.790000 168 136 142
0.520646 0.648469 1.781000 163 135 148
0.515384 0.645002 1.763000 164 134 154
0.512753 0.644779 1.754000 165 132 151
0.510122 0.644525 1.745000 161 132 149
0.510122 0.647580 1.745000 158 135 149
0.507491 0.647279 1.736000 160 142 150
0.502521 0.643950 1.719000 163 142 149
0.500183 0.643948 1.711000 161 142 149
0.497552 0.643540 1.702000 160 138 148
0.492874 0.640442 1.686000 161 137 147
0.487905 0.636906 1.669000 163 139 151
0.483227 0.633693 1.653000 163 139 156
0.483227 0.636587 1.653000 163 136 155
0.480889 0.636386 1.645000 161 136 154
0.478842 0.636545 1.638000 159 137 155
0.476504 0.636289 1.630000 159 137 156
0.474165 0.636006 1.622000 159 139 154
0.472119 0.636088 1.615000 157 141 153
0.469780 0.635750 1.607000 155 143 152
0.467734 0.635782 1.600000 158 146 151
0.461302 0.629802 1.578000 162 142 154
0.459256 0.629758 1.571000 156 141 156
0.454871 0.626469 1.556000 151 143 155
0.454871 0.629193 1.556000 158 143 154
0.452825 0.629074 1.549000 165 141 154
0.450778 0.628930 1.542000 163 146 154
0.449024 0.629172 1.536000 161 142 154
0.446978 0.628981 1.529000 162 136 155
0.444932 0.628766 1.522000 163 139 152
0.442885 0.628526 1.515000 163 145 149
0.439085 0.625762 1.502000 163 147 152
0.437331 0.625881 1.496000 163 149 154
1.081935 0.792131 3.679000 115 73 62
1.070466 0.790106 3.640000 119 71 68
1.070466 0.796478 3.640000 116 73 74
0.876370 0.730309 2.980000 124 94 81
0.869018 0.729355 2.955000 126 95 76
0.869018 0.734527 2.955000 127 96 87
0.861666 0.733442 2.930000 129 95 99
0.861666 0.738571 2.930000 130 97 95
0.861666 0.743700 2.930000 128 101 92
0.854314 0.742440 2.905000 126 105 95
0.854314 0.747525 2.905000 129 105 98
0.833434 0.734216 2.834000 132 101 100
0.826376 0.732917 2.810000 134 100 102
0.813142 0.726020 2.765000 135 102 101
0.806672 0.725045 2.743000 137 102 100
0.800497 0.724259 2.722000 140 103 98
0.794321 0.723400 2.701000 137 103 97
0.788145 0.722467 2.680000 135 102 98
0.781969 0.721460 2.659000 136 104 100
0.776088 0.720653 2.639000 136 102 97
0.770206 0.719776 2.619000 133 109 94
0.764324 0.718829 2.599000 130 112 104
0.758737 0.718090 2.580000 136 112 114
0.736681 0.701601 2.505000 142 115 113
0.736681 0.705986 2.505000 146 112 113
0.731387 0.705266 2.487000 150 112 114
0.726093 0.704484 2.469000 143 111 115
0.720800 0.703638 2.451000 137 112 122
0.715800 0.703018 2.434000 139 111 129
0.705802 0.697399 2.400000 142 111 119
0.696097 0.691954 2.367000 139 113 109
0.691392 0.691392 2.351000 137 114 115
0.686686 0.690774 2.335000 140 116 121
0.682275 0.690397 2.320000 142 118 119
0.677570 0.689669 2.304000 142 116 118
0.673158 0.689186 2.289000 143 110 120
0.664336 0.684108 2.259000 141 120 122
0.659925 0.683493 2.244000 140 125 124
0.655807 0.683133 2.230000 140 122 126
0.647279 0.678102 2.201000 139 123 125
0.643162 0.677617 2.187000 146 122 125
0.639339 0.677395 2.174000 153 123 127
0.635221 0.676813 2.160000 152 125 130
0.635221 0.680595 2.160000 151 129 128
0.631398 0.680257 2.147000 149 128 127
0.627281 0.679555 2.133000 148 127 132
0.619635 0.674960 2.107000 155 127 137
0.616106 0.674783 2.095000 162 127 134
0.612283 0.674240 2.082000 159 130 132
0.601402 0.665838 2.045000 157 135 132
0.594344 0.661561 2.021000 157 132 133
0.590815 0.661150 2.009000 157 126 131
0.587580 0.661027 1.998000 156 127 129
0.584051 0.660534 1.986000 155 127 131
0.580816 0.660333 1.975000 155 127 134
0.580816 0.663790 1.975000 155 125 140
0.574052 0.659477 1.952000 155 126 147
0.570817 0.659158 1.941000 154 126 145
0.570817 0.662556 1.941000 153 128 144
0.567876 0.662522 1.931000 152 132 142
0.567876 0.665903 1.931000 157 134 140
0.564641 0.665470 1.920000 162 135 135
0.555231 0.657684 1.888000 158 133 131
0.552290 0.657488 1.878000 155 134 127
0.546408 0.653738 1.858000 156 134 123
0.540526 0.649919 1.838000 157 135 132
0.537586 0.649583 1.828000 159 134 142
0.534939 0.649569 1.819000 161 136 142
0.531998 0.649164 1.809000 164 137 142
0.529351 0.649086 1.800000 167 138 138
0.526410 0.648613 1.790000 165 135 135
0.523764 0.648469 1.781000 163 134 142
0.521117 0.648294 1.772000 165 134 149
0.515823 0.644779 1.754000 167 133 148
0.513177 0.644525 1.745000 161 133 148
0.513177 0.647580 1.745000 155 131 148
0.508177 0.644296 1.728000 159 137 149
0.505530 0.643950 1.719000 163 141 148
0.503178 0.643948 1.711000 162 141 147
0.500531 0.643540 1.702000 162 142 149
0.495826 0.640442 1.686000 162 140 151
0.490826 0.636906 1.669000 162 141 157
0.486121 0.633693 1.653000 162 138 163
0.486121 0.636587 1.653000 163 136 158
0.483768 0.636386 1.645000 160 136 154
0.481710 0.636545 1.638000 158 137 157
0.479357 0.636289 1.630000 158 138 160
0.477004 0.636006 1.622000 158 141 157
0.474946 0.636088 1.615000 158 141 154
0.472593 0.635750 1.607000 159 144 154
0.470534 0.635782 1.600000 162 141 155
0.464065 0.629802 1.578000 166 139 157
0.462006 0.629758 1.571000 161 141 160
0.457595 0.626469 1.556000 157 143 157
0.457595 0.629193 1.556000 162 141 155
0.455536 0.629074 1.549000 168 142 154
0.453478 0.628930 1.542000 165 142 154
0.453478 0.631630 1.542000 163 144 153
0.449654 0.628981 1.529000 163 140 153
0.447596 0.628766 1.522000 164 142 149
0.445537 0.628526 1.515000 163 146 146
0.441714 0.625762 1.502000 163 150 150
0.439950 0.625881 1.496000 163 150 155
1.088375 0.785691 3.679000 111 74 61
1.088375 0.792131 3.679000 117 76 52
1.088375 0.798571 3.679000 123 73 65
1.088375 0.805011 3.679000 118 69 79
0.886616 0.734475 2.997000 114 93 86
0.874191 0.729355 2.955000 119 95 82
0.874191 0.734527 2.955000 124 95 88
0.866795 0.733442 2.930000 121 96 93
0.866795 0.738571 2.930000 118 96 94
0.866795 0.743700 2.930000 121 99 94
0.859399 0.742440 2.905000 124 104 96
0.859399 0.747525 2.905000 127 107 98
0.838395 0.734216 2.834000 131 99 103
0.831295 0.732917 2.810000 134 91 109
0.817982 0.726020 2.765000 138 96 104
0.811474 0.725045 2.743000 141 100 100
0.805262 0.724259 2.722000 144 103 98
0.799049 0.723400 2.701000 140 104 95
0.792837 0.722467 2.680000 137 104 99
0.786624 0.721460 2.659000 138 104 102
0.780707 0.720653 2.639000 139 106 101
0.774791 0.719776 2.619000 136 108 100
0.768874 0.718829 2.599000 133 111 106
0.757336 0.712524 2.560000 137 111 112
0.741065 0.701601 2.505000 141 112 110
0.741065 0.705986 2.505000 140 113 109
0.735740 0.705266 2.487000 140 112 111
0.730415 0.704484 2.469000 136 109 113
0.720061 0.698758 2.434000 132 110 119
0.715032 0.698108 2.417000 137 111 125
0.705270 0.692750 2.384000 142 111 119
0.700240 0.691954 2.367000 143 113 114
0.695507 0.691392 2.351000 144 114 116
0.690774 0.690774 2.335000 142 117 118
0.686336 0.690397 2.320000 141 119 115
0.681603 0.689669 2.304000 141 121 111
0.677165 0.689186 2.289000 142 118 116
0.668290 0.684108 2.259000 141 124 120
0.663853 0.683493 2.244000 141 122 122
0.659711 0.683133 2.230000 142 122 124
0.655273 0.682415 2.215000 143 119 124
0.646990 0.677617 2.187000 146 121 124
0.643144 0.677395 2.174000 149 121 125
0.643144 0.681200 2.174000 149 122 127
0.639003 0.680595 2.160000 150 123 124
0.635157 0.680257 2.147000 144 130 122
0.631015 0.679555 2.133000 139 128 127
0.627169 0.679124 2.120000 148 126 132
0.623323 0.678648 2.107000 158 127 132
0.619773 0.678450 2.095000 157 130 131
0.601432 0.661931 2.033000 157 129 132
0.597882 0.661561 2.021000 158 130 133
0.594332 0.661150 2.009000 160 128 134
0.591077 0.661027 1.998000 157 128 134
0.587527 0.660534 1.986000 155 127 134
0.584273 0.660333 1.975000 154 130 135
0.581019 0.660093 1.964000 154 129 138
0.577469 0.659477 1.952000 153 127 142
0.574215 0.659158 1.941000 153 127 142
0.571256 0.659142 1.931000 155 128 141
0.571256 0.662522 1.931000 158 130 139
0.568002 0.662109 1.920000 162 133 137
0.564748 0.661658 1.909000 167 133 135
0.558536 0.657684 1.888000 162 133 132
0.555577 0.657488 1.878000 158 132 131
0.549661 0.653738 1.858000 157 131 131
0.543744 0.649919 1.838000 157 132 137
0.540785 0.649583 1.828000 157 134 143
0.538123 0.649569 1.819000 158 134 142
0.535165 0.649164 1.809000 159 136 141
0.535165 0.652331 1.809000 161 137 140
0.529544 0.648613 1.790000 162 133 140
0.526881 0.648469 1.781000 163 133 144
0.524219 0.648294 1.772000 166 137 148
0.518894 0.644779 1.754000 169 136 146
0.517415 0.646003 1.749000 161 138 144
0.516231 0.647580 1.745000 153 136 143
0.513569 0.647279 1.736000 158 136 142
0.511202 0.647321 1.728000 164 138 144
0.508540 0.646959 1.719000 164 139 146
0.503510 0.643540 1.702000 164 140 148
0.498777 0.640442 1.686000 162 142 150
0.493748 0.636906 1.669000 161 139 154
0.489014 0.633693 1.653000 162 137 158
0.489014 0.636587 1.653000 163 137 154
0.486648 0.636386 1.645000 160 138 150
0.484577 0.636545 1.638000 157 136 149
0.482210 0.636289 1.630000 157 137 149
0.479844 0.636006 1.622000 157 138 150
0.477773 0.636088 1.615000 160 140 152
0.475406 0.635750 1.607000 163 139 152
0.473335 0.635782 1.600000 167 136 152
0.468898 0.632596 1.585000 171 138 154
0.464756 0.629758 1.571000 167 141 156
0.462389 0.629287 1.563000 163 140 155
0.460319 0.629193 1.556000 167 138 155
0.458248 0.629074 1.549000 172 138 156
0.456177 0.628930 1.542000 168 138 158
0.454402 0.629172 1.536000 165 141 155
0.452331 0.628981 1.529000 165 141 153
0.450260 0.628766 1.522000 165 141 151
0.448189 0.628526 1.515000 164 147 150
0.444343 0.625762 1.502000 163 148 151
0.442568 0.625881 1.496000 163 151 153
1.094815 0.785691 3.679000 107 76 59
1.094815 0.792131 3.679000 111 76 42
1.094815 0.798571 3.679000 114 77 63
1.094815 0.805011 3.679000 112 74 84
0.897219 0.738886 3.015000 122 92 90
0.894541 0.741943 3.006000 124 93 89
0.886803 0.740742 2.980000 126 95 88
0.879364 0.739700 2.955000 124 94 88
0.879364 0.744873 2.955000 122 95 92
0.871924 0.743700 2.930000 122 99 97
0.871924 0.748829 2.930000 123 105 98
0.864484 0.747525 2.905000 126 104 99
0.843356 0.734216 2.834000 129 99 107
0.836214 0.732917 2.810000 132 93 116
0.822823 0.726020 2.765000 135 92 108
0.816276 0.725045 2.743000 137 99 101
0.810026 0.724259 2.722000 139 106 97
0.797528 0.717775 2.680000 137 107 94
0.791279 0.716805 2.659000 135 106 99
0.791279 0.721460 2.659000 133 105 105
0.779375 0.715191 2.619000 131 110 105
0.779375 0.719776 2.619000 131 111 106
0.773423 0.718829 2.599000 132 114 108
0.761818 0.712524 2.560000 135 110 111
0.750807 0.706642 2.523000 139 109 108
0.740094 0.700913 2.487000 138 112 105
0.734737 0.700162 2.469000 137 116 108
0.729381 0.699348 2.451000 136 112 112
0.724322 0.698758 2.434000 135 109 116
0.714204 0.693198 2.400000 138 108 121
0.709443 0.692750 2.384000 141 109 120
0.704384 0.691954 2.367000 142 111 120
0.699622 0.691392 2.351000 143 114 118
0.699622 0.695507 2.351000 142 117 116
0.690397 0.690397 2.320000 141 121 110
0.685636 0.689669 2.304000 138 120 105
0.681172 0.689186 2.289000 136 120 112
0.676708 0.688650 2.274000 138 120 119
0.667781 0.683493 2.244000 141 119 120
0.663615 0.683133 2.230000 141 119 122
0.659151 0.682415 2.215000 141 112 122
0.654985 0.681955 2.201000 145 118 123
0.650818 0.681445 2.187000 149 121 123
0.646950 0.681200 2.174000 149 119 124
0.642784 0.680595 2.160000 150 113 120
0.638915 0.680257 2.147000 146 125 117
0.634749 0.679555 2.133000 142 129 122
0.630880 0.679124 2.120000 149 126 128
0.627012 0.678648 2.107000 156 126 129
0.619572 0.674240 2.082000 156 126 131
0.608561 0.665838 2.045000 155 124 132
0.601419 0.661561 2.021000 155 127 134
0.601419 0.665099 2.021000 155 130 137
0.597848 0.664667 2.009000 154 128 140
0.594575 0.664525 1.998000 153 126 138
0.587730 0.660333 1.975000 152 130 136
0.584457 0.660093 1.964000 152 134 137
0.580886 0.659477 1.952000 152 131 138
0.577613 0.659158 1.941000 153 129 138
0.574637 0.659142 1.931000 154 129 139
0.574637 0.662522 1.931000 156 130 137
0.571363 0.662109 1.920000 158 133 135
0.568090 0.661658 1.909000 161 134 134
0.558865 0.654201 1.878000 158 132 134
0.555889 0.653987 1.868000 156 132 136
0.552913 0.653738 1.858000 157 130 139
0.549937 0.653455 1.848000 157 131 141
0.546961 0.653136 1.838000 157 132 144
0.543985 0.652783 1.828000 156 131 142
0.541307 0.652753 1.819000 157 137 140
0.538331 0.652331 1.809000 158 141 142
0.532677 0.648613 1.790000 158 134 145
0.532677 0.651746 1.790000 159 129 146
0.527321 0.648294 1.772000 162 135 147
0.524642 0.648088 1.763000 165 138 143
0.521964 0.647850 1.754000 161 139 140
0.519286 0.647580 1.745000 158 140 138
0.514227 0.644296 1.728000 161 137 136
0.511549 0.643950 1.719000 165 137 141
0.509168 0.643948 1.711000 166 137 146
0.506490 0.643540 1.702000 168 138 148
0.504109 0.643480 1.694000 165 138 150
0.494289 0.633853 1.661000 162 138 151
0.491908 0.633693 1.653000 162 137 153
0.491908 0.636587 1.653000 163 137 149
0.489527 0.636386 1.645000 164 136 146
0.487444 0.636545 1.638000 166 134 142
0.485064 0.636289 1.630000 163 138 139
0.482683 0.636006 1.622000 161 137 144
0.480600 0.636088 1.615000 162 138 150
0.478219 0.635750 1.607000 163 139 150
0.473755 0.632603 1.592000 165 137 150
0.469589 0.629802 1.578000 167 139 151
0.467506 0.629758 1.571000 163 140 152
0.465125 0.629287 1.563000 160 141 154
0.463042 0.629193 1.556000 164 138 156
0.460959 0.629074 1.549000 168 136 159
0.457091 0.626483 1.536000 166 138 162
0.457091 0.629172 1.536000 165 142 158
0.455007 0.628981 1.529000 167 141 154
0.452924 0.628766 1.522000 169 136 154
0.450841 0.628526 1.515000 166 143 154
0.446973 0.625762 1.502000 164 147 153
0.445187 0.625881 1.496000 164 147 152
1.101255 0.785691 3.679000 104 78 60
1.101255 0.792131 3.679000 105 78 50
1.112929 0.807037 3.718000 106 78 63
1.101255 0.805011 3.679000 106 77 77
0.924049 0.751127 3.087000 128 89 85
0.907885 0.743297 3.033000 131 91 86
0.907885 0.748607 3.033000 130 92 88
0.899802 0.747204 3.006000 129 92 88
0.892020 0.745958 2.980000 128 91 89
0.884536 0.744873 2.955000 127 94 93
0.884536 0.750046 2.955000 124 99 96
0.869570 0.742440 2.905000 122 102 97
0.862386 0.741349 2.881000 124 106 97
0.848317 0.734216 2.834000 127 99 102
0.841133 0.732917 2.810000 129 91 106
0.827663 0.726020 2.765000 132 95 103
0.821077 0.725045 2.743000 133 99 101
0.814791 0.724259 2.722000 135 104 100
0.808505 0.723400 2.701000 134 112 99
0.802219 0.722467 2.680000 133 106 102
0.795933 0.721460 2.659000 128 102 105
0.789946 0.720653 2.639000 123 108 106
0.783960 0.719776 2.619000 127 114 108
0.777973 0.718829 2.599000 131 112 110
0.766299 0.712524 2.560000 134 109 113
0.755224 0.706642 2.523000 138 107 114
0.744447 0.700913 2.487000 136 110 114
0.739059 0.700162 2.469000 135 114 113
0.733671 0.699348 2.451000 137 116 112
0.728583 0.698758 2.434000 139 110 116
0.718405 0.693198 2.400000 140 104 120
0.713616 0.692750 2.384000 141 108 118
0.708527 0.691954 2.367000 142 109 117
0.703738 0.691392 2.351000 143 115 115
0.698948 0.690774 2.335000 142 116 114
0.694458 0.690397 2.320000 141 118 112
0.689669 0.689669 2.304000 136 119 109
0.685179 0.689186 2.289000 131 119 114
0.680689 0.688650 2.274000 136 120 119
0.676199 0.688062 2.259000 141 121 120
0.667518 0.683133 2.230000 140 123 121
0.663028 0.682415 2.215000 140 120 118
0.658837 0.681955 2.201000 144 121 115
0.654647 0.681445 2.187000 149 121 119
0.650755 0.681200 2.174000 149 121 123
0.646565 0.680595 2.160000 150 122 121
0.642673 0.680257 2.147000 148 131 119
0.638483 0.679555 2.133000 146 127 122
0.634591 0.679124 2.120000 150 124 126
0.630700 0.678648 2.107000 155 125 127
0.623217 0.674240 2.082000 154 126 129
0.612141 0.665838 2.045000 154 126 131
0.608549 0.665489 2.033000 152 126 133
0.604957 0.665099 2.021000 151 127 134
0.601365 0.664667 2.009000 151 128 134
0.598072 0.664525 1.998000 151 128 134
0.594480 0.664010 1.986000 151 131 134
0.591188 0.663790 1.975000 151 133 131
0.584303 0.659477 1.952000 152 134 129
0.584303 0.662893 1.952000 153 131 132
0.581010 0.662556 1.941000 153 129 135
0.578017 0.662522 1.931000 154 132 135
0.574724 0.662109 1.920000 154 136 136
0.571431 0.661658 1.909000 155 133 136
0.562152 0.654201 1.878000 155 131 137
0.559159 0.653987 1.868000 155 131 141
0.556165 0.653738 1.858000 156 129 145
0.553172 0.653455 1.848000 158 131 144
0.550179 0.653136 1.838000 156 133 144
0.547185 0.652783 1.828000 155 135 141
0.544491 0.652753 1.819000 155 142 139
0.541498 0.652331 1.809000 155 136 142
0.538804 0.652236 1.800000 155 133 144
0.535811 0.651746 1.790000 155 135 144
0.530423 0.648294 1.772000 158 138 145
0.527728 0.648088 1.763000 161 138 142
0.525034 0.647850 1.754000 162 140 140
0.522340 0.647580 1.745000 163 139 140
0.517252 0.644296 1.728000 164 138 139
0.514558 0.643950 1.719000 166 137 142
0.512163 0.643948 1.711000 169 137 146
0.509469 0.643540 1.702000 173 137 146
0.507074 0.643480 1.694000 168 137 147
0.499591 0.636906 1.669000 163 138 149
0.494802 0.633693 1.653000 163 138 151
0.494802 0.636587 1.653000 164 137 148
0.492407 0.636386 1.645000 169 135 146
0.490312 0.636545 1.638000 175 139 144
0.487917 0.636289 1.630000 170 145 143
0.485522 0.636006 1.622000 165 140 145
0.483427 0.636088 1.615000 164 138 148
0.481032 0.635750 1.607000 163 137 145
0.478937 0.635782 1.600000 163 135 143
0.472351 0.629802 1.578000 163 137 146
0.470256 0.629758 1.571000 160 141 150
0.465766 0.626469 1.556000 158 140 152
0.463671 0.626362 1.549000 161 139 155
0.461575 0.626231 1.542000 165 136 156
0.459779 0.626483 1.536000 165 138 157
0.459779 0.629172 1.536000 165 142 155
0.457684 0.628981 1.529000 169 148 154
0.455589 0.628766 1.522000 173 142 154
0.453493 0.628526 1.515000 169 143 154
0.449602 0.625762 1.502000 166 144 152
0.445711 0.622952 1.489000 166 144 151
1.107696 0.785691 3.679000 103 80 61
1.119438 0.800528 3.718000 102 80 59
1.119438 0.807037 3.718000 101 82 64
1.107696 0.805011 3.679000 105 79 70
1.010746 0.781565 3.357000 109 87 72
0.937883 0.752488 3.115000 123 89 82
0.929453 0.751127 3.087000 124 90 78
0.921022 0.749669 3.059000 126 92 82
0.913194 0.748607 3.033000 126 91 87
0.905065 0.747204 3.006000 126 90 89
0.897236 0.745958 2.980000 126 92 91
0.889709 0.744873 2.955000 125 93 93
0.882182 0.743700 2.930000 120 98 96
0.867429 0.736306 2.881000 115 101 96
0.860203 0.735173 2.857000 120 102 96
0.846052 0.727998 2.810000 125 100 96
0.839428 0.727179 2.788000 126 97 97
0.832503 0.726020 2.765000 127 99 99
0.825879 0.725045 2.743000 129 100 101
0.819556 0.724259 2.722000 131 101 102
0.813233 0.723400 2.701000 132 104 104
0.806911 0.722467 2.680000 134 105 104
0.800588 0.721460 2.659000 130 105 105
0.788544 0.715191 2.619000 127 109 107
0.788544 0.719776 2.619000 129 111 110
0.776802 0.713574 2.580000 132 112 113
0.770780 0.712524 2.560000 135 109 116
0.759640 0.706642 2.523000 139 103 120
0.748801 0.700913 2.487000 136 109 124
0.743381 0.700162 2.469000 133 114 118
0.737962 0.699348 2.451000 135 113 113
0.732843 0.698758 2.434000 137 112 116
0.722606 0.693198 2.400000 135 109 120
0.717789 0.692750 2.384000 133 111 117
0.712671 0.691954 2.367000 140 115 114
0.707853 0.691392 2.351000 147 122 113
0.703036 0.690774 2.335000 145 118 113
0.698520 0.690397 2.320000 143 117 113
0.693702 0.689669 2.304000 142 119 114
0.689186 0.689186 2.289000 141 120 117
0.684670 0.688650 2.274000 141 120 120
0.680153 0.688062 2.259000 141 122 120
0.671422 0.683133 2.230000 137 123 120
0.662690 0.678102 2.201000 133 126 113
0.662690 0.681955 2.201000 143 123 107
0.658475 0.681445 2.187000 153 122 115
0.654561 0.681200 2.174000 151 120 123
0.650346 0.680595 2.160000 149 124 122
0.646432 0.680257 2.147000 143 126 122
0.642217 0.679555 2.133000 138 127 123
0.638302 0.679124 2.120000 145 124 124
0.634388 0.678648 2.107000 152 124 126
0.626861 0.674240 2.082000 150 125 128
0.615721 0.665838 2.045000 149 128 130
0.612108 0.665489 2.033000 149 127 133
0.612108 0.669048 2.033000 150 127 131
0.608495 0.668637 2.021000 150 126 129
0.603075 0.666188 2.003000 150 127 130
0.601570 0.668023 1.998000 148 130 132
0.594645 0.663790 1.975000 147 135 126
0.587720 0.659477 1.952000 149 134 121
0.584408 0.659158 1.941000 151 133 126
0.581397 0.659142 1.931000 152 131 132
0.581397 0.662522 1.931000 152 133 134
0.578085 0.662109 1.920000 150 134 137
0.574773 0.661658 1.909000 149 133 139
0.565440 0.654201 1.878000 152 132 141
0.562429 0.653987 1.868000 155 132 146
0.559418 0.653738 1.858000 155 131 151
0.559418 0.656991 1.858000 156 132 147
0.556407 0.656690 1.848000 154 133 144
0.550385 0.652783 1.828000 151 135 141
0.547675 0.652753 1.819000 154 135 139
0.544665 0.652331 1.809000 157 129 141
0.541955 0.652236 1.800000 154 133 144
0.538944 0.651746 1.790000 150 140 143
0.533524 0.648294 1.772000 155 137 143
0.530815 0.648088 1.763000 161 138 142
0.528105 0.647850 1.754000 163 140 141
0.525395 0.647580 1.745000 165 141 142
0.520277 0.644296 1.728000 164 139 143
0.517567 0.643950 1.719000 164 139 144
0.515158 0.643948 1.711000 165 136 146
0.512448 0.643540 1.702000 167 136 145
0.510040 0.643480 1.694000 164 138 145
0.504921 0.639958 1.677000 161 140 147
0.500104 0.636760 1.661000 162 139 150
0.497695 0.636587 1.653000 162 139 148
0.495287 0.636386 1.645000 166 138 146
0.493179 0.636545 1.638000 170 142 147
0.490770 0.636289 1.630000 167 144 148
0.488362 0.636006 1.622000 164 142 147
0.486254 0.636088 1.615000 162 138 146
0.483845 0.635750 1.607000 161 137 141
0.481738 0.635782 1.600000 161 136 136
0.475114 0.629802 1.578000 161 134 142
0.470597 0.626551 1.563000 160 140 148
0.468490 0.626469 1.556000 159 142 151
