ply
format ascii 1.0
element vertex 1274
property float x
property float y
property float z
property uchar red
property uchar green
property uchar blue
end_header
0.594918 0.662522 1.931000 125 98 106
0.588140 0.658316 1.909000 121 96 107
0.585059 0.658192 1.899000 118 97 109
0.575508 0.650717 1.868000 118 99 111
0.572427 0.650486 1.858000 118 102 111
0.569347 0.650220 1.848000 117 103 111
0.566266 0.649919 1.838000 116 105 109
0.563185 0.649583 1.828000 120 105 107
0.557331 0.645998 1.809000 124 108 109
0.557331 0.649164 1.809000 125 102 111
0.554558 0.649086 1.800000 127 100 115
0.551478 0.648613 1.790000 126 102 120
0.548705 0.648469 1.781000 126 101 116
0.545932 0.648294 1.772000 129 99 113
0.543159 0.648088 1.763000 133 94 112
0.537614 0.644525 1.745000 125 101 111
0.534841 0.644240 1.736000 118 106 105
0.534841 0.647279 1.736000 121 107 99
0.529603 0.643950 1.719000 125 100 107
0.524366 0.640561 1.702000 126 103 116
0.519436 0.637490 1.686000 128 107 117
0.516664 0.637023 1.677000 128 108 118
0.516664 0.639958 1.677000 129 106 117
0.514199 0.639827 1.669000 132 107 117
0.509269 0.636587 1.653000 135 109 115
0.504648 0.633678 1.638000 129 107 113
0.502183 0.633436 1.630000 122 107 117
0.499719 0.633166 1.622000 130 108 121
0.497562 0.633261 1.615000 138 110 121
0.495097 0.632937 1.607000 135 107 122
0.492941 0.632981 1.600000 132 107 121
0.490476 0.632603 1.592000 129 108 121
0.490476 0.635390 1.592000 127 109 121
0.484006 0.629758 1.571000 130 109 121
0.479385 0.626469 1.556000 133 111 125
0.477228 0.626362 1.549000 132 111 130
0.471067 0.620952 1.529000 132 111 129
0.471067 0.623628 1.529000 132 111 129
0.471067 0.626305 1.529000 132 110 126
0.468910 0.626101 1.522000 134 108 124
0.468910 0.628766 1.522000 137 105 126
0.464905 0.626037 1.509000 135 110 128
0.462748 0.625762 1.502000 132 118 128
0.458743 0.622952 1.489000 132 117 128
1.020298 0.760900 3.293000 89 63 56
1.010693 0.759448 3.262000 89 62 52
1.010693 0.765158 3.262000 89 62 55
1.001088 0.763542 3.231000 91 62 58
1.001088 0.769198 3.231000 93 61 50
0.973823 0.753750 3.143000 94 62 42
0.965147 0.752488 3.115000 95 64 47
0.947796 0.744315 3.059000 92 61 52
0.939740 0.743297 3.033000 89 62 54
0.939740 0.748607 3.033000 89 64 57
0.931375 0.747204 3.006000 89 68 51
0.915573 0.739700 2.955000 93 69 45
0.907827 0.738571 2.930000 98 70 52
0.900081 0.737355 2.905000 98 73 60
0.900081 0.742440 2.905000 98 73 59
0.892645 0.741349 2.881000 97 75 59
0.870646 0.727998 2.810000 96 72 61
0.856704 0.721180 2.765000 96 73 62
0.849887 0.720243 2.743000 97 73 65
0.843381 0.719494 2.722000 99 71 69
0.843381 0.724259 2.722000 102 73 69
0.836874 0.723400 2.701000 96 73 70
0.830367 0.722467 2.680000 91 72 69
0.823861 0.721460 2.659000 96 76 68
0.811467 0.715191 2.619000 102 78 74
0.805270 0.714279 2.599000 102 76 80
0.799383 0.713574 2.580000 103 73 83
0.793187 0.712524 2.560000 102 71 86
0.770568 0.696559 2.487000 102 75 80
0.770568 0.700913 2.487000 100 81 74
0.764991 0.700162 2.469000 99 81 77
0.759414 0.699348 2.451000 100 79 80
0.748880 0.693877 2.417000 102 82 79
0.743613 0.693198 2.400000 106 84 77
0.738655 0.692750 2.384000 110 84 80
0.733388 0.691954 2.367000 114 86 83
0.728430 0.691392 2.351000 118 86 84
0.728430 0.695507 2.351000 112 88 85
0.723473 0.694861 2.335000 106 89 88
0.713868 0.689669 2.304000 101 90 91
0.704573 0.684670 2.274000 97 88 89
0.695278 0.679565 2.244000 102 88 87
0.690940 0.679229 2.230000 107 86 91
0.686292 0.678538 2.215000 106 86 96
0.681955 0.678102 2.201000 106 86 95
0.681955 0.681955 2.201000 101 87 95
0.677617 0.681445 2.187000 96 91 97
0.677617 0.685274 2.187000 109 90 98
0.669251 0.680595 2.160000 123 91 100
0.660886 0.675821 2.133000 119 93 101
0.656858 0.675413 2.120000 115 92 99
0.652830 0.674960 2.107000 115 93 97
0.645084 0.670596 2.082000 115 92 98
0.641056 0.670030 2.069000 105 93 99
0.633620 0.665838 2.045000 95 93 97
0.629902 0.665489 2.033000 111 94 95
0.626184 0.665099 2.021000 127 96 96
0.622466 0.664667 2.009000 116 97 98
0.619057 0.664525 1.998000 106 96 97
0.611931 0.660333 1.975000 113 96 97
0.608523 0.660093 1.964000 120 101 101
0.604805 0.659477 1.952000 119 116 106
0.601397 0.659158 1.941000 118 98 105
0.601397 0.662556 1.941000 119 91 104
0.598298 0.662522 1.931000 121 93 106
0.591482 0.658316 1.909000 118 92 108
0.591482 0.661658 1.909000 115 97 109
0.581877 0.654201 1.878000 114 101 110
0.575680 0.650486 1.858000 114 100 110
0.572582 0.650220 1.848000 112 102 110
0.566385 0.646383 1.828000 111 103 109
0.563596 0.646384 1.819000 117 103 108
0.560498 0.645998 1.809000 124 103 108
0.560498 0.649164 1.809000 124 100 109
0.557709 0.649086 1.800000 124 101 112
0.554611 0.648613 1.790000 124 101 116
0.549034 0.645192 1.772000 125 99 114
0.546245 0.645002 1.763000 125 95 112
0.543457 0.644779 1.754000 126 95 111
0.540668 0.644525 1.745000 118 96 111
0.540668 0.647580 1.745000 111 109 107
0.537880 0.647279 1.736000 118 119 104
0.535401 0.647321 1.728000 125 104 109
0.527345 0.640561 1.702000 126 97 114
0.522388 0.637490 1.686000 128 104 115
0.519599 0.637023 1.677000 128 115 116
0.517120 0.636906 1.669000 129 108 116
0.514642 0.636760 1.661000 129 105 117
0.512163 0.636587 1.653000 129 106 117
0.507516 0.633678 1.638000 123 104 117
0.505037 0.633436 1.630000 118 107 119
0.502558 0.633166 1.622000 132 110 121
0.500389 0.633261 1.615000 146 108 121
0.497911 0.632937 1.607000 140 105 122
0.495742 0.632981 1.600000 134 106 119
0.493263 0.632603 1.592000 132 110 115
0.491094 0.632596 1.585000 131 108 118
0.486756 0.629758 1.571000 132 106 120
0.482109 0.626469 1.556000 134 109 123
0.477771 0.623532 1.542000 132 112 127
0.475912 0.623794 1.536000 131 112 127
0.473743 0.623628 1.529000 131 111 128
0.473743 0.626305 1.529000 131 111 126
0.471574 0.626101 1.522000 133 111 123
0.471574 0.628766 1.522000 135 107 124
0.467546 0.626037 1.509000 133 107 124
0.465378 0.625762 1.502000 132 112 126
0.461350 0.622952 1.489000 132 112 129
1.046004 0.758059 3.357000 88 60 46
1.026063 0.749372 3.293000 88 61 52
1.026063 0.755136 3.293000 89 63 58
1.026063 0.760900 3.293000 91 62 56
1.026063 0.766665 3.293000 92 61 54
1.016403 0.765158 3.262000 93 60 58
1.016403 0.770868 3.262000 94 60 62
1.006744 0.769198 3.231000 95 61 49
0.961875 0.740320 3.087000 99 63 36
0.953151 0.738960 3.059000 103 69 43
0.945049 0.737988 3.033000 95 62 50
0.945049 0.743297 3.033000 87 62 53
0.936637 0.741943 3.006000 89 64 56
0.936637 0.747204 3.006000 91 64 44
0.920746 0.739700 2.955000 94 68 33
0.912956 0.738571 2.930000 98 71 45
0.912956 0.743700 2.930000 100 72 58
0.905166 0.742440 2.905000 102 76 65
0.897688 0.741349 2.881000 98 74 72
0.868710 0.722299 2.788000 94 71 68
0.861544 0.721180 2.765000 96 73 65
0.854689 0.720243 2.743000 99 76 67
0.848145 0.719494 2.722000 103 75 69
0.848145 0.724259 2.722000 107 76 68
0.841602 0.723400 2.701000 101 71 68
0.841602 0.728128 2.701000 95 68 66
0.816052 0.710607 2.619000 98 77 65
0.809820 0.709730 2.599000 102 83 73
0.803900 0.709058 2.580000 101 78 82
0.803900 0.713574 2.580000 100 76 87
0.797668 0.712524 2.560000 99 73 92
0.780531 0.701601 2.505000 99 74 86
0.769313 0.695840 2.469000 97 78 81
0.769313 0.700162 2.469000 94 81 81
0.763705 0.699348 2.451000 98 82 81
0.753111 0.693877 2.417000 102 84 76
0.747814 0.693198 2.400000 105 82 72
0.742828 0.692750 2.384000 108 83 77
0.737531 0.691954 2.367000 107 84 82
0.732546 0.691392 2.351000 107 88 84
0.727560 0.690774 2.335000 106 86 87
0.727560 0.694861 2.335000 106 86 88
0.717901 0.689669 2.304000 104 87 90
0.713227 0.689186 2.289000 102 88 85
0.699206 0.679565 2.244000 105 87 80
0.694843 0.679229 2.230000 108 88 85
0.694843 0.683133 2.230000 108 87 91
0.685807 0.678102 2.201000 108 85 93
0.685807 0.681955 2.201000 106 88 95
0.681445 0.681445 2.187000 105 99 96
0.681445 0.685274 2.187000 111 92 97
0.677395 0.685006 2.174000 118 92 98
0.668982 0.680257 2.147000 117 92 99
0.664619 0.679555 2.133000 115 92 96
0.656518 0.674960 2.107000 115 92 93
0.648728 0.670596 2.082000 116 94 96
0.644678 0.670030 2.069000 110 92 99
0.637200 0.665838 2.045000 105 92 98
0.633460 0.665489 2.033000 113 94 98
0.629721 0.665099 2.021000 121 96 99
0.625982 0.664667 2.009000 115 94 100
0.622555 0.664525 1.998000 109 93 99
0.618816 0.664010 1.986000 114 94 99
0.611961 0.660093 1.964000 118 97 103
0.611961 0.663531 1.964000 115 99 107
0.608222 0.662893 1.952000 112 95 105
0.604794 0.662556 1.941000 118 93 104
0.601678 0.662522 1.931000 124 93 107
0.598251 0.662109 1.920000 116 93 110
0.598251 0.665470 1.920000 109 98 109
0.585164 0.654201 1.878000 112 100 109
0.578932 0.650486 1.858000 115 98 109
0.575817 0.650220 1.848000 116 101 110
0.569585 0.646383 1.828000 117 105 109
0.566780 0.646384 1.819000 119 104 109
0.563665 0.645998 1.809000 121 104 108
0.563665 0.649164 1.809000 121 102 107
0.560860 0.649086 1.800000 121 104 109
0.557744 0.648613 1.790000 123 102 112
0.552136 0.645192 1.772000 124 99 112
0.549331 0.645002 1.763000 125 96 112
0.546527 0.644779 1.754000 125 96 111
0.543723 0.644525 1.745000 120 103 111
0.543723 0.647580 1.745000 116 117 110
0.540919 0.647279 1.736000 120 111 110
0.535622 0.643950 1.719000 124 103 111
0.527832 0.637550 1.694000 126 99 113
0.522535 0.634087 1.677000 128 100 114
0.522535 0.637023 1.677000 129 106 115
0.520042 0.636906 1.669000 129 107 116
0.517549 0.636760 1.661000 129 106 117
0.515057 0.636587 1.653000 129 107 119
0.512564 0.636386 1.645000 125 106 122
0.507890 0.633436 1.630000 121 109 121
0.505397 0.633166 1.622000 129 109 121
0.503216 0.633261 1.615000 138 110 122
0.500724 0.632937 1.607000 135 105 123
0.498542 0.632981 1.600000 132 104 116
0.496050 0.632603 1.592000 132 108 110
0.493869 0.632596 1.585000 133 110 115
0.489506 0.629758 1.571000 135 108 120
0.484833 0.626469 1.556000 138 108 122
0.482651 0.626362 1.549000 133 112 124
0.478601 0.623794 1.536000 128 115 126
0.476420 0.623628 1.529000 129 112 128
0.476420 0.626305 1.529000 130 115 125
0.474238 0.626101 1.522000 133 111 123
0.474238 0.628766 1.522000 137 107 122
0.468007 0.623133 1.502000 133 107 121
0.468007 0.625762 1.502000 129 112 125
0.463956 0.622952 1.489000 129 112 130
1.026814 0.745731 3.277000 86 63 56
1.022113 0.748027 3.262000 90 65 66
1.022113 0.753737 3.262000 94 61 60
1.022113 0.759448 3.262000 95 60 54
1.022113 0.765158 3.262000 97 60 57
1.012400 0.763542 3.231000 97 60 59
1.012400 0.769198 3.231000 98 61 52
0.967279 0.740320 3.087000 105 63 44
0.958506 0.738960 3.059000 112 63 48
0.950359 0.737988 3.033000 98 59 53
0.941899 0.736681 3.006000 85 62 59
0.941899 0.741943 3.006000 89 66 66
0.941899 0.747204 3.006000 94 66 56
0.933752 0.745958 2.980000 96 69 46
0.918085 0.738571 2.930000 98 69 52
0.918085 0.743700 2.930000 102 71 58
0.910251 0.742440 2.905000 107 74 62
0.902731 0.741349 2.881000 100 74 65
0.866384 0.716340 2.765000 93 72 65
0.859490 0.715442 2.743000 97 74 65
0.852910 0.714729 2.722000 101 75 67
0.852910 0.719494 2.722000 107 77 69
0.852910 0.724259 2.722000 113 73 68
0.846330 0.723400 2.701000 106 67 66
0.839750 0.722467 2.680000 100 72 61
0.820636 0.710607 2.619000 101 81 56
0.814369 0.709730 2.599000 102 81 66
0.808416 0.709058 2.580000 99 78 77
0.802149 0.708042 2.560000 97 76 80
0.790556 0.702226 2.523000 97 74 84
0.784916 0.701601 2.505000 97 74 81
0.773635 0.695840 2.469000 93 79 79
0.773635 0.700162 2.469000 90 82 79
0.767995 0.699348 2.451000 96 86 80
0.757342 0.693877 2.417000 102 82 79
0.752015 0.693198 2.400000 104 77 79
0.747001 0.692750 2.384000 106 80 81
0.741675 0.691954 2.367000 101 82 83
0.741675 0.696097 2.367000 96 83 84
0.736661 0.695507 2.351000 101 84 86
0.731648 0.694861 2.335000 107 85 88
0.726948 0.694459 2.320000 107 87 90
0.712534 0.684670 2.274000 108 87 87
0.703134 0.679565 2.244000 108 87 84
0.698747 0.679229 2.230000 109 88 88
0.694047 0.678538 2.215000 109 91 93
0.689660 0.678102 2.201000 110 86 93
0.685273 0.677617 2.187000 112 84 93
0.685273 0.681445 2.187000 114 88 92
0.681200 0.681200 2.174000 114 90 91
0.676813 0.680595 2.160000 114 90 95
0.672740 0.680257 2.147000 115 92 100
0.668353 0.679555 2.133000 116 92 101
0.660206 0.674960 2.107000 116 92 101
0.656446 0.674783 2.095000 117 92 100
0.652373 0.674240 2.082000 116 91 99
0.640779 0.665838 2.045000 116 93 100
0.637019 0.665489 2.033000 115 96 101
0.633259 0.665099 2.021000 115 95 101
0.626052 0.661027 1.998000 114 92 101
0.622292 0.660534 1.986000 113 93 101
0.618846 0.660333 1.975000 115 91 101
0.615399 0.660093 1.964000 117 93 106
0.615399 0.663531 1.964000 111 90 111
0.611639 0.662893 1.952000 106 93 104
0.608192 0.662556 1.941000 117 93 97
0.605059 0.662522 1.931000 128 92 105
0.601612 0.662109 1.920000 115 91 113
0.601612 0.665470 1.920000 103 95 110
0.595032 0.661516 1.899000 109 103 108
0.582185 0.650486 1.858000 116 101 108
0.579051 0.650220 1.848000 119 102 108
0.575918 0.649919 1.838000 123 105 111
0.569965 0.646384 1.819000 121 107 114
0.566831 0.645998 1.809000 119 98 104
0.564011 0.645935 1.800000 119 103 95
0.560878 0.645480 1.790000 119 104 102
0.558058 0.645352 1.781000 121 104 109
0.555238 0.645192 1.772000 124 100 110
0.552418 0.645002 1.763000 124 97 111
0.549598 0.644779 1.754000 125 99 111
0.546777 0.644525 1.745000 123 103 112
0.543957 0.644240 1.736000 121 108 114
0.543957 0.647279 1.736000 122 108 115
0.536124 0.640953 1.711000 123 104 109
0.528290 0.634539 1.686000 126 99 103
0.525470 0.634087 1.677000 129 100 108
0.525470 0.637023 1.677000 129 104 114
0.522964 0.636906 1.669000 130 104 115
0.520457 0.636760 1.661000 130 106 116
0.517950 0.636587 1.653000 130 108 118
0.515444 0.636386 1.645000 127 107 121
0.513250 0.636545 1.638000 124 106 121
0.508237 0.633166 1.622000 127 110 122
0.506043 0.633261 1.615000 130 107 122
0.503537 0.632937 1.607000 130 101 122
0.501343 0.632981 1.600000 130 104 118
0.498837 0.632603 1.592000 132 111 114
0.496643 0.632596 1.585000 135 110 116
0.492256 0.629758 1.571000 138 109 118
0.489750 0.629287 1.563000 142 109 120
0.485363 0.626362 1.549000 133 115 122
0.483170 0.626231 1.542000 125 113 124
0.479096 0.623628 1.529000 127 110 127
0.479096 0.626305 1.529000 130 110 125
0.476903 0.626101 1.522000 134 111 124
0.474709 0.625874 1.515000 139 106 124
0.470636 0.623133 1.502000 132 104 123
0.468756 0.623262 1.496000 126 109 126
0.466563 0.622952 1.489000 126 112 130
1.027824 0.742317 3.262000 81 65 61
1.027824 0.748027 3.262000 90 63 75
1.027824 0.753737 3.262000 99 60 65
1.027824 0.759448 3.262000 96 60 55
1.018056 0.757886 3.231000 94 60 56
1.018056 0.763542 3.231000 91 60 57
1.008603 0.762056 3.201000 88 60 55
0.963860 0.733605 3.059000 95 61 53
0.963860 0.738960 3.059000 101 64 54
0.955668 0.737988 3.033000 94 61 56
0.947161 0.736681 3.006000 87 64 66
0.947161 0.741943 3.006000 91 64 76
0.938968 0.740742 2.980000 94 65 67
0.931091 0.739700 2.955000 95 67 59
0.931091 0.744873 2.955000 96 68 59
0.923214 0.743700 2.930000 98 72 59
0.923214 0.748829 2.930000 101 76 59
0.915337 0.747525 2.905000 95 72 59
0.871224 0.716340 2.765000 89 71 62
0.864292 0.715442 2.743000 93 74 66
0.857675 0.714729 2.722000 97 75 68
0.857675 0.719494 2.722000 101 74 70
0.857675 0.724259 2.722000 106 74 67
0.851058 0.723400 2.701000 102 71 65
0.844441 0.722467 2.680000 99 72 56
0.825221 0.710607 2.619000 99 78 47
0.818919 0.709730 2.599000 99 82 59
0.812932 0.709058 2.580000 98 79 72
0.806631 0.708042 2.560000 97 79 74
0.794972 0.702226 2.523000 100 75 77
0.789301 0.701601 2.505000 104 69 77
0.783629 0.700913 2.487000 99 78 77
0.777957 0.700162 2.469000 94 84 78
0.772286 0.699348 2.451000 98 84 80
0.761573 0.693877 2.417000 103 83 83
0.756216 0.693198 2.400000 105 80 86
0.751175 0.692750 2.384000 108 79 85
0.745818 0.691954 2.367000 105 79 84
0.740777 0.691392 2.351000 102 78 85
0.735735 0.690774 2.335000 105 83 86
0.735735 0.694861 2.335000 108 85 88
0.725967 0.689669 2.304000 111 86 91
0.721241 0.689186 2.289000 115 86 90
0.707062 0.679565 2.244000 110 87 89
0.702651 0.679229 2.230000 105 89 92
0.697924 0.678538 2.215000 107 88 95
0.693513 0.678102 2.201000 110 87 93
0.689102 0.677617 2.187000 112 83 92
0.689102 0.681445 2.187000 113 82 88
0.685006 0.681200 2.174000 110 87 85
0.680594 0.680595 2.160000 107 89 93
0.672087 0.675821 2.133000 110 92 102
0.667991 0.675413 2.120000 114 95 106
0.663895 0.674960 2.107000 114 92 110
0.660114 0.674783 2.095000 115 91 105
0.656017 0.674240 2.082000 115 92 100
0.644359 0.665838 2.045000 116 94 102
0.636797 0.661561 2.021000 113 95 104
0.633016 0.661150 2.009000 110 97 103
0.631125 0.662682 2.003000 113 95 102
0.629550 0.664525 1.998000 116 96 103
0.625769 0.664010 1.986000 121 93 104
0.618837 0.660093 1.964000 126 94 109
0.618837 0.663531 1.964000 119 94 115
0.615056 0.662893 1.952000 113 94 103
0.611590 0.662556 1.941000 118 94 91
0.608439 0.662522 1.931000 123 92 104
0.604973 0.662109 1.920000 116 90 117
0.604973 0.665470 1.920000 110 88 112
0.601507 0.664999 1.909000 113 96 107
0.585437 0.650486 1.858000 116 101 106
0.582286 0.650220 1.848000 121 103 106
0.579135 0.649919 1.838000 126 106 113
0.575985 0.649583 1.828000 122 98 120
0.573149 0.649569 1.819000 118 79 101
0.569998 0.649164 1.809000 113 93 83
0.567162 0.649086 1.800000 109 105 95
0.561175 0.645352 1.781000 119 103 107
0.558339 0.645192 1.772000 130 100 108
0.555504 0.645002 1.763000 126 99 110
0.552668 0.644779 1.754000 123 100 112
0.549832 0.644525 1.745000 123 102 114
0.546996 0.644240 1.736000 123 107 117
0.544476 0.644296 1.728000 124 107 121
0.536283 0.637581 1.702000 124 107 107
0.531242 0.634539 1.686000 126 103 93
0.528406 0.634087 1.677000 128 100 103
0.525885 0.633984 1.669000 128 101 113
0.525885 0.636906 1.669000 128 102 114
0.523365 0.636760 1.661000 128 106 116
0.520844 0.636587 1.653000 128 113 118
0.518323 0.636386 1.645000 126 105 120
0.516117 0.636545 1.638000 123 98 122
0.511076 0.633166 1.622000 125 106 124
0.508870 0.633261 1.615000 126 108 122
0.506350 0.632937 1.607000 128 104 121
0.504144 0.632981 1.600000 130 102 120
0.501623 0.632603 1.592000 131 106 119
0.501623 0.635390 1.592000 133 110 117
0.497212 0.632564 1.578000 134 108 116
0.492486 0.629287 1.563000 136 107 118
0.488074 0.626362 1.549000 132 111 120
0.485869 0.626231 1.542000 128 114 123
0.481773 0.623628 1.529000 128 109 126
0.481773 0.626305 1.529000 129 106 126
0.479567 0.626101 1.522000 132 106 126
0.479567 0.628766 1.522000 136 104 126
0.475471 0.626037 1.509000 131 104 126
0.473265 0.625762 1.502000 127 109 128
0.471375 0.625881 1.496000 127 110 130
1.033534 0.742317 3.262000 76 61 57
1.043356 0.755136 3.293000 90 62 66
1.043356 0.760900 3.293000 104 62 60
1.033534 0.759448 3.262000 97 62 54
1.033534 0.765158 3.262000 91 62 55
1.033534 0.770868 3.262000 85 62 56
1.023712 0.769198 3.231000 79 61 55
0.969215 0.733605 3.059000 85 60 53
0.969215 0.738960 3.059000 91 60 54
0.960977 0.737988 3.033000 90 59 56
0.952423 0.736681 3.006000 90 60 61
0.952423 0.741943 3.006000 92 61 67
0.944185 0.740742 2.980000 95 63 63
0.936264 0.739700 2.955000 95 66 59
0.928343 0.738571 2.930000 95 69 59
0.920422 0.737355 2.905000 95 75 58
0.920422 0.742440 2.905000 95 73 57
0.920422 0.747525 2.905000 90 69 56
0.869093 0.710640 2.743000 86 71 58
0.869093 0.715442 2.743000 90 78 61
0.862440 0.714729 2.722000 94 75 60
0.855786 0.713943 2.701000 96 71 59
0.855786 0.718672 2.701000 99 72 63
0.855786 0.723400 2.701000 98 71 67
0.849133 0.722467 2.680000 98 73 66
0.829805 0.710607 2.619000 97 79 65
0.823469 0.709730 2.599000 97 79 69
0.817448 0.709058 2.580000 97 79 74
0.811112 0.708042 2.560000 98 78 75
0.805408 0.707514 2.542000 104 78 76
0.799389 0.706642 2.523000 111 77 76
0.787982 0.700913 2.487000 104 82 76
0.787982 0.705266 2.487000 98 82 79
0.782279 0.704484 2.469000 101 84 81
0.771190 0.698758 2.434000 104 83 87
0.760417 0.693198 2.400000 107 81 93
0.755348 0.692750 2.384000 111 78 88
0.749961 0.691954 2.367000 110 77 84
0.744892 0.691392 2.351000 109 79 86
0.739823 0.690774 2.335000 109 85 88
0.735070 0.690397 2.320000 110 86 89
0.730000 0.689669 2.304000 116 86 90
0.725248 0.689186 2.289000 122 86 91
0.710990 0.679565 2.244000 111 89 92
0.706554 0.679229 2.230000 101 87 96
0.697366 0.674249 2.201000 106 86 101
0.692930 0.673789 2.187000 111 83 97
0.692930 0.677617 2.187000 112 79 94
0.692930 0.681445 2.187000 113 83 92
0.688811 0.681200 2.174000 106 89 89
0.684375 0.680595 2.160000 100 91 96
0.680257 0.680257 2.147000 106 94 103
0.671702 0.675413 2.120000 113 94 103
0.667583 0.674960 2.107000 113 92 104
0.659662 0.670596 2.082000 113 92 99
0.655543 0.670030 2.069000 114 94 95
0.647939 0.665838 2.045000 116 93 101
0.644137 0.665489 2.033000 110 93 108
0.640335 0.665099 2.021000 105 94 101
0.636533 0.664667 2.009000 112 96 94
0.633047 0.664525 1.998000 120 93 97
0.629245 0.664010 1.986000 128 91 100
0.622275 0.660093 1.964000 136 95 104
0.622275 0.663531 1.964000 128 101 109
0.618473 0.662893 1.952000 120 93 103
0.614987 0.662556 1.941000 119 97 96
0.611819 0.662522 1.931000 118 94 104
0.611819 0.665903 1.931000 118 92 112
0.608334 0.665470 1.920000 118 91 108
0.604849 0.664999 1.909000 117 94 104
0.588690 0.650486 1.858000 117 99 101
0.582353 0.646701 1.838000 123 103 99
0.579184 0.646383 1.828000 130 103 105
0.576333 0.646384 1.819000 123 100 111
0.573164 0.645998 1.809000 117 86 100
0.573164 0.649164 1.809000 108 87 90
0.570313 0.649086 1.800000 100 98 98
0.564293 0.645352 1.781000 118 103 107
0.561441 0.645192 1.772000 136 101 109
0.558590 0.645002 1.763000 129 100 111
0.555738 0.644779 1.754000 122 100 113
0.554154 0.646003 1.749000 124 100 115
0.552887 0.647580 1.745000 126 104 115
0.550035 0.647279 1.736000 126 107 116
0.539263 0.637581 1.702000 126 105 109
0.534193 0.634539 1.686000 126 106 102
0.531341 0.634087 1.677000 127 102 110
0.528807 0.633984 1.669000 127 100 119
0.528807 0.636906 1.669000 127 102 117
0.526272 0.636760 1.661000 127 104 116
0.523737 0.636587 1.653000 127 107 115
0.521203 0.636386 1.645000 125 105 114
0.518985 0.636545 1.638000 123 104 117
0.513915 0.633166 1.622000 123 109 121
0.511697 0.633261 1.615000 123 107 119
0.511697 0.636088 1.615000 126 106 117
0.509163 0.635750 1.607000 130 104 118
0.506945 0.635782 1.600000 131 104 120
0.504410 0.635390 1.592000 132 106 119
0.497756 0.629758 1.571000 131 108 119
0.495222 0.629287 1.563000 130 108 120
0.490786 0.626362 1.549000 130 109 122
0.488568 0.626231 1.542000 131 108 126
0.484449 0.623628 1.529000 130 107 130
0.482231 0.623437 1.522000 129 106 128
0.482231 0.626101 1.522000 131 106 126
0.482231 0.628766 1.522000 133 104 125
0.478112 0.626037 1.509000 130 102 125
0.475894 0.625762 1.502000 128 108 124
0.471776 0.622952 1.489000 128 113 124
1.039244 0.742317 3.262000 83 59 54
1.049120 0.755136 3.293000 89 62 58
1.049120 0.760900 3.293000 96 64 56
1.039244 0.759448 3.262000 93 62 54
1.039244 0.765158 3.262000 91 65 55
1.039244 0.770868 3.262000 91 63 56
1.029368 0.769198 3.231000 91 62 55
1.019810 0.767659 3.201000 90 60 54
0.992411 0.752488 3.115000 90 60 55
0.966287 0.737988 3.033000 90 59 56
0.957685 0.736681 3.006000 90 56 57
0.957685 0.741943 3.006000 94 60 58
0.949401 0.740742 2.980000 98 62 59
0.949401 0.745958 2.980000 92 65 60
0.933472 0.738571 2.930000 85 68 59
0.925507 0.737355 2.905000 89 70 58
0.925507 0.742440 2.905000 93 72 55
0.925507 0.747525 2.905000 92 68 53
0.873895 0.710640 2.743000 91 68 54
0.873895 0.715442 2.743000 91 74 56
0.860514 0.709215 2.701000 92 76 52
0.860514 0.713943 2.701000 95 72 49
0.860514 0.718672 2.701000 98 73 59
0.853824 0.717775 2.680000 98 70 70
0.847134 0.716805 2.659000 98 72 77
0.840762 0.716033 2.639000 98 76 84
0.834390 0.715191 2.619000 97 79 80
0.821965 0.709058 2.580000 97 78 76
0.815593 0.708042 2.560000 98 78 76
0.809858 0.707514 2.542000 101 78 76
0.803805 0.706642 2.523000 104 81 76
0.792336 0.700913 2.487000 97 81 76
0.792336 0.705266 2.487000 91 80 79
0.786601 0.704484 2.469000 98 81 83
0.780867 0.703638 2.451000 105 85 91
0.764619 0.693198 2.400000 110 80 100
0.754105 0.687810 2.367000 115 76 92
0.749008 0.687276 2.351000 113 77 85
0.743910 0.686686 2.335000 110 79 87
0.739131 0.686336 2.320000 110 83 90
0.739131 0.690397 2.320000 110 88 89
0.734034 0.689669 2.304000 114 86 89
0.729255 0.689186 2.289000 118 84 92
0.719697 0.684108 2.259000 112 86 95
0.710458 0.679229 2.230000 106 86 101
0.701219 0.674249 2.201000 108 85 107
0.701219 0.678102 2.201000 111 83 102
0.696759 0.677617 2.187000 112 82 97
0.696759 0.681445 2.187000 113 84 95
0.692617 0.681200 2.174000 109 88 94
0.688157 0.680595 2.160000 105 92 99
0.684015 0.680257 2.147000 110 93 104
0.679555 0.679555 2.133000 116 98 101
0.675413 0.679124 2.120000 111 93 98
0.667448 0.674783 2.095000 107 93 94
0.659165 0.670030 2.069000 110 94 90
0.651519 0.665838 2.045000 114 93 101
0.647696 0.665489 2.033000 111 92 113
0.643872 0.665099 2.021000 108 92 100
0.640049 0.664667 2.009000 113 93 87
0.636545 0.664525 1.998000 118 92 91
0.632722 0.664010 1.986000 124 93 96
0.625713 0.660093 1.964000 129 97 100
0.625713 0.663531 1.964000 124 93 104
0.621890 0.662893 1.952000 119 83 103
0.618385 0.662556 1.941000 116 93 102
0.615199 0.662522 1.931000 113 96 105
0.615199 0.665903 1.931000 115 92 108
0.611695 0.665470 1.920000 117 91 105
0.605004 0.661516 1.899000 117 95 102
0.591942 0.650486 1.858000 117 100 97
0.588756 0.650220 1.848000 121 102 92
0.585570 0.649919 1.838000 124 104 97
0.579517 0.646384 1.819000 119 92 103
0.579517 0.649569 1.819000 113 80 100
0.576331 0.649164 1.809000 110 85 97
0.573464 0.649086 1.800000 107 97 102
0.567411 0.645352 1.781000 118 100 108
0.564543 0.645192 1.772000 129 103 110
0.561676 0.645002 1.763000 123 101 112
0.558809 0.644779 1.754000 117 101 114
0.558809 0.647850 1.754000 122 102 116
0.555941 0.647580 1.745000 128 104 113
0.553074 0.647279 1.736000 126 104 111
0.542242 0.637581 1.702000 125 103 111
0.537144 0.634539 1.686000 125 104 112
0.534277 0.634087 1.677000 125 103 118
0.531728 0.633984 1.669000 124 101 125
0.531728 0.636906 1.669000 122 102 120
0.529180 0.636760 1.661000 126 103 116
0.526631 0.636587 1.653000 130 106 112
0.524082 0.636386 1.645000 127 106 108
0.521852 0.636545 1.638000 124 107 113
0.516755 0.633166 1.622000 122 106 118
0.514525 0.633261 1.615000 121 105 115
0.514525 0.636088 1.615000 129 104 113
0.511976 0.635750 1.607000 137 105 117
0.507197 0.632603 1.592000 133 105 122
0.507197 0.635390 1.592000 130 105 122
0.500507 0.629758 1.571000 129 106 122
0.497958 0.629287 1.563000 128 109 123
0.494453 0.627575 1.552000 131 107 125
0.493498 0.629074 1.549000 133 104 130
0.489356 0.626483 1.536000 131 106 135
0.487126 0.626305 1.529000 130 107 131
0.484896 0.626101 1.522000 133 106 127
0.482665 0.625874 1.515000 136 105 125
0.478524 0.623133 1.502000 132 106 124
0.478524 0.625762 1.502000 128 110 121
0.476612 0.625881 1.496000 128 110 119
1.054885 0.743607 3.293000 96 55 45
1.044954 0.742317 3.262000 90 58 49
1.044954 0.748027 3.262000 89 63 53
1.044954 0.753737 3.262000 89 62 54
1.044954 0.759448 3.262000 90 60 55
1.035023 0.757886 3.231000 91 61 55
1.035023 0.763542 3.231000 97 64 55
1.035023 0.769198 3.231000 103 61 50
1.016123 0.760705 3.172000 96 59 46
0.997864 0.752488 3.115000 89 61 50
0.971596 0.737988 3.033000 90 62 55
0.962947 0.736681 3.006000 91 60 56
0.954618 0.735525 2.980000 96 63 57
0.954618 0.740742 2.980000 102 64 57
0.946609 0.739700 2.955000 89 65 57
0.938601 0.738571 2.930000 76 67 59
0.930592 0.737355 2.905000 83 68 60
0.930592 0.742440 2.905000 91 69 58
0.918099 0.737489 2.866000 93 66 56
0.878697 0.710640 2.743000 96 69 57
0.878697 0.715442 2.743000 93 77 59
0.865242 0.709215 2.701000 91 74 57
0.858515 0.708392 2.680000 94 70 56
0.858515 0.713084 2.680000 97 70 62
0.858515 0.717775 2.680000 98 67 68
0.851788 0.716805 2.659000 99 70 72
0.845381 0.716033 2.639000 98 76 76
0.838974 0.715191 2.619000 98 76 76
0.832568 0.714279 2.599000 98 76 76
0.820074 0.708042 2.560000 98 77 75
0.814308 0.707514 2.542000 97 78 74
0.808222 0.706642 2.523000 97 80 75
0.796689 0.700913 2.487000 90 83 76
0.796689 0.705266 2.487000 84 79 79
0.790923 0.704484 2.469000 95 78 82
0.790923 0.708806 2.469000 106 80 87
0.779711 0.703018 2.434000 113 81 92
0.763694 0.692750 2.384000 120 78 85
0.753123 0.687276 2.351000 116 78 78
0.747997 0.686686 2.335000 112 80 86
0.743192 0.686336 2.320000 111 82 94
0.738067 0.685636 2.304000 111 84 92
0.738067 0.689669 2.304000 112 86 90
0.733262 0.689186 2.289000 114 85 93
0.723652 0.684108 2.259000 112 85 96
0.718846 0.683493 2.244000 111 84 95
0.709556 0.678538 2.215000 111 85 94
0.705072 0.678102 2.201000 111 84 94
0.705072 0.681955 2.201000 112 84 94
0.700587 0.681445 2.187000 114 86 94
0.696422 0.681200 2.174000 112 90 94
0.687773 0.676498 2.147000 110 90 100
0.683288 0.675821 2.133000 114 88 107
0.683288 0.679555 2.133000 119 89 103
0.679124 0.679124 2.120000 110 89 100
0.674960 0.678648 2.107000 101 91 97
0.666951 0.674240 2.082000 106 96 95
0.651254 0.661931 2.033000 112 92 102
0.647410 0.661561 2.021000 111 93 109
0.647410 0.665099 2.021000 111 93 100
0.643566 0.664667 2.009000 114 94 91
0.640042 0.664525 1.998000 117 93 93
0.636198 0.664010 1.986000 120 94 95
0.632675 0.663790 1.975000 123 94 98
0.629151 0.663531 1.964000 120 93 101
0.625307 0.662893 1.952000 118 91 99
0.618579 0.659142 1.931000 113 96 98
0.618579 0.662522 1.931000 109 95 101
0.615056 0.662109 1.920000 112 92 105
0.611532 0.661658 1.909000 116 93 103
0.608329 0.661516 1.899000 117 95 102
0.598398 0.653987 1.868000 118 96 99
0.591991 0.650220 1.848000 118 104 96
0.588788 0.649919 1.838000 119 98 99
0.585584 0.649583 1.828000 114 87 101
0.582701 0.649569 1.819000 110 74 95
0.579498 0.649164 1.809000 112 77 88
0.576615 0.649086 1.800000 115 93 98
0.570528 0.645352 1.781000 118 99 107
0.567645 0.645192 1.772000 122 100 110
0.564762 0.645002 1.763000 117 101 112
0.561879 0.644779 1.754000 112 102 115
0.558996 0.644525 1.745000 121 104 119
0.558996 0.647580 1.745000 130 103 113
0.556113 0.647279 1.736000 127 103 107
0.548104 0.640953 1.711000 125 103 109
0.542659 0.637550 1.694000 124 104 112
0.540096 0.637490 1.686000 124 102 117
0.537213 0.637023 1.677000 121 100 122
0.534650 0.636906 1.669000 118 100 120
0.532087 0.636760 1.661000 126 102 119
0.529525 0.636587 1.653000 134 104 120
0.526962 0.636386 1.645000 130 106 121
0.524719 0.636545 1.638000 126 106 120
0.519594 0.633166 1.622000 122 106 118
0.517352 0.633261 1.615000 119 105 117
0.514789 0.632937 1.607000 132 102 117
0.512546 0.632981 1.600000 145 104 119
0.509984 0.632603 1.592000 136 107 122
0.507741 0.632596 1.585000 128 105 125
0.503257 0.629758 1.571000 127 105 127
0.500694 0.629287 1.563000 127 107 127
0.498451 0.629193 1.556000 131 107 127
0.496209 0.629074 1.549000 136 106 129
0.492045 0.626483 1.536000 133 107 131
0.487560 0.623437 1.522000 131 107 128
0.487560 0.626101 1.522000 135 106 126
0.483395 0.623395 1.509000 140 105 125
0.481153 0.623133 1.502000 134 108 124
0.479231 0.623262 1.496000 128 109 123
0.479231 0.625881 1.496000 128 108 122
1.070634 0.744789 3.324000 93 49 39
1.060649 0.743607 3.293000 91 54 41
1.050664 0.742317 3.262000 89 57 44
1.050664 0.748027 3.262000 89 61 48
1.050664 0.753737 3.262000 89 62 52
1.050664 0.759448 3.262000 89 61 56
1.040679 0.757886 3.231000 90 57 55
1.040679 0.763542 3.231000 93 60 54
1.031017 0.762056 3.201000 97 60 46
1.012335 0.753750 3.143000 92 61 38
1.003317 0.752488 3.115000 88 63 46
0.976905 0.737988 3.033000 88 62 54
0.968209 0.736681 3.006000 88 60 55
0.968209 0.741943 3.006000 92 62 56
0.959834 0.740742 2.980000 97 68 55
0.951782 0.739700 2.955000 89 68 55
0.943730 0.738571 2.930000 81 69 59
0.935677 0.737355 2.905000 87 69 63
0.897993 0.712538 2.788000 92 70 61
0.910554 0.727454 2.827000 98 67 59
0.890584 0.716340 2.765000 103 67 61
0.883498 0.715442 2.743000 98 70 63
0.869971 0.709215 2.701000 93 73 63
0.863207 0.708392 2.680000 96 72 63
0.863207 0.713084 2.680000 100 72 65
0.863207 0.717775 2.680000 104 74 67
0.856443 0.716805 2.659000 108 67 68
0.850001 0.716033 2.639000 104 71 69
0.850001 0.720653 2.639000 100 74 73
0.843559 0.719776 2.619000 99 75 77
0.824556 0.708042 2.560000 99 77 74
0.812638 0.702226 2.523000 100 77 72
0.812638 0.706642 2.523000 101 78 74
0.801043 0.700913 2.487000 97 78 76
0.801043 0.705266 2.487000 94 78 79
0.795245 0.704484 2.469000 99 78 82
0.789448 0.703638 2.451000 103 79 83
0.783972 0.703018 2.434000 106 78 84
0.773021 0.697399 2.400000 109 78 77
0.762392 0.691954 2.367000 109 79 71
0.757238 0.691392 2.351000 108 82 84
0.747254 0.686336 2.320000 108 82 98
0.747254 0.690397 2.320000 109 83 95
0.742100 0.689669 2.304000 110 85 92
0.737269 0.689186 2.289000 111 86 94
0.727606 0.684108 2.259000 111 82 97
0.722775 0.683493 2.244000 112 80 89
0.718265 0.683133 2.230000 112 83 81
0.713434 0.682415 2.215000 112 85 86
0.708925 0.681955 2.201000 113 85 92
0.704415 0.681445 2.187000 114 86 93
0.695719 0.676813 2.160000 111 89 94
0.691532 0.676498 2.147000 109 93 102
0.687022 0.675821 2.133000 113 88 110
0.682835 0.675413 2.120000 117 81 106
0.678648 0.674960 2.107000 112 85 102
0.674783 0.674783 2.095000 107 86 101
0.670596 0.674240 2.082000 108 89 100
0.654813 0.661931 2.033000 110 87 103
0.650948 0.661561 2.021000 107 90 106
0.650948 0.665099 2.021000 104 94 100
0.643540 0.661027 1.998000 111 94 95
0.639675 0.660534 1.986000 119 95 95
0.639675 0.664010 1.986000 122 93 95
0.636132 0.663790 1.975000 125 92 96
0.632589 0.663531 1.964000 122 92 98
0.628724 0.662893 1.952000 118 94 96
0.621960 0.659142 1.931000 115 94 94
0.621960 0.662522 1.931000 113 96 98
0.618417 0.662109 1.920000 114 93 102
0.614874 0.661658 1.909000 116 94 102
0.611653 0.661516 1.899000 116 93 103
0.601668 0.653987 1.868000 116 87 102
0.598447 0.653738 1.858000 118 98 101
0.595226 0.653455 1.848000 119 100 100
0.588784 0.649583 1.828000 111 84 100
0.585885 0.649569 1.819000 103 55 90
0.585885 0.652753 1.819000 108 80 80
0.579766 0.649086 1.800000 113 99 93
0.573646 0.645352 1.781000 117 97 107
0.570747 0.645192 1.772000 122 97 110
0.567848 0.645002 1.763000 119 100 113
0.564949 0.644779 1.754000 117 102 117
0.563339 0.646003 1.749000 121 102 122
0.562051 0.647580 1.745000 126 101 112
0.559152 0.647279 1.736000 126 101 103
0.548201 0.637581 1.702000 126 103 107
0.543047 0.634539 1.686000 126 103 112
0.540148 0.634087 1.677000 127 104 115
0.540148 0.637023 1.677000 124 101 119
0.540148 0.639958 1.677000 122 99 120
0.537572 0.639827 1.669000 127 100 122
0.534995 0.639668 1.661000 132 105 128
0.532418 0.639481 1.653000 130 105 135
0.529841 0.639265 1.645000 128 106 127
0.525010 0.636289 1.630000 126 107 119
0.522433 0.636006 1.622000 124 108 120
0.520179 0.636088 1.615000 130 104 121
0.517602 0.635750 1.607000 136 104 122
0.512771 0.632603 1.592000 126 104 123
0.510516 0.632596 1.585000 117 103 128
0.506007 0.629758 1.571000 120 104 133
0.501175 0.626469 1.556000 123 107 131
0.501175 0.629193 1.556000 125 106 129
0.498921 0.629074 1.549000 127 106 128
0.494733 0.626483 1.536000 128 108 127
0.492479 0.626305 1.529000 129 108 126
0.490224 0.626101 1.522000 132 106 126
0.487969 0.625874 1.515000 135 103 125
0.483782 0.623133 1.502000 131 107 124
0.481850 0.623262 1.496000 127 112 124
0.479595 0.622952 1.489000 127 113 125
1.076452 0.744789 3.324000 84 51 33
1.056374 0.736607 3.262000 86 57 37
1.056374 0.742317 3.262000 88 60 42
1.056374 0.748027 3.262000 88 64 47
1.066413 0.760900 3.293000 89 63 51
1.056374 0.759448 3.262000 89 66 55
1.056374 0.765158 3.262000 89 61 55
1.046335 0.763542 3.231000 90 60 55
1.036620 0.762056 3.201000 91 61 50
1.027229 0.760705 3.172000 89 65 45
1.008770 0.752488 3.115000 88 63 51
0.999702 0.751127 3.087000 87 64 57
0.982214 0.743297 3.033000 86 60 55
0.973471 0.741943 3.006000 89 60 54
0.973471 0.747204 3.006000 92 66 55
0.965051 0.745958 2.980000 89 73 57
0.956955 0.744873 2.955000 87 70 58
0.948859 0.743700 2.930000 90 71 59
0.932990 0.736306 2.881000 94 70 61
0.902873 0.717418 2.788000 102 67 63
0.902873 0.722299 2.788000 111 67 67
0.888300 0.715442 2.743000 103 66 71
0.874699 0.709215 2.701000 95 69 68
0.867898 0.708392 2.680000 99 73 65
0.867898 0.713084 2.680000 104 76 64
0.867898 0.717775 2.680000 110 92 64
0.861097 0.716805 2.659000 117 74 66
0.861097 0.721460 2.659000 109 68 68
0.854620 0.720653 2.639000 102 73 72
0.854620 0.725272 2.639000 101 76 76
0.841667 0.718829 2.599000 101 76 69
0.823208 0.707514 2.542000 103 77 62
0.811226 0.701601 2.505000 105 76 68
0.805396 0.700913 2.487000 105 76 74
0.805396 0.705266 2.487000 105 76 77
0.799567 0.704484 2.469000 103 79 81
0.799567 0.708806 2.469000 101 78 83
0.788233 0.703018 2.434000 100 77 85
0.777222 0.697399 2.400000 99 78 80
0.766535 0.691954 2.367000 102 81 76
0.761354 0.691392 2.351000 105 80 85
0.751315 0.686336 2.320000 106 81 93
0.751315 0.690397 2.320000 107 82 92
0.746133 0.689669 2.304000 108 85 92
0.741276 0.689186 2.289000 109 83 94
0.731560 0.684108 2.259000 111 79 96
0.722169 0.679229 2.230000 113 81 91
0.717311 0.678538 2.215000 113 82 85
0.717311 0.682415 2.215000 114 84 88
0.712777 0.681955 2.201000 114 85 91
0.708244 0.681445 2.187000 114 86 89
0.699500 0.676813 2.160000 111 88 87
0.695290 0.676498 2.147000 109 89 96
0.690756 0.675821 2.133000 112 90 105
0.686546 0.675413 2.120000 116 86 102
0.682336 0.674960 2.107000 114 86 99
0.678450 0.674783 2.095000 113 88 99
0.674240 0.674240 2.082000 111 88 99
0.662258 0.665838 2.045000 109 88 100
0.658372 0.665489 2.033000 103 88 101
0.654486 0.665099 2.021000 98 91 99
0.647037 0.661027 1.998000 109 93 98
0.647037 0.664525 1.998000 121 92 97
0.643151 0.664010 1.986000 124 91 96
0.639589 0.663790 1.975000 128 91 97
0.632141 0.659477 1.952000 123 92 97
0.628578 0.659158 1.941000 119 93 97
0.625340 0.659142 1.931000 118 93 98
0.621778 0.658748 1.920000 117 93 101
0.618215 0.658316 1.909000 117 92 104
0.614977 0.658192 1.899000 117 94 107
0.611415 0.657684 1.888000 116 96 109
0.604938 0.653987 1.868000 115 96 106
0.601699 0.653738 1.858000 117 104 102
0.598461 0.653455 1.848000 120 100 103
0.595223 0.653136 1.838000 108 96 105
0.591984 0.652783 1.828000 96 84 97
0.585831 0.649164 1.809000 103 90 90
0.579678 0.645480 1.790000 111 95 98
0.576764 0.645352 1.781000 116 96 107
0.573849 0.645192 1.772000 122 97 107
0.570934 0.645002 1.763000 122 100 108
0.568020 0.644779 1.754000 122 100 113
0.568020 0.647850 1.754000 122 101 118
0.565105 0.647580 1.745000 123 99 111
0.562191 0.647279 1.736000 125 99 105
0.554095 0.640953 1.711000 127 103 108
0.548589 0.637550 1.694000 128 104 111
0.545999 0.637490 1.686000 130 104 113
0.543084 0.637023 1.677000 128 104 115
0.543084 0.639958 1.677000 127 100 117
0.540493 0.639827 1.669000 128 96 119
0.537902 0.639668 1.661000 130 101 123
0.535312 0.639481 1.653000 130 104 128
0.532721 0.639265 1.645000 130 105 123
0.527863 0.636289 1.630000 130 109 119
0.525273 0.636006 1.622000 130 105 118
0.523006 0.636088 1.615000 128 102 118
0.518148 0.632981 1.600000 127 102 118
0.515557 0.632603 1.592000 117 105 119
0.513290 0.632596 1.585000 107 104 121
0.508757 0.629758 1.571000 113 104 124
0.503899 0.626469 1.556000 120 106 124
0.503899 0.629193 1.556000 119 105 124
0.501632 0.629074 1.549000 119 106 123
0.497422 0.626483 1.536000 123 111 123
0.495155 0.626305 1.529000 128 109 124
0.492888 0.626101 1.522000 129 110 125
0.488678 0.623395 1.509000 131 106 124
0.486411 0.623133 1.502000 129 108 123
0.484468 0.623262 1.496000 127 115 121
0.482202 0.622952 1.489000 127 121 119
1.062084 0.742317 3.262000 87 64 40
1.062084 0.748027 3.262000 88 62 47
1.072178 0.760900 3.293000 89 61 51
1.062084 0.759448 3.262000 90 63 55
1.062084 0.765158 3.262000 92 64 55
1.051991 0.763542 3.231000 91 62 56
1.042223 0.762056 3.201000 90 60 54
1.023339 0.753750 3.143000 89 61 53
1.023339 0.759252 3.143000 89 60 56
1.005106 0.751127 3.087000 88 59 60
0.987524 0.743297 3.033000 87 57 56
0.978733 0.741943 3.006000 89 60 53
0.978733 0.747204 3.006000 90 65 56
0.970267 0.745958 2.980000 89 67 59
0.962127 0.744873 2.955000 87 67 57
0.970267 0.756391 2.980000 90 70 56
0.938033 0.736306 2.881000 92 72 61
0.922731 0.729255 2.834000 98 69 67
0.907753 0.722299 2.788000 103 69 73
0.893102 0.715442 2.743000 96 67 80
0.879427 0.709215 2.701000 90 65 73
0.872589 0.708392 2.680000 94 67 67
0.872589 0.713084 2.680000 99 69 64
0.872589 0.717775 2.680000 98 73 62
0.865752 0.716805 2.659000 97 72 65
0.865752 0.721460 2.659000 98 71 68
0.859240 0.720653 2.639000 99 76 72
0.859240 0.725272 2.639000 101 75 76
0.846216 0.718829 2.599000 103 76 64
0.833518 0.712524 2.560000 107 74 53
0.821471 0.706642 2.523000 111 73 62
0.809750 0.700913 2.487000 108 73 72
0.809750 0.705266 2.487000 105 72 76
0.803889 0.704484 2.469000 103 76 80
0.803889 0.708806 2.469000 101 79 83
0.792493 0.703018 2.434000 96 78 86
0.781423 0.697399 2.400000 92 79 84
0.770679 0.691954 2.367000 97 80 82
0.765469 0.691392 2.351000 103 79 85
0.755376 0.686336 2.320000 104 80 89
0.755376 0.690397 2.320000 104 82 90
0.750166 0.689669 2.304000 104 84 92
0.745282 0.689186 2.289000 103 84 94
0.735515 0.684108 2.259000 107 82 96
0.726072 0.679229 2.230000 110 83 93
0.721188 0.678538 2.215000 111 83 90
0.716630 0.678102 2.201000 113 85 90
0.716630 0.681955 2.201000 113 86 91
0.712072 0.681445 2.187000 114 88 86
0.707839 0.681200 2.174000 113 88 81
0.699048 0.676498 2.147000 111 87 90
0.699048 0.680257 2.147000 112 87 100
0.690257 0.675413 2.120000 114 88 98
0.686024 0.674960 2.107000 112 90 97
0.677885 0.670596 2.082000 111 92 98
0.673652 0.670030 2.069000 110 90 99
0.665838 0.665838 2.045000 109 91 98
0.661931 0.665489 2.033000 106 91 97
0.658023 0.665099 2.021000 104 90 99
0.652163 0.662682 2.003000 111 91 101
0.652163 0.666188 2.003000 119 91 99
0.646628 0.664010 1.986000 122 90 98
0.643046 0.663790 1.975000 124 92 97
0.639465 0.663531 1.964000 121 92 97
0.631976 0.659158 1.941000 117 94 99
0.628720 0.659142 1.931000 119 94 102
0.625139 0.658748 1.920000 121 94 104
0.621557 0.658316 1.909000 116 97 107
0.618301 0.658192 1.899000 111 94 111
0.614720 0.657684 1.888000 113 95 116
0.608208 0.653987 1.868000 115 97 110
0.604952 0.653738 1.858000 117 100 104
0.601696 0.653455 1.848000 120 100 107
0.598440 0.653136 1.838000 112 98 110
0.595184 0.652783 1.828000 105 96 105
0.592254 0.652753 1.819000 108 94 100
0.586067 0.649086 1.800000 112 97 103
0.579881 0.645352 1.781000 116 97 107
0.576951 0.645192 1.772000 120 97 105
0.574020 0.645002 1.763000 122 99 104
0.571090 0.644779 1.754000 124 99 109
0.571090 0.647850 1.754000 123 98 115
0.568160 0.647580 1.745000 123 97 111
0.565229 0.647279 1.736000 124 101 107
0.559694 0.643950 1.719000 126 106 109
0.554159 0.640561 1.702000 123 104 111
0.548950 0.637490 1.686000 121 104 111
0.548950 0.640442 1.686000 124 103 112
0.546019 0.639958 1.677000 127 102 114
0.543415 0.639827 1.669000 129 99 116
0.540810 0.639668 1.661000 131 100 119
0.538205 0.639481 1.653000 130 101 122
0.535600 0.639265 1.645000 130 102 120
0.528112 0.633166 1.622000 130 102 119
0.525833 0.633261 1.615000 130 102 117
0.525833 0.636088 1.615000 128 100 116
0.523228 0.635750 1.607000 127 99 115
0.518344 0.632603 1.592000 123 104 115
0.516065 0.632596 1.585000 119 107 115
0.513786 0.632564 1.578000 121 106 116
0.506623 0.626469 1.556000 123 108 117
0.506623 0.629193 1.556000 122 106 119
0.504344 0.629074 1.549000 122 105 119
0.500111 0.626483 1.536000 125 107 120
0.495553 0.623437 1.522000 128 108 122
0.495553 0.626101 1.522000 129 107 124
0.491320 0.623395 1.509000 131 106 123
0.489041 0.623133 1.502000 128 110 122
0.487087 0.623262 1.496000 125 120 117
0.484808 0.622952 1.489000 125 118 113
1.088090 0.762245 3.324000 88 60 44
1.088090 0.768064 3.324000 89 62 49
1.077942 0.766665 3.293000 92 63 55
1.067795 0.765158 3.262000 96 64 57
1.057647 0.763542 3.231000 92 64 59
1.047827 0.762056 3.201000 89 61 54
1.028841 0.753750 3.143000 90 60 50
1.028841 0.759252 3.143000 91 58 59
1.019675 0.757940 3.115000 90 56 68
1.001344 0.749669 3.059000 89 57 59
0.992833 0.748607 3.033000 89 60 50
0.983995 0.747204 3.006000 89 63 53
0.975484 0.745958 2.980000 88 65 56
0.967300 0.744873 2.955000 88 67 50
0.959117 0.743700 2.930000 89 71 44
0.943077 0.736306 2.881000 91 71 54
0.927692 0.729255 2.834000 93 69 64
0.912634 0.722299 2.788000 96 68 67
0.897903 0.715442 2.743000 90 69 70
0.891029 0.714729 2.722000 85 65 69
0.884155 0.713943 2.701000 89 64 67
0.877281 0.713084 2.680000 94 66 70
0.877281 0.717775 2.680000 86 60 72
0.870407 0.716805 2.659000 78 68 71
0.863860 0.716033 2.639000 87 69 71
0.863860 0.720653 2.639000 96 70 73
0.863860 0.725272 2.639000 101 72 76
0.850766 0.718829 2.599000 106 73 72
0.838000 0.712524 2.560000 111 71 68
0.825888 0.706642 2.523000 117 71 70
0.814103 0.700913 2.487000 111 74 73
0.814103 0.705266 2.487000 106 73 77
0.814103 0.709620 2.487000 104 77 82
0.802319 0.703638 2.451000 102 77 83
0.796754 0.703018 2.434000 93 78 85
0.785624 0.697399 2.400000 85 79 80
0.769585 0.687276 2.351000 93 81 76
0.764347 0.686686 2.335000 102 80 81
0.759437 0.686336 2.320000 102 81 86
0.759437 0.690397 2.320000 102 84 88
0.754200 0.689669 2.304000 100 86 90
0.749289 0.689186 2.289000 98 83 92
0.739469 0.684108 2.259000 103 82 95
0.729976 0.679229 2.230000 108 82 93
0.725066 0.678538 2.215000 110 85 91
0.720483 0.678102 2.201000 112 86 94
0.715900 0.677617 2.187000 113 88 98
0.715900 0.681445 2.187000 115 89 92
0.711645 0.681200 2.174000 114 90 86
0.702807 0.676498 2.147000 114 88 92
0.702807 0.680257 2.147000 113 86 98
0.693968 0.675413 2.120000 112 90 98
0.689713 0.674960 2.107000 110 95 98
0.685785 0.674783 2.095000 109 94 98
0.681529 0.674240 2.082000 109 92 98
0.669418 0.665838 2.045000 109 93 94
0.665489 0.665489 2.033000 109 96 91
0.661561 0.665099 2.021000 110 93 100
0.657633 0.664667 2.009000 114 93 109
0.657633 0.668183 2.009000 118 91 104
0.650104 0.664010 1.986000 119 88 99
0.646504 0.663790 1.975000 121 90 99
0.642903 0.663531 1.964000 118 93 100
0.635374 0.659158 1.941000 116 94 101
0.632100 0.659142 1.931000 120 95 102
0.624899 0.654974 1.909000 125 98 104
0.624899 0.658316 1.909000 115 109 106
0.621625 0.658192 1.899000 105 98 109
0.618025 0.657684 1.888000 110 96 112
0.611478 0.653987 1.868000 116 97 108
0.608204 0.653738 1.858000 118 100 103
0.604931 0.653455 1.848000 120 100 106
0.601657 0.653136 1.838000 117 100 108
0.601657 0.656354 1.838000 115 97 105
0.595438 0.652753 1.819000 114 95 101
0.592164 0.652331 1.809000 113 96 103
0.585945 0.648613 1.790000 115 100 105
0.580053 0.645192 1.772000 118 100 102
0.577107 0.645002 1.763000 122 101 99
0.574161 0.644779 1.754000 126 99 109
0.574161 0.647850 1.754000 125 97 119
0.571214 0.647580 1.745000 124 99 111
0.568268 0.647279 1.736000 124 103 104
0.562704 0.643950 1.719000 125 103 107
0.557139 0.640561 1.702000 119 104 110
0.551901 0.637490 1.686000 113 104 107
0.551901 0.640442 1.686000 120 105 104
0.548955 0.639958 1.677000 128 102 113
0.548955 0.642894 1.677000 130 98 121
0.546336 0.642749 1.669000 132 99 120
0.543718 0.642576 1.661000 131 99 120
0.538480 0.639265 1.645000 131 99 116
0.530951 0.633166 1.622000 131 98 113
0.528660 0.633261 1.615000 131 99 115
0.526041 0.632937 1.607000 129 98 116
0.523750 0.632981 1.600000 127 101 115
0.521131 0.632603 1.592000 129 105 115
0.518839 0.632596 1.585000 131 106 112
0.516548 0.632564 1.578000 128 106 110
0.511638 0.629287 1.563000 126 107 110
0.509347 0.629193 1.556000 126 108 109
0.507055 0.629074 1.549000 126 105 115
0.502800 0.626483 1.536000 127 106 120
0.498217 0.623437 1.522000 129 106 121
0.498217 0.626101 1.522000 130 106 122
0.493961 0.623395 1.509000 131 107 123
0.491670 0.623133 1.502000 127 108 123
0.489706 0.623262 1.496000 123 113 120
0.487415 0.622952 1.489000 123 111 118
1.149525 0.201778 3.493000 96 46 17
1.138007 0.205810 3.458000 95 44 21
1.138007 0.211863 3.458000 94 46 26
1.126489 0.215711 3.423000 93 49 35
1.308149 0.417494 3.975000 92 55 10
1.308149 0.424453 3.975000 94 55 10
1.308149 0.688866 3.975000 58 43 10
1.093908 0.768064 3.324000 88 66 48
1.083706 0.766665 3.293000 89 66 55
1.083706 0.772429 3.293000 91 66 58
1.073505 0.770868 3.262000 89 64 62
1.053430 0.762056 3.201000 87 62 54
1.034343 0.753750 3.143000 90 60 47
1.034343 0.759252 3.143000 94 58 61
1.025128 0.757940 3.115000 90 55 76
1.006699 0.749669 3.059000 86 55 61
0.998142 0.748607 3.033000 87 59 47
