ply
format ascii 1.0
element vertex 1278
property float x
property float y
property float z
property uchar red
property uchar green
property uchar blue
end_header
-0.435244 0.057514 0.888000 56 44 1
-0.434264 0.058936 0.886000 52 50 8
-0.435244 0.060623 0.888000 55 50 15
-0.434264 0.062038 0.886000 59 50 18
-0.434264 0.063589 0.886000 57 47 21
-0.434264 0.065140 0.886000 56 48 20
-0.434264 0.066691 0.886000 56 48 20
-0.434264 0.068242 0.886000 56 50 26
-0.435244 0.069950 0.888000 51 47 32
-0.435244 0.071504 0.888000 46 49 28
-0.435244 0.073059 0.888000 50 46 25
-0.435244 0.074613 0.888000 55 43 33
-0.435244 0.076168 0.888000 56 43 42
-0.435244 0.077722 0.888000 57 49 45
-0.435244 0.079277 0.888000 57 48 49
-0.435244 0.080831 0.888000 57 49 41
-0.434264 0.082200 0.886000 57 46 34
-0.434264 0.083751 0.886000 58 45 24
-0.434264 0.085302 0.886000 58 44 14
-0.435244 0.087049 0.888000 59 44 24
-0.434264 0.088404 0.886000 58 42 35
-0.432794 0.089650 0.883000 58 41 29
-0.432794 0.091196 0.883000 60 38 23
-0.432794 0.092742 0.883000 62 37 22
-0.431813 0.094074 0.881000 61 37 21
-0.431813 0.095616 0.881000 59 36 13
-0.430833 0.096937 0.879000 60 40 5
-0.431813 0.098700 0.881000 61 44 22
-0.431813 0.100242 0.881000 57 45 40
-0.431813 0.101785 0.881000 53 46 39
-0.432794 0.103561 0.883000 50 45 38
-0.432794 0.105107 0.883000 48 43 41
-0.432794 0.106653 0.883000 51 42 44
-0.431813 0.107953 0.881000 55 41 28
-0.432794 0.109744 0.883000 55 39 13
-0.432794 0.111290 0.883000 56 42 22
-0.432794 0.112836 0.883000 56 42 31
-0.432794 0.114381 0.883000 57 42 28
-0.431813 0.115664 0.881000 56 43 26
-0.431813 0.117207 0.881000 56 46 16
-0.431813 0.118749 0.881000 55 46 7
-0.431813 0.120291 0.881000 54 41 12
-0.431813 0.121833 0.881000 53 41 17
-0.430833 0.123095 0.879000 52 45 29
-0.430833 0.124634 0.879000 53 44 42
-0.431813 0.126460 0.881000 54 44 39
-0.431813 0.128002 0.881000 50 41 36
-0.431813 0.129544 0.881000 46 40 30
-0.429853 0.130491 0.877000 49 41 25
-0.430833 0.132327 0.879000 52 41 13
-0.429853 0.133561 0.877000 54 41 1
-0.430833 0.135405 0.879000 57 46 13
-0.429853 0.136632 0.877000 57 44 26
-0.428382 0.137694 0.874000 57 42 23
-0.428382 0.139224 0.874000 54 42 21
-0.429853 0.141237 0.877000 51 42 31
-0.429853 0.142773 0.877000 50 41 41
-0.429853 0.144308 0.877000 50 41 37
-0.429853 0.145843 0.877000 47 46 33
-0.429853 0.147378 0.877000 45 50 18
-0.429853 0.148913 0.877000 49 47 4
-0.429853 0.150449 0.877000 53 49 12
-0.429853 0.151984 0.877000 52 45 21
-0.429853 0.153519 0.877000 52 44 28
-0.429853 0.155054 0.877000 56 39 35
-0.429853 0.156589 0.877000 60 34 18
-0.429853 0.158124 0.877000 54 37 2
-0.428382 0.159113 0.874000 47 36 20
-0.428382 0.160643 0.874000 52 39 38
-0.428382 0.162173 0.874000 56 41 29
-0.428382 0.163703 0.874000 57 40 21
-0.428382 0.165233 0.874000 57 38 37
-0.428382 0.166763 0.874000 56 39 53
-0.428382 0.168293 0.874000 55 38 27
-0.428382 0.169823 0.874000 51 37 2
-0.428382 0.171353 0.874000 47 45 12
-0.428382 0.172883 0.874000 53 45 22
-0.428382 0.174413 0.874000 58 44 27
-0.427402 0.175540 0.872000 56 38 33
-0.426422 0.176661 0.870000 53 39 41
-0.426422 0.178183 0.870000 46 36 50
-0.427402 0.180119 0.872000 40 35 48
-0.427402 0.181646 0.872000 45 39 46
-0.427402 0.183172 0.872000 50 39 49
-0.427402 0.184699 0.872000 48 40 53
-0.427402 0.186225 0.872000 45 46 44
-0.427402 0.187752 0.872000 50 42 35
-0.428382 0.189712 0.874000 55 39 33
-0.427402 0.190805 0.872000 51 41 31
-0.427402 0.192331 0.872000 48 46 25
-0.427402 0.193857 0.872000 47 43 20
-0.427402 0.195384 0.872000 46 43 25
-0.426422 0.196459 0.870000 45 43 31
-0.426422 0.197982 0.870000 43 45 31
-0.426422 0.199505 0.870000 46 41 31
-0.426422 0.201027 0.870000 49 39 34
-0.426422 0.202550 0.870000 48 43 38
-0.426422 0.204073 0.870000 48 45 32
-0.424461 0.204651 0.866000 49 44 26
-0.424461 0.206167 0.866000 50 44 23
-0.424461 0.207683 0.866000 49 42 21
-0.424461 0.209199 0.866000 48 41 21
-0.426422 0.211688 0.870000 50 41 21
-0.426422 0.213211 0.870000 52 42 18
-0.427402 0.215228 0.872000 52 39 16
-0.426422 0.216257 0.870000 51 41 18
-0.427402 0.218280 0.872000 51 41 21
-0.427402 0.219807 0.872000 50 43 14
-0.426422 0.220826 0.870000 50 42 8
-0.426422 0.222349 0.870000 51 42 24
-0.424461 0.222842 0.866000 50 42 40
-0.424461 0.224358 0.866000 50 39 36
-0.424461 0.225874 0.866000 50 42 32
-0.422991 0.226602 0.863000 50 45 26
-0.422991 0.228113 0.863000 47 39 21
-0.422011 0.229091 0.861000 44 39 17
-0.422991 0.231134 0.863000 46 42 14
-0.422991 0.232645 0.863000 48 45 7
-0.422991 0.234156 0.863000 49 40 1
-0.422991 0.235666 0.863000 51 38 5
-0.422991 0.237177 0.863000 48 36 9
-0.422991 0.238688 0.863000 45 35 17
-0.422991 0.240198 0.863000 45 35 26
-0.422991 0.241709 0.863000 46 36 23
-0.422991 0.243220 0.863000 46 38 21
-0.422991 0.244730 0.863000 45 42 13
-0.422991 0.246241 0.863000 46 47 5
-0.422991 0.247752 0.863000 48 58 23
-0.422991 0.249263 0.863000 52 36 41
-0.422991 0.250773 0.863000 56 28 51
-0.422991 0.252284 0.863000 52 29 62
-0.422991 0.253795 0.863000 49 31 45
-0.422991 0.255305 0.863000 47 37 28
-0.422991 0.256816 0.863000 44 41 28
-0.422991 0.258327 0.863000 42 40 28
-0.422991 0.259837 0.863000 39 42 19
-0.422991 0.261348 0.863000 44 37 10
-0.422991 0.262859 0.863000 48 37 15
-0.422011 0.263757 0.861000 48 37 21
-0.422011 0.265264 0.861000 49 39 21
-0.422011 0.266771 0.861000 42 38 21
-0.422011 0.268278 0.861000 35 40 24
-0.421030 0.269159 0.859000 43 33 28
-0.420050 0.270032 0.857000 51 30 23
-0.420050 0.271532 0.857000 49 33 19
-0.420050 0.273033 0.857000 47 40 24
-0.420050 0.274533 0.857000 45 39 29
-0.420050 0.276033 0.857000 43 38 24
-0.421030 0.278181 0.859000 45 38 19
-0.421030 0.279684 0.859000 47 39 22
-0.422011 0.281843 0.861000 46 31 26
-0.422991 0.284008 0.863000 46 28 28
-0.422991 0.285519 0.863000 43 33 30
-0.422011 0.286364 0.861000 40 35 21
-0.421030 0.287203 0.859000 40 32 13
-0.421030 0.288706 0.859000 40 29 7
-0.421030 0.290210 0.859000 45 34 1
-0.421030 0.291714 0.859000 50 37 5
-0.421030 0.293218 0.859000 48 37 9
-0.421030 0.294721 0.859000 47 38 10
-0.422011 0.296915 0.861000 46 38 11
-0.422011 0.298422 0.861000 46 42 13
-0.422011 0.299929 0.861000 49 35 15
-0.422011 0.301436 0.861000 52 34 8
-0.421030 0.302240 0.859000 49 35 2
-0.421030 0.303743 0.859000 47 34 7
-0.421030 0.305247 0.859000 52 36 13
-0.420050 0.306036 0.857000 57 39 12
-0.420050 0.307537 0.857000 54 40 11
-0.420050 0.309037 0.857000 51 37 9
-0.420050 0.310537 0.857000 51 33 8
-0.420050 0.312037 0.857000 50 30 14
-0.420050 0.313537 0.857000 47 31 20
-0.419070 0.314302 0.855000 45 35 16
-0.419070 0.315799 0.855000 45 38 12
-0.420050 0.318038 0.857000 46 36 13
-0.420050 0.319538 0.857000 48 35 14
-0.420050 0.321038 0.857000 50 39 17
-0.420050 0.322538 0.857000 43 38 21
-0.420050 0.324039 0.857000 36 44 21
-0.420050 0.325539 0.857000 40 38 21
-0.421030 0.327802 0.859000 45 31 22
-0.420050 0.328539 0.857000 48 34 24
-0.420050 0.330039 0.857000 51 37 35
-0.419070 0.330766 0.855000 44 39 46
-0.420050 0.333040 0.857000 38 41 36
-0.420050 0.334540 0.857000 41 41 27
-0.419070 0.335256 0.855000 44 39 23
-0.419070 0.336753 0.855000 47 35 19
-0.419070 0.338249 0.855000 50 34 23
-0.419070 0.339746 0.855000 48 32 28
-0.419070 0.341242 0.855000 46 31 30
-0.419070 0.342739 0.855000 46 27 33
-0.419070 0.344236 0.855000 46 30 17
-0.419070 0.345733 0.855000 41 29 1
-0.418089 0.346417 0.853000 36 28 6
-0.419070 0.348726 0.855000 42 31 12
-0.419070 0.350223 0.855000 48 39 19
-0.419070 0.351719 0.855000 45 34 26
-0.419070 0.353216 0.855000 42 30 20
-0.419070 0.354713 0.855000 41 33 14
-0.419070 0.356209 0.855000 41 35 8
-0.418089 0.356869 0.853000 41 36 2
-0.449807 -0.328891 0.921000 35 38 25
-0.449807 -0.327279 0.921000 42 39 13
-0.449807 -0.325667 0.921000 49 40 24
-0.449807 -0.324054 0.921000 51 42 35
-0.449807 -0.322442 0.921000 53 44 33
-0.449807 -0.320830 0.921000 50 53 30
-0.449807 -0.319218 0.921000 48 47 39
-0.449807 -0.317605 0.921000 48 48 48
-0.449807 -0.315993 0.921000 48 47 38
-0.449807 -0.314381 0.921000 46 50 28
-0.450784 -0.313448 0.923000 44 49 21
-0.450784 -0.311832 0.923000 41 49 15
-0.450784 -0.310217 0.923000 39 47 13
-0.450784 -0.308601 0.923000 46 49 11
-0.450784 -0.306985 0.923000 53 42 10
-0.450784 -0.305369 0.923000 54 40 10
-0.450784 -0.303754 0.923000 55 41 19
-0.449807 -0.301483 0.921000 52 44 28
-0.450784 -0.300522 0.923000 50 40 30
-0.452249 -0.299878 0.926000 45 41 32
-0.449807 -0.296647 0.921000 40 42 39
-0.448830 -0.294394 0.919000 49 41 47
-0.448830 -0.292785 0.919000 58 41 26
-0.449807 -0.291810 0.921000 55 44 5
-0.448830 -0.289568 0.919000 53 42 26
-0.448830 -0.287959 0.919000 53 44 48
-0.448830 -0.286350 0.919000 54 38 40
-0.448830 -0.284742 0.919000 55 36 33
-0.448830 -0.283133 0.919000 56 41 22
-0.448830 -0.281524 0.919000 57 45 12
-0.448830 -0.279915 0.919000 58 43 22
-0.448830 -0.278307 0.919000 55 42 32
-0.447365 -0.275795 0.916000 53 40 36
-0.447365 -0.274191 0.916000 53 45 39
-0.447365 -0.272588 0.916000 54 46 37
-0.446388 -0.270393 0.914000 53 45 35
-0.446388 -0.268793 0.914000 53 44 31
-0.446388 -0.267193 0.914000 54 46 27
-0.446388 -0.265593 0.914000 55 45 30
-0.444923 -0.263126 0.911000 54 44 34
-0.446388 -0.262393 0.914000 54 44 27
-0.446388 -0.260793 0.914000 55 45 21
-0.447365 -0.259760 0.916000 56 42 23
-0.447365 -0.258157 0.916000 55 45 26
-0.449807 -0.257954 0.921000 54 43 27
-0.447365 -0.254950 0.916000 47 47 29
-0.446388 -0.252793 0.914000 40 49 35
-0.446388 -0.251193 0.914000 45 45 41
-0.446388 -0.249593 0.914000 51 41 40
-0.446388 -0.247993 0.914000 52 40 38
-0.444923 -0.245585 0.911000 53 44 31
-0.444923 -0.243990 0.911000 44 51 24
-0.444923 -0.242395 0.911000 36 50 24
-0.444923 -0.240801 0.911000 46 52 25
-0.447365 -0.240519 0.916000 57 48 34
-0.447365 -0.238915 0.916000 53 45 43
-0.447365 -0.237312 0.916000 49 45 39
-0.447365 -0.235708 0.916000 46 50 35
-0.447365 -0.234105 0.916000 44 48 30
-0.446388 -0.231994 0.914000 47 46 25
-0.447365 -0.230898 0.916000 50 44 43
-0.447365 -0.229295 0.916000 50 47 60
-0.446388 -0.227194 0.914000 51 44 51
-0.446388 -0.225594 0.914000 52 39 42
-0.447365 -0.224484 0.916000 54 35 47
-0.447365 -0.222881 0.916000 53 41 53
-0.447365 -0.221277 0.916000 53 40 51
-0.447365 -0.219674 0.916000 51 38 50
-0.444923 -0.216880 0.911000 50 40 45
-0.444923 -0.215285 0.911000 47 42 40
-0.444923 -0.213691 0.911000 44 43 34
-0.444923 -0.212096 0.911000 45 42 29
-0.444923 -0.210501 0.911000 47 42 31
-0.444923 -0.208906 0.911000 45 46 33
-0.443946 -0.206857 0.909000 44 44 35
-0.444923 -0.205717 0.911000 51 41 36
-0.444923 -0.204122 0.911000 58 39 28
-0.444923 -0.202528 0.911000 61 39 20
-0.444923 -0.200933 0.911000 65 40 29
-0.444923 -0.199338 0.911000 58 43 37
-0.443946 -0.197309 0.909000 51 42 30
-0.444923 -0.196149 0.911000 52 43 22
-0.443946 -0.194127 0.909000 53 43 27
-0.443946 -0.192536 0.909000 50 45 32
-0.443946 -0.190945 0.909000 48 43 26
-0.443946 -0.189353 0.909000 50 45 20
-0.443946 -0.187762 0.909000 53 43 31
-0.443946 -0.186171 0.909000 56 44 42
-0.443946 -0.184580 0.909000 60 44 51
-0.443946 -0.182989 0.909000 52 44 60
-0.443946 -0.181397 0.909000 44 47 49
-0.443946 -0.179806 0.909000 48 51 38
-0.442969 -0.177823 0.907000 53 50 31
-0.442969 -0.176235 0.907000 51 51 24
-0.442969 -0.174647 0.907000 49 46 32
-0.442969 -0.173060 0.907000 50 44 40
-0.442969 -0.171472 0.907000 51 43 39
-0.442969 -0.169884 0.907000 52 45 39
-0.442969 -0.168297 0.907000 53 44 34
-0.442969 -0.166709 0.907000 49 40 30
-0.442969 -0.165121 0.907000 46 41 26
-0.442969 -0.163533 0.907000 53 42 22
-0.442969 -0.161946 0.907000 60 44 27
-0.442969 -0.160358 0.907000 62 49 33
-0.442969 -0.158770 0.907000 64 43 30
-0.441504 -0.156663 0.904000 58 43 28
-0.443946 -0.155938 0.909000 53 44 35
-0.443946 -0.154347 0.909000 49 47 42
-0.442969 -0.152420 0.907000 45 46 46
-0.441504 -0.150333 0.904000 49 45 50
-0.442969 -0.149244 0.907000 53 42 42
-0.442969 -0.147656 0.907000 54 41 34
-0.442969 -0.146069 0.907000 56 41 31
-0.442969 -0.144481 0.907000 55 40 28
-0.441504 -0.142421 0.904000 55 42 28
-0.442969 -0.141306 0.907000 56 50 29
-0.442969 -0.139718 0.907000 58 48 32
-0.443946 -0.138435 0.909000 57 46 36
-0.443946 -0.136844 0.909000 56 45 36
-0.441504 -0.134508 0.904000 56 47 37
-0.441504 -0.132926 0.904000 56 44 35
-0.441504 -0.131344 0.904000 56 42 33
-0.441504 -0.129761 0.904000 56 43 34
-0.440527 -0.127895 0.902000 56 50 36
-0.440527 -0.126316 0.902000 56 47 34
-0.440527 -0.124737 0.902000 58 46 33
-0.440527 -0.123158 0.902000 61 46 33
-0.440527 -0.121579 0.902000 54 49 32
-0.440527 -0.120000 0.902000 47 47 28
-0.441504 -0.118684 0.904000 51 48 25
-0.440527 -0.116842 0.902000 56 46 31
-0.440527 -0.115263 0.902000 57 45 38
-0.440527 -0.113684 0.902000 59 43 27
-0.440527 -0.112106 0.902000 57 44 17
-0.440527 -0.110527 0.902000 56 46 28
-0.440527 -0.108948 0.902000 54 47 39
-0.440527 -0.107369 0.902000 53 46 49
-0.440527 -0.105790 0.902000 52 49 60
-0.439062 -0.103864 0.899000 51 45 36
-0.439062 -0.102290 0.899000 52 35 13
-0.439062 -0.100717 0.899000 53 38 33
-0.439062 -0.099143 0.899000 43 41 52
-0.439062 -0.097569 0.899000 34 41 47
-0.439062 -0.095996 0.899000 44 43 42
-0.439062 -0.094422 0.899000 55 44 37
-0.439062 -0.092848 0.899000 56 45 31
-0.439062 -0.091275 0.899000 58 44 23
-0.439062 -0.089701 0.899000 57 48 15
-0.439062 -0.088127 0.899000 56 46 23
-0.439062 -0.086553 0.899000 55 46 31
-0.439062 -0.084980 0.899000 55 50 32
-0.439062 -0.083406 0.899000 57 55 32
-0.438085 -0.081650 0.897000 60 50 39
-0.438085 -0.080080 0.897000 58 44 45
-0.438085 -0.078510 0.897000 56 41 42
-0.438085 -0.076940 0.897000 57 38 40
-0.437109 -0.075201 0.895000 58 42 31
-0.437109 -0.073635 0.895000 57 45 23
-0.437109 -0.072068 0.895000 56 45 29
-0.437109 -0.070501 0.895000 55 46 36
-0.438085 -0.069089 0.897000 54 45 31
-0.437109 -0.067368 0.895000 59 46 27
-0.435643 -0.065581 0.892000 64 45 40
-0.435643 -0.064019 0.892000 62 43 54
-0.435643 -0.062458 0.892000 60 43 45
-0.435643 -0.060896 0.892000 62 48 37
-0.435643 -0.059335 0.892000 64 45 38
-0.435643 -0.057773 0.892000 67 44 40
-0.437109 -0.056401 0.895000 71 43 36
-0.437109 -0.054834 0.895000 65 46 32
-0.438085 -0.053387 0.897000 60 45 37
-0.438085 -0.051817 0.897000 61 46 43
-0.438085 -0.050246 0.897000 62 46 45
-0.438085 -0.048676 0.897000 57 45 48
-0.438085 -0.047106 0.897000 53 46 49
-0.437109 -0.045434 0.895000 48 47 50
-0.437109 -0.043868 0.895000 44 46 44
-0.435643 -0.042159 0.892000 51 46 39
-0.435643 -0.040598 0.892000 59 44 30
-0.435643 -0.039036 0.892000 56 45 21
-0.435643 -0.037475 0.892000 53 45 34
-0.435643 -0.035913 0.892000 56 46 47
-0.434667 -0.034275 0.890000 59 46 45
-0.434667 -0.032717 0.890000 56 49 44
-0.434667 -0.031159 0.890000 53 48 47
-0.435643 -0.029667 0.892000 59 51 50
-0.435643 -0.028106 0.892000 65 49 37
-0.435643 -0.026545 0.892000 62 49 25
-0.435643 -0.024983 0.892000 60 45 29
-0.435643 -0.023422 0.892000 62 46 32
-0.435643 -0.021860 0.892000 65 48 31
-0.435643 -0.020299 0.892000 62 49 30
-0.435643 -0.018737 0.892000 60 49 29
-0.437109 -0.017234 0.895000 58 51 27
-0.437109 -0.015667 0.895000 57 47 39
-0.435643 -0.014053 0.892000 60 47 50
-0.435643 -0.012492 0.892000 63 47 40
-0.437109 -0.010967 0.895000 59 47 29
-0.435643 -0.009369 0.892000 56 48 33
-0.434667 -0.007790 0.890000 55 50 38
-0.434667 -0.006232 0.890000 54 49 39
-0.434667 -0.004674 0.890000 48 49 41
-0.433690 -0.003109 0.888000 42 47 47
-0.433690 -0.001554 0.888000 46 48 53
-0.434667 -0.000000 0.890000 51 47 47
-0.434667 0.001558 0.890000 49 43 42
-0.435643 0.003123 0.892000 48 42 34
-0.437109 0.004700 0.895000 51 45 25
-0.437109 0.006267 0.895000 55 43 38
-0.437109 0.007834 0.895000 57 41 51
-0.435643 0.009369 0.892000 60 43 42
-0.435643 0.010930 0.892000 59 42 34
-0.435643 0.012492 0.892000 59 42 51
-0.434667 0.014022 0.890000 51 49 67
-0.434667 0.015579 0.890000 44 47 52
-0.434667 0.017137 0.890000 50 48 37
-0.433690 0.018653 0.888000 57 46 36
-0.432713 0.020162 0.886000 59 46 35
-0.433690 0.021762 0.888000 62 49 44
-0.432713 0.023264 0.886000 60 56 52
-0.433690 0.024871 0.888000 58 52 46
-0.433690 0.026426 0.888000 54 50 39
-0.434667 0.028043 0.890000 50 48 41
-0.433690 0.029534 0.888000 52 49 43
-0.433690 0.031089 0.888000 54 45 41
-0.434667 0.032717 0.890000 55 44 39
-0.434667 0.034275 0.890000 56 48 46
-0.434667 0.035833 0.890000 58 51 54
-0.434667 0.037391 0.890000 60 48 45
-0.433690 0.038861 0.888000 59 47 37
-0.433690 0.040416 0.888000 58 45 37
-0.433690 0.041970 0.888000 47 47 38
-0.433690 0.043524 0.888000 36 48 47
-0.433690 0.045079 0.888000 47 45 56
-0.433690 0.046633 0.888000 58 44 49
-0.433690 0.048188 0.888000 59 45 42
-0.433690 0.049742 0.888000 60 45 35
-0.432713 0.051181 0.886000 61 45 28
-0.433690 0.052851 0.888000 63 43 29
-0.433690 0.054406 0.888000 65 44 30
-0.432713 0.055834 0.886000 67 45 23
-0.432713 0.057385 0.886000 61 46 17
-0.432713 0.058936 0.886000 56 49 20
-0.432713 0.060487 0.886000 57 56 22
-0.431248 0.061828 0.883000 58 51 23
-0.431248 0.063373 0.883000 56 48 23
-0.431248 0.064919 0.883000 55 47 19
-0.432713 0.066691 0.886000 55 49 14
-0.431248 0.068010 0.883000 56 47 28
-0.432713 0.069792 0.886000 53 46 43
-0.432713 0.071343 0.886000 51 46 37
-0.431248 0.072648 0.883000 53 47 31
-0.431248 0.074193 0.883000 55 45 36
-0.431248 0.075739 0.883000 56 43 41
-0.431248 0.077285 0.883000 58 45 43
-0.430271 0.078652 0.881000 57 47 45
-0.430271 0.080194 0.881000 56 46 41
-0.429294 0.081551 0.879000 54 46 37
-0.429294 0.083089 0.879000 53 44 32
-0.430271 0.084821 0.881000 56 41 27
-0.430271 0.086363 0.881000 60 43 38
-0.429294 0.087705 0.879000 58 46 49
-0.430271 0.089447 0.881000 57 43 40
-0.429294 0.090783 0.879000 56 41 31
-0.428318 0.092111 0.877000 56 40 27
-0.428318 0.093647 0.877000 56 38 23
-0.429294 0.095399 0.879000 56 38 23
-0.428318 0.096717 0.877000 57 41 24
-0.429294 0.098476 0.879000 58 44 40
-0.429294 0.100015 0.879000 54 47 57
-0.429294 0.101554 0.879000 51 46 49
-0.430271 0.103327 0.881000 47 48 41
-0.430271 0.104869 0.881000 44 45 41
-0.430271 0.106411 0.881000 49 43 42
-0.429294 0.107708 0.879000 54 40 32
-0.429294 0.109247 0.879000 55 34 23
-0.429294 0.110786 0.879000 56 41 32
-0.430271 0.112580 0.881000 55 45 41
-0.430271 0.114122 0.881000 55 42 38
-0.429294 0.115402 0.879000 54 42 36
-0.429294 0.116940 0.879000 53 48 35
-0.429294 0.118479 0.879000 54 54 35
-0.429294 0.120018 0.879000 56 46 32
-0.429294 0.121557 0.879000 58 43 30
-0.428318 0.122815 0.877000 60 44 41
-0.428318 0.124350 0.877000 58 47 52
-0.428318 0.125885 0.877000 56 44 49
-0.428318 0.127421 0.877000 48 41 45
-0.426852 0.128515 0.874000 40 40 38
-0.426852 0.130045 0.874000 45 41 31
-0.428318 0.132026 0.877000 50 40 23
-0.428318 0.133561 0.877000 53 41 15
-0.428318 0.135097 0.877000 56 44 27
-0.426852 0.136164 0.874000 57 47 39
-0.426852 0.137694 0.874000 59 45 33
-0.426852 0.139224 0.874000 53 45 28
-0.426852 0.140754 0.874000 48 41 31
-0.426852 0.142284 0.874000 52 43 35
-0.426852 0.143814 0.874000 56 44 37
-0.426852 0.145344 0.874000 53 50 39
-0.426852 0.146874 0.874000 50 47 36
-0.426852 0.148404 0.874000 52 50 33
-0.426852 0.149934 0.874000 54 46 31
-0.426852 0.151464 0.874000 52 44 30
-0.426852 0.152994 0.874000 50 44 34
-0.426852 0.154524 0.874000 52 45 38
-0.426852 0.156054 0.874000 55 41 24
-0.426852 0.157584 0.874000 54 41 10
-0.425876 0.158749 0.872000 54 41 29
-0.425876 0.160276 0.872000 56 45 48
-0.425876 0.161802 0.872000 58 41 38
-0.425876 0.163329 0.872000 58 41 29
-0.425876 0.164855 0.872000 59 39 35
-0.425876 0.166382 0.872000 57 42 40
-0.425876 0.167908 0.872000 55 38 27
-0.425876 0.169434 0.872000 47 34 14
-0.425876 0.170961 0.872000 39 41 21
-0.425876 0.172487 0.872000 51 45 28
-0.425876 0.174014 0.872000 64 42 34
-0.424899 0.175138 0.870000 60 37 41
-0.424899 0.176661 0.870000 56 38 52
-0.424899 0.178183 0.870000 45 40 63
-0.424899 0.179706 0.870000 34 38 52
-0.425876 0.181646 0.872000 42 43 41
-0.425876 0.183172 0.872000 50 40 46
-0.425876 0.184699 0.872000 45 40 51
-0.425876 0.186225 0.872000 40 42 43
-0.425876 0.187752 0.872000 45 39 35
-0.422945 0.187976 0.866000 50 40 38
-0.422945 0.189492 0.866000 49 41 41
-0.422945 0.191008 0.866000 49 42 35
-0.422945 0.192524 0.866000 49 44 30
-0.424899 0.194936 0.870000 49 43 36
-0.422945 0.195555 0.866000 48 43 42
-0.423922 0.197526 0.868000 47 43 39
-0.423922 0.199046 0.868000 48 44 36
-0.423922 0.200565 0.868000 49 43 46
-0.423922 0.202085 0.868000 46 45 56
-0.422945 0.203135 0.866000 44 44 46
-0.422945 0.204651 0.866000 46 47 36
-0.422945 0.206167 0.866000 49 43 28
-0.421480 0.206963 0.863000 46 41 21
-0.421480 0.208474 0.863000 44 40 28
-0.422945 0.210715 0.866000 43 45 34
-0.422945 0.212231 0.866000 42 43 22
-0.422945 0.213747 0.866000 46 39 9
-0.422945 0.215263 0.866000 50 42 13
-0.425876 0.218280 0.872000 49 46 18
-0.425876 0.219807 0.872000 49 44 20
-0.424899 0.220826 0.870000 50 40 23
-0.421480 0.220560 0.863000 51 40 39
-0.421480 0.222070 0.863000 51 44 56
-0.420503 0.223063 0.861000 51 43 44
-0.420503 0.224570 0.861000 50 48 33
-0.420503 0.226077 0.861000 49 46 30
-0.420503 0.227584 0.861000 44 47 27
-0.420503 0.229091 0.861000 40 43 26
-0.420503 0.230599 0.861000 44 47 24
-0.420503 0.232106 0.861000 48 43 20
-0.420503 0.233613 0.861000 49 39 15
-0.420503 0.235120 0.861000 51 38 15
-0.420503 0.236627 0.861000 45 42 15
-0.420503 0.238135 0.861000 40 38 22
-0.420503 0.239642 0.861000 43 37 29
-0.420503 0.241149 0.861000 47 38 27
-0.420503 0.242656 0.861000 44 43 25
-0.420503 0.244163 0.861000 41 44 17
-0.420503 0.245670 0.861000 44 50 9
-0.420503 0.247178 0.861000 47 47 20
-0.420503 0.248685 0.861000 48 43 31
-0.420503 0.250192 0.861000 50 33 34
-0.420503 0.251699 0.861000 50 30 38
-0.420503 0.253206 0.861000 50 33 35
-0.420503 0.254714 0.861000 46 39 33
-0.420503 0.256221 0.861000 42 39 36
-0.419527 0.257129 0.859000 38 42 38
-0.420503 0.259235 0.861000 35 41 30
-0.420503 0.260742 0.861000 40 39 22
-0.419527 0.261640 0.859000 46 35 25
-0.419527 0.263144 0.859000 45 39 27
-0.419527 0.264648 0.859000 45 39 30
-0.419527 0.266151 0.859000 35 42 32
-0.419527 0.267655 0.859000 25 39 29
-0.418550 0.268532 0.857000 32 39 27
-0.418550 0.270032 0.857000 40 35 22
-0.417573 0.270899 0.855000 42 33 17
-0.418550 0.273033 0.857000 44 38 21
-0.418550 0.274533 0.857000 42 42 25
-0.418550 0.276033 0.857000 41 39 24
-0.418550 0.277533 0.857000 44 41 23
-0.418550 0.279033 0.857000 48 38 32
-0.419527 0.281188 0.859000 47 33 41
-0.420503 0.283350 0.861000 46 33 36
-0.420503 0.284857 0.861000 42 38 32
-0.419527 0.285699 0.859000 39 35 23
-0.419527 0.287203 0.859000 41 34 15
-0.418550 0.288034 0.857000 44 36 18
-0.418550 0.289535 0.857000 45 42 21
-0.418550 0.291035 0.857000 47 40 17
-0.418550 0.292535 0.857000 46 45 12
-0.418550 0.294035 0.857000 45 41 14
-0.418550 0.295535 0.857000 45 43 17
-0.418550 0.297035 0.857000 45 40 20
-0.418550 0.298536 0.857000 46 36 24
-0.418550 0.300036 0.857000 47 36 16
-0.417573 0.300832 0.855000 45 41 8
-0.417573 0.302329 0.855000 44 38 10
-0.417573 0.303826 0.855000 47 39 13
-0.417573 0.305322 0.855000 51 38 12
-0.417573 0.306819 0.855000 50 43 11
-0.417573 0.308316 0.855000 49 39 8
-0.417573 0.309812 0.855000 49 37 5
-0.417573 0.311309 0.855000 50 31 18
-0.417573 0.312806 0.855000 47 30 32
-0.417573 0.314302 0.855000 44 39 20
-0.417573 0.315799 0.855000 43 48 8
-0.417573 0.317296 0.855000 42 39 15
-0.417573 0.318792 0.855000 43 39 22
-0.417573 0.320289 0.855000 45 40 28
-0.416596 0.321033 0.853000 36 41 35
-0.417573 0.323282 0.855000 28 41 33
-0.416596 0.324019 0.853000 36 44 32
-0.416596 0.325513 0.853000 44 36 28
-0.415619 0.326239 0.851000 49 39 24
-0.415619 0.327729 0.851000 55 38 28
-0.415619 0.329218 0.851000 50 41 33
-0.415619 0.330708 0.851000 45 43 26
-0.415619 0.332198 0.851000 45 48 19
-0.415619 0.333687 0.851000 45 42 15
-0.417573 0.336753 0.855000 49 38 11
-0.417573 0.338249 0.855000 53 37 22
-0.417573 0.339746 0.855000 49 32 33
-0.417573 0.341242 0.855000 46 27 37
-0.417573 0.342739 0.855000 46 23 41
-0.417573 0.344236 0.855000 46 27 27
-0.417573 0.345733 0.855000 36 29 13
-0.416596 0.346417 0.853000 27 28 15
-0.416596 0.347910 0.853000 39 27 17
-0.416596 0.349403 0.853000 51 32 19
-0.416596 0.350897 0.853000 46 37 20
-0.416596 0.352390 0.853000 41 33 19
-0.415619 0.353053 0.851000 41 34 17
-0.415619 0.354543 0.851000 41 37 12
-0.415619 0.356032 0.851000 41 42 8
-0.448195 -0.328891 0.921000 45 32 19
-0.448195 -0.327279 0.921000 48 37 3
-0.448195 -0.325667 0.921000 51 39 28
-0.448195 -0.324054 0.921000 51 39 54
-0.448195 -0.322442 0.921000 51 41 43
-0.447221 -0.320133 0.919000 49 45 32
-0.447221 -0.318525 0.919000 46 47 49
-0.447221 -0.316916 0.919000 47 47 67
-0.447221 -0.315307 0.919000 47 47 52
-0.447221 -0.313698 0.919000 48 47 37
-0.447221 -0.312090 0.919000 48 50 33
-0.447221 -0.310481 0.919000 46 45 29
-0.448195 -0.309544 0.921000 45 41 21
-0.448195 -0.307932 0.921000 51 42 14
-0.447221 -0.305655 0.919000 58 40 16
-0.448195 -0.304708 0.921000 56 40 18
-0.447221 -0.302437 0.919000 54 42 37
-0.445761 -0.299847 0.916000 51 39 56
-0.447221 -0.299220 0.919000 48 37 47
-0.447221 -0.297611 0.919000 48 39 39
-0.445761 -0.295036 0.916000 48 45 47
-0.445761 -0.293433 0.916000 51 40 56
-0.445761 -0.291829 0.916000 55 35 28
-0.447221 -0.291176 0.919000 54 37 1
-0.447221 -0.289568 0.919000 53 38 30
-0.447221 -0.287959 0.919000 53 40 60
-0.447221 -0.286350 0.919000 54 36 48
-0.447221 -0.284742 0.919000 54 37 36
-0.447221 -0.283133 0.919000 55 41 28
-0.445761 -0.280605 0.916000 56 43 21
-0.445761 -0.279002 0.916000 56 46 30
-0.445761 -0.277398 0.916000 53 40 39
-0.445761 -0.275795 0.916000 51 36 53
-0.444788 -0.273593 0.914000 52 44 67
-0.444788 -0.271993 0.914000 53 50 54
-0.443328 -0.269505 0.911000 53 46 42
-0.443328 -0.267911 0.911000 53 44 38
-0.443328 -0.266316 0.911000 54 43 35
-0.443328 -0.264721 0.911000 55 44 34
-0.443328 -0.263126 0.911000 55 43 34
-0.443328 -0.261532 0.911000 56 43 32
-0.443328 -0.259937 0.911000 56 43 30
-0.443328 -0.258342 0.911000 57 40 28
-0.444788 -0.257593 0.914000 57 41 27
-0.443328 -0.255153 0.911000 57 40 20
-0.443328 -0.253558 0.911000 52 45 13
-0.443328 -0.251963 0.911000 47 53 27
-0.443328 -0.250369 0.911000 51 45 42
-0.443328 -0.248774 0.911000 54 41 44
-0.443328 -0.247179 0.911000 55 41 47
-0.443328 -0.245585 0.911000 55 41 41
-0.443328 -0.243990 0.911000 50 46 35
-0.439922 -0.240533 0.904000 44 51 42
-0.441382 -0.239743 0.907000 49 48 49
-0.441382 -0.238156 0.907000 55 47 46
-0.442355 -0.237089 0.909000 53 45 44
-0.443328 -0.236016 0.911000 52 45 35
-0.442355 -0.233907 0.909000 51 48 26
-0.443328 -0.232827 0.911000 50 48 17
-0.442355 -0.230725 0.909000 50 44 8
-0.443328 -0.229638 0.911000 51 42 28
-0.442355 -0.227542 0.909000 50 45 48
-0.443328 -0.226448 0.911000 50 45 45
-0.443328 -0.224853 0.911000 52 41 43
-0.445761 -0.224484 0.916000 54 38 56
-0.445761 -0.222881 0.916000 50 41 70
-0.445761 -0.221277 0.916000 47 44 61
-0.444788 -0.219194 0.914000 50 43 52
-0.443328 -0.216880 0.911000 54 47 48
-0.443328 -0.215285 0.911000 55 44 44
-0.443328 -0.213691 0.911000 56 46 43
-0.442355 -0.211630 0.909000 54 43 43
-0.442355 -0.210039 0.909000 52 41 39
-0.441382 -0.207989 0.907000 50 43 35
-0.441382 -0.206401 0.907000 49 47 34
-0.442355 -0.205265 0.909000 53 42 34
-0.442355 -0.203674 0.909000 58 37 34
-0.442355 -0.202083 0.909000 60 39 34
-0.442355 -0.200492 0.909000 62 40 37
-0.442355 -0.198901 0.909000 57 41 41
-0.441382 -0.196875 0.907000 53 43 38
-0.441382 -0.195288 0.907000 54 42 35
-0.441382 -0.193700 0.907000 54 44 35
-0.441382 -0.192112 0.907000 53 43 35
-0.441382 -0.190524 0.907000 51 43 21
-0.439922 -0.188312 0.904000 52 43 8
-0.439922 -0.186729 0.904000 54 42 30
-0.439922 -0.185147 0.904000 56 44 52
-0.439922 -0.183564 0.904000 58 44 64
-0.441382 -0.182586 0.907000 53 45 76
-0.441382 -0.180998 0.907000 49 47 62
-0.439922 -0.178817 0.904000 51 49 49
-0.439922 -0.177235 0.904000 54 52 43
-0.439922 -0.175652 0.904000 56 49 37
-0.439922 -0.174070 0.904000 58 46 41
-0.439922 -0.172487 0.904000 56 42 45
-0.438948 -0.170527 0.902000 54 41 44
-0.439922 -0.169322 0.904000 56 44 44
-0.439922 -0.167740 0.904000 59 43 42
-0.439922 -0.166157 0.904000 55 41 41
-0.439922 -0.164575 0.904000 52 44 34
-0.441382 -0.163533 0.907000 55 43 27
-0.439922 -0.161410 0.904000 58 47 33
-0.439922 -0.159828 0.904000 58 46 40
-0.439922 -0.158245 0.904000 59 43 39
-0.438948 -0.156316 0.902000 57 41 39
-0.438948 -0.154737 0.902000 54 41 41
-0.437488 -0.152649 0.899000 52 44 44
-0.437488 -0.151075 0.899000 49 46 51
-0.438948 -0.150000 0.902000 52 43 59
-0.438948 -0.148421 0.902000 55 41 46
-0.439922 -0.147168 0.904000 58 40 34
-0.439922 -0.145586 0.904000 61 40 37
-0.438948 -0.143685 0.902000 55 40 40
-0.438948 -0.142106 0.902000 50 40 38
-0.439922 -0.140838 0.904000 53 43 37
-0.439922 -0.139256 0.904000 57 45 40
-0.439922 -0.137673 0.904000 57 45 44
-0.439922 -0.136091 0.904000 58 46 42
-0.439922 -0.134508 0.904000 61 45 40
-0.438948 -0.132632 0.902000 65 44 42
-0.438948 -0.131053 0.902000 62 42 44
-0.437488 -0.129043 0.899000 59 42 57
-0.437488 -0.127470 0.899000 56 45 71
-0.437488 -0.125896 0.899000 54 49 55
-0.437488 -0.124322 0.899000 55 46 40
-0.437488 -0.122749 0.899000 57 47 39
-0.437488 -0.121175 0.899000 53 47 39
-0.437488 -0.119601 0.899000 49 45 28
-0.437488 -0.118027 0.899000 54 43 18
-0.437488 -0.116454 0.899000 59 45 37
-0.437488 -0.114880 0.899000 55 44 56
-0.438948 -0.113684 0.902000 51 41 45
-0.438948 -0.112106 0.902000 53 43 34
-0.438948 -0.110527 0.902000 56 47 43
-0.437488 -0.108585 0.899000 56 44 53
-0.437488 -0.107012 0.899000 56 42 62
-0.437488 -0.105438 0.899000 56 46 71
-0.436515 -0.103633 0.897000 56 48 36
-0.436515 -0.102063 0.897000 59 40 1
-0.436515 -0.100493 0.897000 63 36 36
-0.436515 -0.098923 0.897000 54 38 71
-0.436515 -0.097352 0.897000 46 39 58
-0.436515 -0.095782 0.897000 52 40 45
-0.436515 -0.094212 0.897000 59 45 42
-0.436515 -0.092642 0.897000 62 43 39
-0.437488 -0.091275 0.899000 65 41 30
-0.437488 -0.089701 0.899000 58 45 21
-0.437488 -0.088127 0.899000 52 50 31
-0.437488 -0.086553 0.899000 53 49 42
-0.437488 -0.084980 0.899000 55 54 53
-0.435542 -0.083035 0.895000 57 52 64
-0.435542 -0.081468 0.895000 59 50 58
-0.434082 -0.079634 0.892000 59 43 53
-0.435542 -0.078335 0.895000 59 39 50
-0.435542 -0.076768 0.895000 60 39 48
-0.435542 -0.075201 0.895000 62 39 46
-0.435542 -0.073635 0.895000 58 40 44
-0.434082 -0.071826 0.892000 55 42 45
-0.434082 -0.070265 0.892000 53 44 46
-0.435542 -0.068935 0.895000 50 44 49
-0.434082 -0.067142 0.892000 54 46 52
-0.433109 -0.065434 0.890000 59 46 63
-0.433109 -0.063876 0.890000 58 41 74
-0.434082 -0.062458 0.892000 58 36 59
-0.434082 -0.060896 0.892000 59 42 45
-0.434082 -0.059335 0.892000 60 44 45
-0.434082 -0.057773 0.892000 58 43 45
-0.434082 -0.056212 0.892000 57 46 40
-0.434082 -0.054651 0.892000 58 46 35
-0.435542 -0.053268 0.895000 58 47 40
-0.435542 -0.051701 0.895000 59 46 45
-0.435542 -0.050134 0.895000 60 45 48
-0.435542 -0.048568 0.895000 58 47 51
-0.435542 -0.047001 0.895000 55 49 54
-0.434082 -0.045282 0.892000 53 48 57
-0.434082 -0.043720 0.892000 52 48 48
-0.434082 -0.042159 0.892000 56 44 39
-0.433109 -0.040507 0.890000 61 42 24
-0.433109 -0.038949 0.890000 58 44 10
-0.433109 -0.037391 0.890000 56 48 30
-0.433109 -0.035833 0.890000 57 45 50
-0.433109 -0.034275 0.890000 58 44 59
-0.433109 -0.032717 0.890000 57 47 69
-0.433109 -0.031159 0.890000 56 49 61
-0.433109 -0.029601 0.890000 60 49 53
-0.433109 -0.028043 0.890000 65 47 43
-0.433109 -0.026485 0.890000 62 45 34
-0.433109 -0.024927 0.890000 59 40 39
-0.433109 -0.023369 0.890000 59 45 45
-0.433109 -0.021811 0.890000 58 49 41
-0.434082 -0.020299 0.892000 58 47 37
-0.434082 -0.018737 0.892000 57 47 39
-0.434082 -0.017176 0.892000 56 47 41
-0.434082 -0.015614 0.892000 55 47 54
-0.434082 -0.014053 0.892000 56 47 68
-0.434082 -0.012492 0.892000 57 47 54
-0.434082 -0.010930 0.892000 56 46 41
-0.434082 -0.009369 0.892000 56 47 57
-0.433109 -0.007790 0.890000 56 48 73
-0.433109 -0.006232 0.890000 56 48 61
-0.433109 -0.004674 0.890000 51 45 49
-0.432135 -0.003109 0.888000 47 44 57
-0.432135 -0.001554 0.888000 51 47 65
-0.432135 -0.000000 0.888000 56 54 59
-0.432135 0.001554 0.888000 55 44 53
-0.433109 0.003116 0.890000 53 40 50
-0.434082 0.004684 0.892000 55 42 47
-0.434082 0.006246 0.892000 57 43 56
-0.434082 0.007807 0.892000 59 43 65
-0.433109 0.009348 0.890000 61 45 57
-0.433109 0.010906 0.890000 61 44 50
-0.433109 0.012464 0.890000 61 44 70
-0.432135 0.013990 0.888000 55 45 90
-0.432135 0.015544 0.888000 50 47 68
-0.432135 0.017099 0.888000 54 47 47
-0.432135 0.018653 0.888000 59 47 46
-0.431162 0.020162 0.886000 61 45 45
-0.432135 0.021762 0.888000 63 46 62
-0.431162 0.023264 0.886000 63 50 79
-0.432135 0.024871 0.888000 63 52 66
-0.432135 0.026426 0.888000 59 49 53
-0.432135 0.027980 0.888000 55 47 54
-0.432135 0.029534 0.888000 53 45 56
-0.432135 0.031089 0.888000 52 44 53
-0.432135 0.032643 0.888000 53 48 50
-0.432135 0.034198 0.888000 54 54 63
-0.432135 0.035752 0.888000 60 51 77
-0.431162 0.037223 0.886000 66 49 61
-0.431162 0.038774 0.886000 62 45 45
-0.429702 0.040188 0.883000 58 43 44
-0.429702 0.041734 0.883000 52 46 43
-0.429702 0.043279 0.883000 46 50 54
-0.429702 0.044825 0.883000 54 45 65
-0.429702 0.046371 0.883000 62 43 54
-0.429702 0.047916 0.883000 61 44 44
-0.431162 0.049630 0.886000 60 46 37
-0.429702 0.051008 0.883000 61 42 31
-0.431162 0.052732 0.886000 63 37 38
-0.431162 0.054283 0.886000 63 41 45
-0.429702 0.055645 0.883000 64 48 39
-0.429702 0.057191 0.883000 60 47 34
-0.429702 0.058736 0.883000 57 47 32
-0.429702 0.060282 0.883000 56 48 30
-0.429702 0.061828 0.883000 55 50 28
-0.429702 0.063373 0.883000 51 48 26
-0.429702 0.064919 0.883000 47 46 17
-0.429702 0.066465 0.883000 54 46 9
-0.428729 0.067856 0.881000 61 44 31
-0.428729 0.069399 0.881000 57 43 54
-0.428729 0.070941 0.881000 53 42 46
-0.428729 0.072483 0.881000 52 45 38
-0.427756 0.073857 0.879000 51 47 39
-0.427756 0.075396 0.879000 53 44 41
-0.427756 0.076935 0.879000 56 42 41
-0.426782 0.078295 0.877000 58 43 41
-0.426782 0.079830 0.877000 60 42 41
-0.426782 0.081365 0.877000 58 43 41
-0.426782 0.082900 0.877000 57 45 41
-0.426782 0.084435 0.877000 60 42 41
-0.426782 0.085971 0.877000 63 41 52
-0.426782 0.087506 0.877000 60 44 63
-0.426782 0.089041 0.877000 56 47 51
-0.426782 0.090576 0.877000 55 43 39
-0.426782 0.092111 0.877000 54 44 32
-0.426782 0.093647 0.877000 55 42 26
-0.426782 0.095182 0.877000 57 40 34
-0.425322 0.096386 0.874000 59 41 43
-0.426782 0.098252 0.877000 60 44 59
-0.426782 0.099787 0.877000 56 45 75
-0.426782 0.101322 0.877000 52 45 59
-0.426782 0.102858 0.877000 50 46 44
-0.426782 0.104393 0.877000 48 48 42
-0.426782 0.105928 0.877000 51 44 41
-0.426782 0.107463 0.877000 53 43 37
-0.426782 0.108998 0.877000 54 41 33
-0.426782 0.110534 0.877000 54 45 42
-0.427756 0.112324 0.879000 54 43 51
-0.427756 0.113863 0.879000 54 39 48
-0.426782 0.115139 0.877000 53 44 46
-0.426782 0.116674 0.877000 53 53 54
-0.426782 0.118210 0.877000 54 50 63
-0.426782 0.119745 0.877000 55 48 53
-0.426782 0.121280 0.877000 56 43 43
-0.425322 0.122395 0.874000 57 44 53
-0.425322 0.123925 0.874000 57 45 63
-0.425322 0.125455 0.874000 57 46 59
-0.425322 0.126985 0.874000 56 40 55
-0.424349 0.128221 0.872000 55 38 46
-0.425322 0.130045 0.874000 54 37 38
-0.425322 0.131575 0.874000 54 37 33
-0.425322 0.133105 0.874000 55 40 29
-0.425322 0.134634 0.874000 57 44 41
-0.425322 0.136164 0.874000 57 45 53
-0.424349 0.137379 0.872000 57 47 44
-0.424349 0.138906 0.872000 54 42 35
-0.424349 0.140432 0.872000 51 36 32
-0.424349 0.141959 0.872000 54 40 30
-0.424349 0.143485 0.872000 58 44 38
-0.424349 0.145011 0.872000 55 43 46
-0.424349 0.146538 0.872000 53 39 54
-0.424349 0.148064 0.872000 54 43 63
-0.424349 0.149591 0.872000 55 43 51
-0.424349 0.151117 0.872000 54 41 39
-0.425322 0.152994 0.874000 54 44 40
-0.424349 0.154170 0.872000 54 44 42
-0.424349 0.155697 0.872000 54 44 30
-0.424349 0.157223 0.872000 55 43 18
-0.424349 0.158749 0.872000 56 43 38
-0.423376 0.159908 0.870000 56 39 58
-0.423376 0.161431 0.870000 56 38 48
-0.423376 0.162954 0.870000 59 37 38
-0.423376 0.164477 0.870000 62 35 33
-0.423376 0.166000 0.870000 58 39 28
-0.423376 0.167523 0.870000 55 39 27
-0.424349 0.169434 0.872000 51 36 27
-0.423376 0.170569 0.870000 46 42 30
-0.424349 0.172487 0.872000 53 42 34
-0.423376 0.173615 0.870000 61 42 41
-0.423376 0.175138 0.870000 58 39 49
-0.421429 0.175848 0.866000 56 39 62
-0.423376 0.178183 0.870000 48 37 76
-0.423376 0.179706 0.870000 40 34 56
-0.423376 0.181229 0.870000 49 36 36
-0.423376 0.182752 0.870000 58 39 42
-0.423376 0.184275 0.870000 51 41 49
-0.423376 0.185798 0.870000 44 44 42
-0.421429 0.186460 0.866000 47 43 35
-0.419969 0.187325 0.863000 50 42 43
-0.419969 0.188835 0.863000 51 40 51
-0.419969 0.190346 0.863000 51 40 45
-0.419969 0.191857 0.863000 52 42 40
-0.421429 0.194039 0.866000 53 45 47
-0.421429 0.195555 0.866000 53 42 54
-0.421429 0.197071 0.866000 53 40 47
-0.421429 0.198587 0.866000 52 41 41
-0.421429 0.200103 0.866000 51 44 57
-0.421429 0.201619 0.866000 54 41 74
-0.421429 0.203135 0.866000 58 42 60
-0.419969 0.203942 0.863000 55 42 46
-0.419969 0.205453 0.863000 53 41 34
-0.419969 0.206963 0.863000 50 39 22
-0.419969 0.208474 0.863000 47 36 35
-0.419969 0.209985 0.863000 48 39 48
-0.419969 0.211495 0.863000 49 46 25
-0.421429 0.213747 0.866000 51 42 3
-0.419969 0.214517 0.863000 54 42 9
-0.419969 0.216027 0.863000 52 44 15
-0.419969 0.217538 0.863000 51 47 27
-0.419969 0.219049 0.863000 54 40 39
-0.418996 0.220048 0.861000 57 34 55
-0.418023 0.221041 0.859000 55 38 72
-0.418023 0.222545 0.859000 53 41 53
-0.418023 0.224048 0.859000 51 46 34
-0.418023 0.225552 0.859000 50 47 34
-0.418023 0.227056 0.859000 50 42 34
-0.418023 0.228559 0.859000 51 41 34
-0.418023 0.230063 0.859000 51 41 35
-0.418023 0.231567 0.859000 51 41 32
-0.418023 0.233070 0.859000 51 38 30
-0.418023 0.234574 0.859000 51 36 25
-0.418023 0.236078 0.859000 50 39 21
-0.418023 0.237581 0.859000 49 41 27
-0.418023 0.239085 0.859000 49 36 33
-0.418023 0.240589 0.859000 48 36 31
-0.417050 0.241529 0.857000 46 40 30
-0.418023 0.243596 0.859000 44 41 22
-0.417050 0.244529 0.857000 48 40 14
-0.417050 0.246029 0.857000 53 39 17
-0.418023 0.248107 0.859000 52 36 21
-0.418023 0.249611 0.859000 51 31 17
-0.418023 0.251115 0.859000 51 32 14
-0.417050 0.252030 0.857000 51 34 26
-0.417050 0.253530 0.857000 49 38 39
-0.417050 0.255030 0.857000 48 37 44
-0.417050 0.256531 0.857000 49 41 49
-0.418023 0.258633 0.859000 50 44 42
-0.418023 0.260137 0.859000 49 37 35
-0.417050 0.261031 0.857000 48 28 34
-0.417050 0.262531 0.857000 49 34 34
-0.417050 0.264031 0.857000 50 36 39
-0.417050 0.265532 0.857000 43 35 44
-0.417050 0.267032 0.857000 36 37 35
-0.417050 0.268532 0.857000 39 38 26
-0.416076 0.269402 0.855000 42 39 21
-0.416076 0.270899 0.855000 43 37 16
-0.416076 0.272395 0.855000 45 38 18
-0.416076 0.273892 0.855000 44 36 21
-0.417050 0.276033 0.857000 44 35 24
-0.417050 0.277533 0.857000 46 37 27
-0.417050 0.279033 0.857000 48 39 41
-0.418023 0.281188 0.859000 48 33 56
-0.418023 0.282692 0.859000 49 33 45
-0.418023 0.284195 0.859000 45 33 34
-0.417050 0.285034 0.857000 42 35 25
-0.417050 0.286534 0.857000 44 37 17
-0.417050 0.288034 0.857000 47 41 29
-0.417050 0.289535 0.857000 47 38 42
-0.416076 0.290356 0.855000 48 38 29
-0.416076 0.291852 0.855000 49 40 16
-0.416076 0.293349 0.855000 51 41 19
-0.416076 0.294846 0.855000 48 40 23
-0.415103 0.295649 0.853000 45 41 28
-0.415103 0.297142 0.853000 43 37 33
-0.415103 0.298635 0.853000 40 35 23
-0.415103 0.300129 0.853000 42 38 14
-0.415103 0.301622 0.853000 44 39 14
-0.415103 0.303115 0.853000 46 35 14
-0.415103 0.304608 0.853000 48 34 13
-0.416076 0.306819 0.855000 48 37 12
-0.416076 0.308316 0.855000 48 40 7
-0.416076 0.309812 0.855000 49 33 2
-0.415103 0.310581 0.853000 50 27 23
-0.416076 0.312806 0.855000 48 32 45
-0.415103 0.313567 0.853000 45 43 24
-0.415103 0.315060 0.853000 45 37 4
-0.415103 0.316554 0.853000 46 33 17
-0.415103 0.318047 0.853000 48 35 31
-0.415103 0.319540 0.853000 50 41 40
-0.414130 0.320280 0.851000 43 40 49
-0.414130 0.321770 0.851000 35 36 46
-0.414130 0.323260 0.851000 39 34 44
-0.414130 0.324749 0.851000 42 33 34
-0.413157 0.325472 0.849000 45 35 24
-0.413157 0.326958 0.849000 48 37 22
-0.413157 0.328445 0.849000 45 39 21
-0.413157 0.329931 0.849000 42 42 16
-0.413157 0.331417 0.849000 43 44 12
-0.414130 0.333687 0.851000 44 46 7
-0.413157 0.334389 0.849000 47 42 3
-0.414130 0.336667 0.851000 49 44 20
-0.415103 0.338951 0.853000 44 32 38
-0.415103 0.340444 0.853000 38 22 43
-0.414130 0.341136 0.851000 42 24 49
-0.414130 0.342625 0.851000 45 27 37
-0.414130 0.344115 0.851000 39 29 25
-0.414130 0.345605 0.851000 32 31 24
-0.413157 0.346279 0.849000 39 28 23
-0.414130 0.348584 0.851000 46 26 19
-0.414130 0.350074 0.851000 43 30 15
-0.414130 0.351563 0.851000 41 34 18
-0.414130 0.353053 0.851000 41 33 21
-0.414130 0.354543 0.851000 42 39 17
-0.413157 0.355196 0.849000 42 38 14
-0.445613 -0.328177 0.919000 55 33 29
-0.445613 -0.326568 0.919000 54 41 18
-0.445613 -0.324959 0.919000 54 37 32
-0.445613 -0.323351 0.919000 52 37 46
-0.445613 -0.321742 0.919000 50 40 42
-0.444158 -0.319088 0.916000 47 39 38
-0.444158 -0.317485 0.916000 45 43 49
-0.444158 -0.315881 0.916000 46 47 61
-0.444158 -0.314278 0.916000 47 45 51
-0.445613 -0.313698 0.919000 50 41 42
-0.444158 -0.311071 0.916000 53 42 42
-0.444158 -0.309467 0.916000 52 42 43
-0.444158 -0.307864 0.916000 51 41 33
-0.444158 -0.306261 0.916000 57 41 24
-0.444158 -0.304657 0.916000 64 37 26
-0.444158 -0.303054 0.916000 59 39 28
-0.443188 -0.300792 0.914000 54 38 38
-0.443188 -0.299192 0.914000 50 35 49
-0.444158 -0.298243 0.916000 47 35 44
-0.444158 -0.296640 0.916000 51 33 40
-0.443188 -0.294392 0.914000 56 37 44
-0.443188 -0.292792 0.914000 54 41 49
-0.443188 -0.291192 0.914000 53 35 32
-0.445613 -0.291176 0.919000 53 31 14
-0.444158 -0.288622 0.916000 54 38 31
-0.443188 -0.286392 0.914000 54 43 47
-0.443188 -0.284792 0.914000 54 39 37
-0.443188 -0.283192 0.914000 54 35 26
-0.443188 -0.281592 0.914000 55 39 27
-0.443188 -0.279992 0.914000 55 41 27
-0.443188 -0.278393 0.914000 55 42 26
-0.443188 -0.276793 0.914000 52 38 26
-0.441733 -0.274289 0.911000 49 40 40
-0.441733 -0.272695 0.911000 51 47 55
-0.441733 -0.271100 0.911000 53 47 47
-0.441733 -0.269505 0.911000 53 45 39
-0.441733 -0.267911 0.911000 54 41 39
-0.440764 -0.265731 0.909000 55 38 39
-0.441733 -0.264721 0.911000 56 41 38
-0.440764 -0.262549 0.909000 57 41 37
-0.441733 -0.261532 0.911000 58 42 35
-0.441733 -0.259937 0.911000 58 44 34
-0.441733 -0.258342 0.911000 59 39 35
-0.441733 -0.256748 0.911000 59 39 36
-0.441733 -0.255153 0.911000 60 39 31
-0.441733 -0.253558 0.911000 57 42 26
-0.440764 -0.251410 0.909000 55 44 34
-0.440764 -0.249819 0.909000 56 43 42
-0.440764 -0.248228 0.909000 58 41 43
-0.440764 -0.246637 0.909000 58 44 44
-0.440764 -0.245046 0.909000 58 42 42
-0.440764 -0.243454 0.909000 55 44 40
-0.438339 -0.240533 0.904000 53 46 53
-0.438339 -0.238950 0.904000 53 45 66
-0.438339 -0.237368 0.904000 53 43 58
-0.439794 -0.236568 0.907000 54 46 50
-0.439794 -0.234980 0.907000 55 46 40
-0.438339 -0.232620 0.904000 55 49 30
-0.439794 -0.231805 0.907000 56 46 28
-0.440764 -0.230725 0.909000 54 41 26
-0.441733 -0.229638 0.911000 53 42 44
-0.439794 -0.227042 0.907000 51 47 62
-0.440764 -0.225951 0.909000 49 43 48
-0.440764 -0.224360 0.909000 51 43 34
-0.441733 -0.223259 0.911000 54 42 43
-0.443188 -0.222394 0.914000 47 43 53
-0.441733 -0.220069 0.911000 41 42 53
-0.440764 -0.217995 0.909000 50 44 52
-0.440764 -0.216404 0.909000 59 43 54
-0.440764 -0.214813 0.909000 63 41 56
-0.439794 -0.212752 0.907000 68 44 53
-0.439794 -0.211165 0.907000 63 46 50
-0.439794 -0.209577 0.907000 58 42 43
-0.438339 -0.207301 0.904000 56 41 37
-0.438339 -0.205719 0.904000 54 43 27
-0.439794 -0.204814 0.907000 56 43 17
-0.439794 -0.203226 0.907000 58 38 25
-0.439794 -0.201638 0.907000 58 41 34
-0.439794 -0.200051 0.907000 59 39 38
-0.439794 -0.198463 0.907000 57 38 43
-0.438339 -0.196224 0.904000 56 39 41
-0.438339 -0.194642 0.904000 56 39 40
-0.437369 -0.192632 0.902000 56 41 37
-0.437369 -0.191053 0.902000 55 41 35
-0.437369 -0.189474 0.902000 55 41 31
-0.437369 -0.187895 0.902000 55 42 27
-0.437369 -0.186316 0.902000 55 44 40
-0.437369 -0.184737 0.902000 55 48 54
-0.437369 -0.183158 0.902000 56 47 61
-0.437369 -0.181579 0.902000 55 47 68
-0.437369 -0.180000 0.902000 54 46 58
-0.435915 -0.177828 0.899000 55 48 49
-0.435915 -0.176254 0.899000 56 48 46
-0.437369 -0.175264 0.902000 61 50 43
-0.437369 -0.173685 0.902000 67 45 52
-0.437369 -0.172106 0.902000 62 39 62
-0.437369 -0.170527 0.902000 58 41 54
-0.437369 -0.168948 0.902000 61 47 47
-0.437369 -0.167369 0.902000 65 42 45
-0.437369 -0.165790 0.902000 61 39 44
-0.437369 -0.164211 0.902000 58 40 38
-0.438339 -0.162993 0.904000 57 41 33
-0.438339 -0.161410 0.904000 56 44 37
-0.437369 -0.159474 0.902000 55 45 41
-0.437369 -0.157895 0.902000 55 44 50
-0.435915 -0.155796 0.899000 55 39 58
-0.435915 -0.154223 0.899000 56 40 53
-0.434945 -0.152309 0.897000 55 42 47
-0.434945 -0.150739 0.897000 54 42 49
-0.434945 -0.149169 0.897000 56 43 50
-0.434945 -0.147599 0.897000 58 41 38
-0.437369 -0.146842 0.902000 62 41 26
-0.437369 -0.145263 0.902000 66 41 32
-0.437369 -0.143685 0.902000 55 41 38
-0.437369 -0.142106 0.902000 45 40 41
-0.437369 -0.140527 0.902000 50 40 44
-0.437369 -0.138948 0.902000 56 42 45
-0.437369 -0.137369 0.902000 58 44 47
-0.437369 -0.135790 0.902000 60 44 47
-0.437369 -0.134211 0.902000 67 44 47
-0.435915 -0.132191 0.899000 74 42 44
-0.434945 -0.130326 0.897000 68 40 41
-0.434945 -0.128756 0.897000 62 41 48
-0.433975 -0.126903 0.895000 57 41 55
-0.434945 -0.125616 0.897000 53 44 45
-0.434945 -0.124046 0.897000 53 45 36
-0.434945 -0.122475 0.897000 53 46 46
-0.434945 -0.120905 0.897000 52 47 56
-0.434945 -0.119335 0.897000 51 43 43
-0.435915 -0.118027 0.899000 57 36 31
-0.435915 -0.116454 0.899000 63 43 39
-0.435915 -0.114880 0.899000 53 47 48
-0.435915 -0.113306 0.899000 44 43 43
-0.435915 -0.111733 0.899000 50 40 38
-0.435915 -0.110159 0.899000 56 40 45
-0.435915 -0.108585 0.899000 57 41 53
-0.434945 -0.106773 0.897000 59 43 57
-0.434945 -0.105203 0.897000 60 47 62
-0.433975 -0.103402 0.895000 62 47 41
-0.433975 -0.101835 0.895000 67 43 20
-0.433975 -0.100269 0.895000 73 40 40
-0.433975 -0.098702 0.895000 65 39 60
-0.433975 -0.097135 0.895000 58 36 43
-0.433975 -0.095569 0.895000 60 36 27
-0.433975 -0.094002 0.895000 63 38 39
-0.434945 -0.092642 0.897000 67 44 50
-0.434945 -0.091071 0.897000 72 42 38
-0.434945 -0.089501 0.897000 60 44 26
-0.433975 -0.087735 0.895000 49 47 33
-0.433975 -0.086168 0.895000 52 49 40
-0.432521 -0.084318 0.892000 55 50 36
-0.431551 -0.082571 0.890000 57 49 32
-0.431551 -0.081013 0.890000 59 47 39
-0.431551 -0.079455 0.890000 60 42 47
-0.431551 -0.077897 0.890000 62 40 42
-0.432521 -0.076511 0.892000 64 41 37
-0.432521 -0.074949 0.892000 66 39 50
-0.432521 -0.073388 0.892000 60 35 64
-0.432521 -0.071826 0.892000 55 40 58
-0.432521 -0.070265 0.892000 51 45 52
-0.432521 -0.068704 0.892000 47 46 53
-0.432521 -0.067142 0.892000 50 49 54
-0.432521 -0.065581 0.892000 54 45 59
-0.431551 -0.063876 0.890000 55 41 65
-0.431551 -0.062318 0.890000 56 39 55
-0.432521 -0.060896 0.892000 56 41 45
-0.432521 -0.059335 0.892000 56 40 43
-0.432521 -0.057773 0.892000 50 40 42
-0.432521 -0.056212 0.892000 44 43 33
-0.432521 -0.054651 0.892000 50 48 25
-0.432521 -0.053089 0.892000 57 48 37
-0.432521 -0.051528 0.892000 58 49 49
-0.431551 -0.049854 0.890000 59 48 49
-0.431551 -0.048296 0.890000 58 49 49
-0.431551 -0.046738 0.890000 58 49 59
-0.431551 -0.045180 0.890000 59 50 69
-0.431551 -0.043622 0.890000 60 45 57
-0.431551 -0.042064 0.890000 61 43 46
-0.430581 -0.040416 0.888000 63 42 36
-0.430581 -0.038861 0.888000 61 41 26
-0.430581 -0.037307 0.888000 59 44 37
-0.430581 -0.035752 0.888000 58 44 48
-0.429611 -0.034121 0.886000 57 46 54
-0.429611 -0.032570 0.886000 58 47 60
-0.429611 -0.031019 0.886000 59 47 56
-0.430581 -0.029534 0.888000 62 49 53
-0.430581 -0.027980 0.888000 65 46 45
