ply
format ascii 1.0
element vertex 1309
property float x
property float y
property float z
property uchar red
property uchar green
property uchar blue
end_header
0.726156 0.999781 3.006000 52 43 49
0.719876 0.996350 2.980000 53 44 47
0.719876 1.001566 2.980000 54 47 48
0.719876 1.006783 2.980000 54 45 49
0.695960 0.978379 2.881000 54 43 48
0.684607 0.967379 2.834000 54 45 47
0.673494 0.956557 2.788000 54 48 45
0.667938 0.953506 2.765000 55 46 44
0.662624 0.950721 2.743000 56 46 44
0.662624 0.955523 2.743000 55 46 44
0.657551 0.952972 2.722000 53 47 45
0.657551 0.957737 2.722000 53 48 46
0.652478 0.955077 2.701000 54 49 45
0.647405 0.952342 2.680000 55 46 45
0.637501 0.942392 2.639000 56 45 47
0.627838 0.932658 2.599000 53 47 50
0.618417 0.923144 2.560000 50 47 49
0.614068 0.921103 2.542000 51 47 49
0.609479 0.918635 2.523000 53 47 49
0.587979 0.890490 2.434000 53 46 50
0.592086 0.901000 2.451000 54 47 52
0.587979 0.899011 2.434000 55 46 55
0.587979 0.903272 2.434000 57 45 57
0.579766 0.894856 2.400000 57 45 60
0.575900 0.893063 2.384000 57 44 57
0.571794 0.890838 2.367000 57 44 54
0.564064 0.882882 2.335000 57 46 47
0.556575 0.875194 2.304000 56 47 41
0.556575 0.879227 2.304000 54 48 47
0.552951 0.877510 2.289000 53 46 53
0.549328 0.875740 2.274000 52 45 55
0.542081 0.868115 2.244000 54 45 58
0.538699 0.866603 2.230000 56 45 51
0.895172 1.094815 3.679000 55 40 43
0.904662 1.112930 3.718000 52 39 44
0.895172 1.107696 3.679000 49 41 44
0.885683 1.102325 3.640000 49 41 45
0.885683 1.108697 3.640000 49 42 43
0.876437 1.103428 3.602000 49 43 42
0.867434 1.098334 3.565000 49 44 45
0.858431 1.093110 3.528000 49 45 49
0.849915 1.088381 3.493000 50 44 44
0.841399 1.083528 3.458000 52 45 39
0.832883 1.078553 3.423000 55 44 40
0.832883 1.084545 3.423000 52 45 40
0.824853 1.080024 3.390000 50 45 38
0.751127 0.994298 3.087000 49 45 42
0.751127 0.999702 3.087000 50 46 47
0.751127 1.005106 3.087000 51 45 52
0.744314 1.001344 3.059000 49 46 58
0.737988 0.998142 3.033000 48 46 56
0.731418 0.994519 3.006000 49 45 54
0.731418 0.999781 3.006000 51 44 51
0.725092 0.996350 2.980000 52 44 49
0.725092 1.001566 2.980000 53 45 49
0.719009 0.998337 2.955000 53 46 49
0.695164 0.970229 2.857000 53 44 48
0.683728 0.959187 2.810000 54 45 47
0.678375 0.956557 2.788000 56 46 45
0.672778 0.953506 2.765000 56 45 43
0.667425 0.950721 2.743000 56 45 41
0.667425 0.955523 2.743000 56 45 39
0.662316 0.952972 2.722000 56 47 42
0.662316 0.957737 2.722000 55 50 45
0.657206 0.955077 2.701000 54 47 46
0.652096 0.952342 2.680000 55 44 46
0.642120 0.942392 2.639000 56 45 47
0.637254 0.939835 2.619000 51 47 48
0.627764 0.930356 2.580000 47 47 50
0.622898 0.927625 2.560000 50 47 51
0.613895 0.918635 2.523000 53 46 51
0.592240 0.890490 2.434000 54 45 51
0.596376 0.901000 2.451000 56 45 52
0.592240 0.899011 2.434000 58 45 54
0.588103 0.896963 2.417000 61 45 51
0.583967 0.894856 2.400000 59 46 49
0.580074 0.893063 2.384000 58 45 52
0.575937 0.890838 2.367000 58 45 56
0.564501 0.877211 2.320000 59 44 52
0.556958 0.869496 2.289000 57 46 48
0.556958 0.873503 2.289000 55 46 54
0.553309 0.871760 2.274000 53 45 60
0.549659 0.869964 2.259000 52 45 58
0.546009 0.868115 2.244000 54 47 56
0.542602 0.866603 2.230000 56 45 51
0.921218 1.118622 3.759000 51 43 44
0.921218 1.125202 3.759000 50 40 44
0.911170 1.119438 3.718000 50 42 44
0.911170 1.125946 3.718000 50 42 45
0.901613 1.120576 3.679000 50 43 41
0.892055 1.115069 3.640000 50 43 38
0.882742 1.109733 3.602000 51 43 41
0.864607 1.093110 3.528000 51 42 45
0.856030 1.088381 3.493000 51 42 43
0.847452 1.083528 3.458000 51 43 41
0.838875 1.078553 3.423000 52 43 41
0.838875 1.084545 3.423000 51 45 41
0.830787 1.080024 3.390000 50 47 41
0.756531 1.005106 3.087000 51 45 56
0.749669 1.001344 3.059000 49 46 65
0.749669 1.006699 3.059000 48 48 61
0.743297 1.003452 3.033000 50 45 57
0.736681 0.999781 3.006000 53 45 54
0.730309 0.996350 2.980000 53 44 51
0.730309 1.001566 2.980000 54 44 50
0.724182 0.998337 2.955000 54 44 49
0.706047 0.978379 2.881000 54 45 48
0.694528 0.967379 2.834000 55 45 47
0.677619 0.948666 2.765000 56 46 45
0.672227 0.945920 2.743000 56 46 43
0.667081 0.943443 2.722000 56 46 39
0.667081 0.948207 2.722000 55 45 35
0.667081 0.952972 2.722000 55 47 40
0.661934 0.950348 2.701000 55 46 45
0.656788 0.947651 2.680000 56 46 46
0.651641 0.944880 2.659000 56 44 48
0.646740 0.942392 2.639000 56 44 47
0.641838 0.939835 2.619000 54 45 47
0.636937 0.937207 2.599000 52 47 50
0.627379 0.927625 2.560000 52 46 54
0.622968 0.925553 2.542000 53 47 53
0.596500 0.890490 2.434000 54 46 53
0.596500 0.894751 2.434000 56 46 53
0.596500 0.899011 2.434000 57 45 53
0.592334 0.896963 2.417000 59 46 45
0.584247 0.888890 2.384000 58 45 38
0.580081 0.886695 2.367000 57 45 48
0.572239 0.878795 2.335000 58 43 58
0.568563 0.877211 2.320000 58 42 57
0.560965 0.869496 2.289000 56 45 56
0.560965 0.873503 2.289000 54 48 62
0.560965 0.877510 2.289000 53 46 68
0.553613 0.869964 2.259000 52 46 61
0.549937 0.868115 2.244000 53 46 54
0.546506 0.866603 2.230000 53 46 50
0.927798 1.118622 3.759000 48 40 44
0.927798 1.125202 3.759000 49 39 45
0.917679 1.119438 3.718000 51 41 46
0.917679 1.125946 3.718000 51 45 48
0.908053 1.120576 3.679000 51 43 45
0.898427 1.115069 3.640000 52 43 41
0.889048 1.109733 3.602000 53 42 43
0.889048 1.116038 3.602000 53 41 46
0.870783 1.099286 3.528000 53 42 44
0.862144 1.094495 3.493000 51 43 43
0.853505 1.089581 3.458000 49 43 42
0.844867 1.084545 3.423000 50 45 42
0.836722 1.080024 3.390000 51 44 41
0.768846 1.014223 3.115000 51 46 51
0.755024 1.001344 3.059000 50 46 57
0.755024 1.006699 3.059000 49 46 55
0.755024 1.012054 3.059000 52 45 54
0.748607 1.008761 3.033000 55 45 52
0.741942 1.005043 3.006000 55 44 49
0.735525 1.001566 2.980000 55 43 52
0.729355 0.998337 2.955000 55 42 54
0.705166 0.970229 2.857000 55 42 47
0.699489 0.967379 2.834000 55 44 40
0.682459 0.948666 2.765000 56 45 42
0.677029 0.945920 2.743000 56 47 44
0.671845 0.943443 2.722000 56 46 44
0.671845 0.948207 2.722000 55 45 44
0.666662 0.945620 2.701000 55 45 49
0.666662 0.950348 2.701000 56 44 54
0.656296 0.940225 2.659000 58 44 53
0.651359 0.937773 2.639000 57 42 53
0.646423 0.935250 2.619000 56 43 55
0.646423 0.939835 2.619000 57 45 57
0.641487 0.937207 2.599000 58 45 57
0.636797 0.934872 2.580000 55 45 56
0.627418 0.925553 2.542000 53 46 57
0.600761 0.890490 2.434000 54 46 58
0.600761 0.894751 2.434000 56 45 57
0.600761 0.899011 2.434000 56 44 56
0.596565 0.896963 2.417000 57 45 50
0.592369 0.894856 2.400000 57 46 44
0.588420 0.893063 2.384000 57 45 51
0.576326 0.878795 2.335000 57 42 59
0.572624 0.877211 2.320000 58 42 57
0.564972 0.869496 2.289000 56 45 55
0.564972 0.873503 2.289000 54 46 59
0.561270 0.871760 2.274000 53 45 63
0.557568 0.869964 2.259000 53 45 58
0.553865 0.868115 2.244000 52 45 53
0.550410 0.866603 2.230000 51 44 51
0.934378 1.125202 3.759000 51 38 46
0.924187 1.119438 3.718000 52 41 49
0.914493 1.114136 3.679000 52 43 52
0.914493 1.120576 3.679000 52 44 48
0.904798 1.115069 3.640000 52 41 45
0.904798 1.121441 3.640000 52 41 46
0.895353 1.116038 3.602000 53 41 47
0.886156 1.110815 3.565000 54 42 46
0.868259 1.094495 3.493000 54 42 46
0.859559 1.089581 3.458000 54 44 44
0.850859 1.084545 3.423000 54 43 43
0.774299 1.014223 3.115000 51 47 46
0.774299 1.019675 3.115000 50 46 49
0.767339 1.015913 3.087000 50 46 50
0.767339 1.021317 3.087000 52 45 52
0.760379 1.017408 3.059000 55 46 50
0.747204 1.005043 3.006000 55 44 48
0.740742 1.001566 2.980000 55 43 54
0.716133 0.973336 2.881000 55 41 60
0.710167 0.970229 2.857000 55 40 47
0.698484 0.959187 2.810000 56 43 34
0.681830 0.941118 2.743000 56 46 39
0.676610 0.938678 2.722000 58 46 45
0.676610 0.943443 2.722000 59 47 49
0.676610 0.948207 2.722000 57 45 53
0.671390 0.945620 2.701000 55 46 58
0.666170 0.942960 2.680000 55 45 64
0.660950 0.940225 2.659000 55 46 61
0.655979 0.937773 2.639000 54 44 58
0.651008 0.935250 2.619000 54 43 63
0.646036 0.932658 2.599000 54 44 68
0.646036 0.937207 2.599000 55 45 63
0.641313 0.934872 2.580000 54 46 59
0.631868 0.925553 2.542000 54 48 61
0.609248 0.896710 2.451000 55 46 64
0.605022 0.894751 2.434000 56 44 61
0.605022 0.899011 2.434000 56 44 59
0.600796 0.896963 2.417000 57 45 54
0.596570 0.894856 2.400000 56 47 50
0.592593 0.893063 2.384000 55 48 55
0.584390 0.884817 2.351000 55 43 61
0.576685 0.877211 2.320000 56 42 58
0.572708 0.875194 2.304000 54 44 55
0.568979 0.873503 2.289000 53 46 56
0.565250 0.871760 2.274000 54 45 58
0.561522 0.869964 2.259000 54 46 55
0.557793 0.868115 2.244000 53 45 53
0.554313 0.866603 2.230000 52 45 52
0.940958 1.125202 3.759000 52 34 44
0.930695 1.119438 3.718000 54 37 45
0.920933 1.114136 3.679000 54 42 46
0.920933 1.120576 3.679000 54 42 45
0.911170 1.115069 3.640000 53 39 44
0.911170 1.121441 3.640000 52 41 44
0.911170 1.127812 3.640000 53 43 45
0.901658 1.122344 3.602000 55 43 45
0.892396 1.117055 3.565000 57 42 46
0.874373 1.100610 3.493000 60 42 49
0.874373 1.106724 3.493000 59 42 52
0.779751 1.014223 3.115000 52 46 45
0.779751 1.019675 3.115000 51 46 48
0.779751 1.025128 3.115000 51 44 50
0.779751 1.030581 3.115000 53 44 52
0.772743 1.026721 3.087000 55 45 50
0.752466 1.005043 3.006000 55 45 48
0.739700 0.993164 2.955000 56 43 52
0.723179 0.976039 2.889000 56 40 57
0.709411 0.962418 2.834000 56 41 49
0.703403 0.959187 2.810000 56 42 42
0.686632 0.941118 2.743000 57 44 44
0.681375 0.938678 2.722000 60 47 46
0.681375 0.943443 2.722000 63 45 48
0.676118 0.940892 2.701000 59 43 51
0.676118 0.945620 2.701000 55 44 55
0.670862 0.942960 2.680000 53 46 59
0.665605 0.940225 2.659000 52 45 56
0.655592 0.930666 2.619000 52 45 54
0.655592 0.935250 2.619000 53 45 57
0.650586 0.932658 2.599000 52 45 60
0.645829 0.930356 2.580000 52 45 58
0.640823 0.927625 2.560000 53 47 55
0.636317 0.925553 2.542000 55 47 56
0.613538 0.896710 2.451000 56 47 56
0.609282 0.894751 2.434000 57 45 56
0.605027 0.892732 2.417000 57 46 56
0.605027 0.896963 2.417000 57 46 55
0.600772 0.894856 2.400000 55 49 54
0.596766 0.893063 2.384000 54 46 56
0.592511 0.890838 2.367000 54 42 58
0.580746 0.877211 2.320000 54 42 54
0.576741 0.875194 2.304000 53 43 51
0.572986 0.873503 2.289000 53 44 56
0.569231 0.871760 2.274000 54 45 61
0.565476 0.869964 2.259000 56 45 57
0.561722 0.868115 2.244000 54 47 53
0.558217 0.866603 2.230000 53 45 53
0.927373 1.114136 3.679000 53 39 41
0.927373 1.120576 3.679000 54 43 42
0.917542 1.115069 3.640000 53 41 44
0.917542 1.121441 3.640000 52 41 43
0.917542 1.127812 3.640000 52 43 43
0.907963 1.122344 3.602000 53 45 45
0.898637 1.117055 3.565000 53 43 47
0.880488 1.100610 3.493000 53 41 54
0.785204 1.030581 3.115000 52 43 52
0.785204 1.036034 3.115000 51 45 50
0.732269 0.971274 2.905000 53 44 48
0.738571 0.984761 2.930000 55 44 51
0.730253 0.978742 2.897000 55 42 55
0.714372 0.962418 2.834000 55 42 52
0.708322 0.959187 2.810000 55 42 50
0.691433 0.941118 2.743000 55 42 49
0.691433 0.945920 2.743000 57 43 48
0.686140 0.943443 2.722000 59 44 48
0.680847 0.940892 2.701000 57 44 49
0.680847 0.945620 2.701000 55 44 51
0.675553 0.942960 2.680000 53 44 54
0.665218 0.933153 2.639000 52 45 52
0.660177 0.930666 2.619000 52 46 50
0.660177 0.935250 2.619000 53 47 51
0.655135 0.932658 2.599000 52 45 53
0.650346 0.930356 2.580000 51 45 52
0.645304 0.927625 2.560000 53 46 52
0.640767 0.925553 2.542000 54 46 50
0.635978 0.923051 2.523000 55 46 49
0.617828 0.901000 2.451000 56 45 51
0.609258 0.892732 2.417000 57 45 54
0.604973 0.890655 2.400000 57 45 56
0.600940 0.888890 2.384000 56 46 58
0.596654 0.886695 2.367000 55 46 56
0.592621 0.884817 2.351000 55 43 55
0.584807 0.877211 2.320000 55 42 51
0.576993 0.869496 2.289000 56 43 47
0.576993 0.873503 2.289000 58 42 55
0.573212 0.871760 2.274000 57 43 64
0.569431 0.869964 2.259000 56 44 59
0.565650 0.868115 2.244000 54 45 54
0.562121 0.866603 2.230000 53 46 53
0.449774 -0.688619 1.772000 54 31 23
0.449774 -0.685517 1.772000 53 31 20
0.459165 -0.687164 1.809000 56 32 34
0.459165 -0.683997 1.809000 56 34 33
0.452058 -0.664057 1.781000 56 36 32
0.449774 -0.583155 1.772000 62 45 40
0.449774 -0.580053 1.772000 63 49 38
0.449774 -0.576951 1.772000 64 48 42
0.447489 -0.570934 1.763000 66 50 45
0.447489 -0.567848 1.763000 69 44 44
0.933813 1.114136 3.679000 53 40 43
0.933813 1.120576 3.679000 54 40 41
0.923914 1.115069 3.640000 53 41 40
0.923914 1.121441 3.640000 53 42 41
0.923914 1.127812 3.640000 52 45 42
0.790657 1.030581 3.115000 52 42 49
0.783550 1.026721 3.087000 47 43 47
0.737354 0.971274 2.905000 51 44 46
0.737354 0.976359 2.905000 55 42 50
0.737354 0.981444 2.905000 55 42 53
0.725171 0.970229 2.857000 55 42 53
0.719333 0.967379 2.834000 54 42 54
0.701819 0.948666 2.765000 54 41 51
0.696235 0.945920 2.743000 54 40 48
0.690905 0.943443 2.722000 55 42 48
0.690905 0.948207 2.722000 55 45 48
0.685575 0.945620 2.701000 55 44 50
0.680244 0.942960 2.680000 53 44 53
0.674914 0.940225 2.659000 52 46 51
0.669838 0.937773 2.639000 52 50 50
0.664761 0.935250 2.619000 53 47 50
0.659685 0.932658 2.599000 52 45 50
0.654862 0.930356 2.580000 51 46 50
0.649786 0.927625 2.560000 52 49 51
0.640394 0.918635 2.523000 54 47 51
0.635825 0.916466 2.505000 55 46 51
0.626688 0.907617 2.469000 56 44 53
0.617804 0.899011 2.434000 57 45 55
0.613489 0.896963 2.417000 58 45 56
0.609174 0.894856 2.400000 57 44 58
0.600798 0.886695 2.367000 56 44 57
0.596737 0.884817 2.351000 56 42 56
0.588868 0.877211 2.320000 56 43 52
0.584807 0.875194 2.304000 59 45 48
0.581000 0.873503 2.289000 63 44 54
0.577192 0.871760 2.274000 60 44 61
0.573385 0.869964 2.259000 57 43 57
0.569578 0.868115 2.244000 55 44 53
0.566024 0.866603 2.230000 53 45 53
0.452875 -0.688619 1.772000 45 21 11
0.452875 -0.685517 1.772000 46 23 3
0.452875 -0.682415 1.772000 47 23 12
0.457476 -0.686214 1.790000 46 24 21
0.455176 -0.679646 1.781000 45 21 23
0.455176 -0.676528 1.781000 47 24 26
0.455176 -0.673410 1.781000 49 25 26
0.460031 -0.677444 1.800000 50 26 27
0.460031 -0.674293 1.800000 51 26 27
0.452875 -0.660702 1.772000 50 24 27
0.452875 -0.657600 1.772000 50 17 28
0.452875 -0.654498 1.772000 50 27 30
0.452875 -0.651396 1.772000 50 28 30
0.443675 -0.619929 1.736000 52 26 34
0.445975 -0.620088 1.745000 53 31 39
0.445975 -0.617034 1.745000 55 21 35
0.443675 -0.610813 1.736000 55 28 31
0.443675 -0.607774 1.736000 56 28 26
0.443675 -0.604735 1.736000 55 31 22
0.445975 -0.601761 1.745000 58 32 30
0.443675 -0.595618 1.736000 61 33 34
0.443675 -0.592579 1.736000 58 29 39
0.445975 -0.592597 1.745000 55 19 36
0.452875 -0.589358 1.772000 53 32 29
0.452875 -0.586257 1.772000 54 34 34
0.450575 -0.580193 1.763000 56 36 32
0.450575 -0.577107 1.763000 57 38 30
0.450575 -0.574021 1.763000 58 39 34
0.448275 -0.568020 1.754000 59 36 38
0.445975 -0.562051 1.745000 61 32 34
0.445975 -0.558996 1.745000 59 37 30
0.450575 -0.561676 1.763000 58 41 35
0.445975 -0.549832 1.745000 56 38 40
0.439330 -0.469421 1.719000 65 49 47
0.441630 -0.465829 1.728000 68 50 57
0.441630 -0.462804 1.728000 67 46 68
0.443675 -0.461908 1.736000 66 46 59
0.443675 -0.458869 1.736000 66 48 50
0.443675 -0.455830 1.736000 66 53 49
0.443675 -0.452791 1.736000 66 51 49
0.445975 -0.452084 1.745000 66 53 47
0.920574 1.090817 3.602000 53 38 46
0.920574 1.097123 3.602000 54 39 41
0.930286 1.115069 3.640000 54 40 36
0.920574 1.109733 3.602000 54 41 38
0.796110 1.030581 3.115000 54 42 46
0.788954 1.026721 3.087000 51 42 45
0.748829 0.979632 2.930000 54 43 45
0.742440 0.976359 2.905000 57 41 48
0.742440 0.981444 2.905000 56 41 52
0.730172 0.970229 2.857000 55 42 55
0.724294 0.967379 2.834000 54 42 58
0.724294 0.972340 2.834000 54 42 53
0.718160 0.969024 2.810000 54 41 49
0.701037 0.950721 2.743000 55 42 48
0.690303 0.940892 2.701000 54 44 47
0.684936 0.938268 2.680000 53 46 50
0.679569 0.935571 2.659000 52 45 53
0.674457 0.933153 2.639000 51 45 51
0.669346 0.930666 2.619000 52 46 50
0.664234 0.928108 2.599000 53 47 49
0.659378 0.925840 2.580000 53 45 48
0.654267 0.923144 2.560000 53 47 49
0.649667 0.921103 2.542000 53 46 50
0.640210 0.912081 2.505000 53 47 51
0.635610 0.909880 2.487000 54 44 53
0.626410 0.901000 2.451000 56 42 55
0.622065 0.899011 2.434000 54 45 57
0.617720 0.896963 2.417000 52 46 57
0.613375 0.894856 2.400000 54 44 58
0.604941 0.886695 2.367000 56 44 58
0.596763 0.878795 2.335000 55 43 58
0.588840 0.871161 2.304000 54 45 53
0.585007 0.869496 2.289000 56 45 49
0.585007 0.873503 2.289000 58 45 53
0.581173 0.871760 2.274000 57 43 58
0.581173 0.875740 2.274000 56 42 55
0.577339 0.873918 2.259000 54 43 53
0.573506 0.872043 2.244000 52 46 53
0.455977 -0.688619 1.772000 37 19 15
0.455977 -0.685517 1.772000 39 17 11
0.455977 -0.682415 1.772000 41 20 14
0.455977 -0.679313 1.772000 37 19 17
0.455977 -0.676211 1.772000 34 19 20
0.455977 -0.673109 1.772000 38 19 23
0.458293 -0.673410 1.781000 42 21 22
0.460609 -0.673680 1.790000 44 20 20
0.460609 -0.670547 1.790000 46 21 21
0.455977 -0.660702 1.772000 45 17 22
0.455977 -0.657600 1.772000 45 18 22
0.449030 -0.644525 1.745000 45 21 21
0.449030 -0.641471 1.745000 45 20 19
0.446714 -0.635123 1.736000 45 17 17
0.449030 -0.635362 1.745000 46 20 19
0.453661 -0.638829 1.763000 45 17 21
0.449030 -0.629252 1.745000 45 17 21
0.446714 -0.622968 1.736000 45 17 22
0.446714 -0.619929 1.736000 46 20 25
0.449030 -0.620088 1.745000 47 18 29
0.446714 -0.613851 1.736000 48 18 24
0.446714 -0.610813 1.736000 48 17 18
0.446714 -0.607774 1.736000 49 21 19
0.446714 -0.604735 1.736000 48 23 21
0.446714 -0.601696 1.736000 48 22 23
0.446714 -0.598657 1.736000 49 21 25
0.446714 -0.595618 1.736000 50 24 27
0.446714 -0.592579 1.736000 48 20 30
0.449030 -0.592597 1.745000 47 19 27
0.449030 -0.589542 1.745000 47 21 24
0.449030 -0.586488 1.745000 47 24 19
0.449030 -0.583433 1.745000 46 25 14
0.449030 -0.580378 1.745000 46 25 19
0.449030 -0.577324 1.745000 48 23 24
0.449030 -0.574269 1.745000 50 27 23
0.449030 -0.571214 1.745000 51 29 23
0.449030 -0.568160 1.745000 53 28 26
0.449030 -0.565105 1.745000 53 26 29
0.449030 -0.562051 1.745000 53 27 27
0.449030 -0.558996 1.745000 53 30 26
0.446714 -0.553074 1.736000 53 31 30
0.449030 -0.552887 1.745000 51 30 34
0.446714 -0.546996 1.736000 50 32 33
0.446714 -0.543957 1.736000 52 34 32
0.446714 -0.540919 1.736000 55 35 31
0.446714 -0.537880 1.736000 54 38 31
0.446714 -0.534841 1.736000 54 34 32
0.446714 -0.531802 1.736000 54 32 34
0.446714 -0.528763 1.736000 55 32 32
0.446714 -0.525724 1.736000 56 36 31
0.449030 -0.525395 1.745000 58 35 34
0.449030 -0.522340 1.745000 58 37 38
0.449030 -0.519286 1.745000 58 38 37
0.449030 -0.516231 1.745000 57 41 37
0.449030 -0.513177 1.745000 56 38 37
0.449030 -0.510122 1.745000 56 40 37
0.449030 -0.507067 1.745000 56 37 38
0.446714 -0.501413 1.736000 57 39 40
0.446714 -0.498374 1.736000 59 41 37
0.446714 -0.489258 1.736000 58 43 24
0.442339 -0.469421 1.719000 62 42 43
0.440280 -0.464241 1.711000 62 44 44
0.444655 -0.465829 1.728000 63 41 49
0.444655 -0.462804 1.728000 62 42 54
0.446714 -0.461908 1.736000 61 40 49
0.446714 -0.458869 1.736000 63 42 44
0.446714 -0.455830 1.736000 65 44 43
0.446714 -0.452791 1.736000 64 46 41
0.446714 -0.449753 1.736000 64 45 42
0.449030 -0.449030 1.745000 64 48 42
0.449030 -0.445975 1.745000 64 47 43
0.449030 -0.442920 1.745000 64 50 44
0.446714 -0.437597 1.736000 65 48 45
0.444655 -0.399282 1.728000 80 66 54
0.444655 -0.396257 1.728000 81 69 55
0.444655 -0.387183 1.728000 83 69 62
0.917358 1.079612 3.565000 53 36 47
0.926879 1.097123 3.602000 55 37 43
0.926879 1.103428 3.602000 55 39 40
0.794358 1.021317 3.087000 56 43 46
0.794358 1.026721 3.087000 55 43 45
0.760391 0.987991 2.955000 57 45 44
0.760391 0.993164 2.955000 59 42 46
0.747525 0.981444 2.905000 57 41 49
0.735173 0.970229 2.857000 55 42 52
0.729255 0.967379 2.834000 55 42 56
0.729255 0.972340 2.834000 55 41 54
0.723079 0.969024 2.810000 55 42 52
0.705838 0.950721 2.743000 55 43 51
0.695031 0.940892 2.701000 53 46 50
0.689627 0.938268 2.680000 51 46 52
0.684223 0.935571 2.659000 51 46 55
0.679077 0.933153 2.639000 51 45 57
0.673930 0.930666 2.619000 52 45 59
0.668784 0.928108 2.599000 53 44 55
0.663895 0.925840 2.580000 54 44 50
0.658748 0.923144 2.560000 56 45 51
0.649227 0.914218 2.523000 54 44 51
0.644595 0.912081 2.505000 53 45 53
0.639964 0.909880 2.487000 54 44 55
0.630700 0.901000 2.451000 56 44 54
0.626325 0.899011 2.434000 51 47 53
0.621951 0.896963 2.417000 47 46 55
0.617576 0.894856 2.400000 51 45 57
0.609085 0.886695 2.367000 56 43 56
0.604968 0.884817 2.351000 54 44 55
0.596991 0.877211 2.320000 53 45 51
0.589013 0.869496 2.289000 53 47 46
0.589013 0.873503 2.289000 53 45 55
0.585154 0.871760 2.274000 54 43 64
0.581294 0.869964 2.259000 56 42 59
0.577434 0.868115 2.244000 54 43 54
0.573831 0.866603 2.230000 52 44 53
0.456747 -0.685121 1.763000 38 18 19
0.456747 -0.682035 1.763000 40 18 19
0.456747 -0.678949 1.763000 41 21 16
0.456747 -0.675863 1.763000 39 20 13
0.456747 -0.672777 1.763000 38 20 17
0.456747 -0.669691 1.763000 39 20 21
0.459079 -0.670007 1.772000 41 21 17
0.456747 -0.663518 1.763000 42 21 14
0.452084 -0.653689 1.745000 44 23 16
0.452084 -0.650635 1.745000 43 19 18
0.452084 -0.647580 1.745000 43 18 15
0.449752 -0.641201 1.736000 43 18 13
0.449752 -0.638162 1.736000 43 15 8
0.449752 -0.635123 1.736000 43 19 4
0.449752 -0.632085 1.736000 44 23 9
0.452084 -0.632307 1.745000 42 20 15
0.449752 -0.626007 1.736000 41 20 15
0.449752 -0.622968 1.736000 42 19 15
0.449752 -0.619929 1.736000 42 21 17
0.449752 -0.616890 1.736000 43 19 20
0.449752 -0.613851 1.736000 44 18 13
0.449752 -0.610813 1.736000 44 18 6
0.449752 -0.607774 1.736000 45 18 13
0.449752 -0.604735 1.736000 45 19 20
0.449752 -0.601696 1.736000 46 17 20
0.449752 -0.598657 1.736000 47 19 21
0.449752 -0.595618 1.736000 48 22 21
0.449752 -0.592579 1.736000 47 20 21
0.452084 -0.592597 1.745000 46 19 18
0.452084 -0.589542 1.745000 45 20 15
0.452084 -0.586488 1.745000 44 19 9
0.452084 -0.583433 1.745000 44 22 4
0.452084 -0.580378 1.745000 44 21 9
0.452084 -0.577324 1.745000 44 21 14
0.452084 -0.574269 1.745000 45 21 15
0.452084 -0.571214 1.745000 47 23 17
0.452084 -0.568160 1.745000 48 20 19
0.452084 -0.565105 1.745000 48 22 21
0.449752 -0.559152 1.736000 48 21 21
0.449752 -0.556113 1.736000 48 25 22
0.449752 -0.553074 1.736000 49 24 24
0.449752 -0.550035 1.736000 46 27 27
0.449752 -0.546996 1.736000 44 26 26
0.449752 -0.543957 1.736000 48 28 25
0.447680 -0.538426 1.728000 52 28 25
0.447680 -0.535401 1.728000 51 30 25
0.449752 -0.534841 1.736000 50 28 27
0.447680 -0.529351 1.728000 50 25 29
0.447680 -0.526326 1.728000 51 22 27
0.449752 -0.525724 1.736000 52 27 25
0.449752 -0.522685 1.736000 54 26 30
0.449752 -0.519646 1.736000 53 29 35
0.449752 -0.516608 1.736000 53 30 32
0.449752 -0.513569 1.736000 53 30 29
0.449752 -0.510530 1.736000 52 30 31
0.449752 -0.507491 1.736000 52 29 33
0.449752 -0.504452 1.736000 53 26 33
0.449752 -0.501413 1.736000 53 30 34
0.449752 -0.498374 1.736000 54 33 34
0.449752 -0.495336 1.736000 53 31 34
0.449752 -0.492297 1.736000 53 27 20
0.447680 -0.487003 1.728000 52 30 7
0.443276 -0.470232 1.711000 56 33 38
0.440944 -0.464779 1.702000 57 33 39
0.440944 -0.461799 1.702000 58 33 41
0.445348 -0.463403 1.719000 58 30 41
0.447680 -0.462804 1.728000 58 31 41
0.447680 -0.459779 1.728000 57 30 40
0.447680 -0.456754 1.728000 58 34 39
0.447680 -0.453730 1.728000 59 35 36
0.447680 -0.450705 1.728000 58 36 34
0.449752 -0.449753 1.736000 58 36 37
0.449752 -0.446714 1.736000 58 36 40
0.449752 -0.443675 1.736000 58 34 41
0.449752 -0.440636 1.736000 58 38 42
0.449752 -0.437597 1.736000 59 38 42
0.449752 -0.434558 1.736000 60 40 43
0.447680 -0.429531 1.728000 61 42 39
0.447680 -0.426506 1.728000 63 41 35
0.445348 -0.421275 1.719000 66 38 41
0.445348 -0.418266 1.719000 67 44 48
0.447680 -0.414406 1.728000 70 45 49
0.447680 -0.411381 1.728000 71 38 52
0.447680 -0.408357 1.728000 71 49 56
0.449752 -0.407208 1.736000 72 54 51
0.447680 -0.402307 1.728000 72 54 47
0.447680 -0.399282 1.728000 72 47 48
0.445348 -0.394193 1.719000 73 49 49
0.445348 -0.391184 1.719000 73 46 52
0.445348 -0.388175 1.719000 75 51 56
0.445348 -0.385166 1.719000 77 45 57
0.445348 -0.382157 1.719000 78 54 58
0.443276 -0.344437 1.711000 78 65 51
0.440944 -0.297935 1.702000 81 75 59
0.440944 -0.294956 1.702000 82 76 62
0.440944 -0.291976 1.702000 83 78 58
0.440944 -0.288997 1.702000 84 78 54
0.923599 1.092093 3.565000 51 37 44
0.799761 1.021317 3.087000 56 42 47
0.792507 1.017408 3.059000 55 44 45
0.778776 1.005043 3.006000 55 44 43
0.765564 0.993164 2.955000 56 44 44
0.752610 0.981444 2.905000 55 42 46
0.746392 0.978379 2.881000 55 43 50
0.734216 0.967379 2.834000 56 40 55
0.734216 0.972340 2.834000 57 39 55
0.727998 0.969024 2.810000 56 41 56
0.710640 0.950721 2.743000 55 43 54
0.699759 0.940892 2.701000 54 44 53
0.699759 0.945620 2.701000 53 46 55
0.688878 0.935571 2.659000 52 44 58
0.683696 0.933153 2.639000 52 45 63
0.678515 0.930666 2.619000 53 44 69
0.673333 0.928108 2.599000 54 43 61
0.668411 0.925840 2.580000 54 43 53
0.663230 0.923144 2.560000 53 46 53
0.658566 0.921103 2.542000 53 44 53
0.648980 0.912081 2.505000 54 45 55
0.644317 0.909880 2.487000 55 44 57
0.634990 0.901000 2.451000 56 46 53
0.630586 0.899011 2.434000 52 46 49
0.626182 0.896963 2.417000 49 46 53
0.626182 0.901194 2.417000 52 43 57
0.617632 0.893063 2.384000 55 42 55
0.604938 0.878795 2.335000 54 44 53
0.601052 0.877211 2.320000 53 47 48
0.596907 0.875194 2.304000 53 47 44
0.593020 0.873503 2.289000 53 46 57
0.589134 0.871760 2.274000 54 43 70
0.585248 0.869964 2.259000 56 42 63
0.581362 0.868115 2.244000 55 42 56
0.577735 0.866603 2.230000 55 43 54
0.459834 -0.685121 1.763000 40 18 18
0.459834 -0.682035 1.763000 41 19 18
0.455139 -0.672017 1.745000 42 19 16
0.455139 -0.668962 1.745000 42 21 15
0.455139 -0.665908 1.745000 42 20 20
0.452791 -0.659434 1.736000 41 20 25
0.455139 -0.659799 1.745000 41 21 21
0.452791 -0.653357 1.736000 41 22 17
0.452791 -0.650318 1.736000 42 22 18
0.452791 -0.647279 1.736000 41 21 19
0.452791 -0.644240 1.736000 41 20 16
0.452791 -0.641201 1.736000 41 21 13
0.450705 -0.635221 1.728000 41 19 10
0.450705 -0.632197 1.728000 41 23 7
0.452791 -0.632085 1.736000 42 22 9
0.452791 -0.629046 1.736000 40 21 12
0.450705 -0.623122 1.728000 38 19 14
0.452791 -0.622968 1.736000 38 18 16
0.450705 -0.617072 1.728000 39 18 18
0.452791 -0.616890 1.736000 40 19 20
0.452791 -0.613851 1.736000 41 20 15
0.450705 -0.607998 1.728000 41 22 10
0.450705 -0.604973 1.728000 41 20 13
0.450705 -0.601948 1.728000 43 20 17
0.450705 -0.598923 1.728000 45 19 19
0.450705 -0.595898 1.728000 45 18 21
0.452791 -0.595618 1.736000 46 20 19
0.452791 -0.592579 1.736000 46 19 18
0.452791 -0.589540 1.736000 46 19 18
0.452791 -0.586502 1.736000 44 22 18
0.452791 -0.583463 1.736000 42 21 12
0.452791 -0.580424 1.736000 42 23 6
0.452791 -0.577385 1.736000 42 22 10
0.452791 -0.574346 1.736000 41 21 14
0.452791 -0.571307 1.736000 41 21 15
0.452791 -0.568268 1.736000 42 24 17
0.452791 -0.565230 1.736000 44 22 18
0.452791 -0.562191 1.736000 43 22 19
0.452791 -0.559152 1.736000 43 23 19
0.452791 -0.556113 1.736000 44 26 20
0.452791 -0.553074 1.736000 45 26 21
0.452791 -0.550035 1.736000 42 29 23
0.450705 -0.544476 1.728000 39 26 24
0.450705 -0.541451 1.728000 44 25 25
0.450705 -0.538426 1.728000 49 26 23
0.450705 -0.535401 1.728000 48 26 21
0.450705 -0.532376 1.728000 47 24 22
0.450705 -0.529351 1.728000 47 19 23
0.450705 -0.526326 1.728000 47 22 23
0.450705 -0.523301 1.728000 48 26 24
0.450705 -0.520277 1.728000 50 25 29
0.452791 -0.519646 1.736000 49 24 35
0.450705 -0.514227 1.728000 49 25 28
0.450705 -0.511202 1.728000 49 21 22
0.450705 -0.508177 1.728000 49 23 25
0.450705 -0.505152 1.728000 49 22 27
0.452791 -0.504452 1.736000 50 23 26
0.452791 -0.501413 1.736000 49 24 24
0.450705 -0.496078 1.728000 49 25 27
0.450705 -0.493053 1.728000 48 22 29
0.450705 -0.490028 1.728000 47 23 23
0.450705 -0.487003 1.728000 47 23 16
0.446271 -0.479217 1.711000 47 24 25
0.443923 -0.473717 1.702000 48 23 34
0.443923 -0.470737 1.702000 49 24 32
0.443923 -0.467758 1.702000 51 26 30
0.443923 -0.464779 1.702000 53 28 31
0.443923 -0.461799 1.702000 53 26 33
0.448357 -0.463403 1.719000 54 25 33
0.450705 -0.462804 1.728000 54 22 33
0.450705 -0.459779 1.728000 54 26 33
0.450705 -0.456754 1.728000 53 29 33
0.450705 -0.453730 1.728000 53 29 32
0.450705 -0.450705 1.728000 53 29 31
0.450705 -0.447680 1.728000 53 29 30
0.450705 -0.444655 1.728000 53 26 30
0.450705 -0.441630 1.728000 53 29 31
0.450705 -0.438605 1.728000 53 30 31
0.450705 -0.435580 1.728000 53 31 34
0.450705 -0.432556 1.728000 54 30 36
0.450705 -0.429531 1.728000 55 33 33
0.448357 -0.424284 1.719000 55 33 31
0.448357 -0.421275 1.719000 55 32 34
0.448357 -0.418266 1.719000 57 28 37
0.448357 -0.415257 1.719000 59 31 38
0.448357 -0.412248 1.719000 60 31 38
0.450705 -0.411381 1.728000 62 33 40
0.450705 -0.408357 1.728000 63 34 43
0.450705 -0.405332 1.728000 64 38 42
0.450705 -0.402307 1.728000 64 39 42
0.448357 -0.397202 1.719000 65 38 36
0.448357 -0.394193 1.719000 64 37 31
0.448357 -0.391184 1.719000 64 36 38
0.446271 -0.386369 1.711000 68 37 45
0.446271 -0.383373 1.711000 72 38 45
0.446271 -0.380378 1.711000 72 39 45
0.446271 -0.377383 1.711000 72 44 44
0.443923 -0.372419 1.702000 70 45 44
0.446271 -0.371393 1.711000 68 47 42
0.446271 -0.368398 1.711000 69 49 40
0.443923 -0.363481 1.702000 71 47 40
0.443923 -0.360501 1.702000 71 49 41
0.443923 -0.357522 1.702000 71 48 43
0.443923 -0.354543 1.702000 70 56 46
0.443923 -0.351563 1.702000 69 49 45
0.443923 -0.348584 1.702000 70 56 44
0.443923 -0.345605 1.702000 72 51 46
0.443923 -0.342625 1.702000 74 58 47
0.446271 -0.341442 1.711000 76 55 48
0.446271 -0.338447 1.711000 76 68 49
0.446271 -0.335452 1.711000 77 58 49
0.443923 -0.330708 1.702000 77 70 49
0.443923 -0.327729 1.702000 78 59 47
0.443923 -0.324749 1.702000 79 77 46
0.441837 -0.320258 1.694000 80 63 51
0.441837 -0.314327 1.694000 79 61 55
0.441837 -0.311361 1.694000 79 77 55
0.443923 -0.309852 1.702000 80 63 54
0.443923 -0.306873 1.702000 80 76 54
0.443923 -0.303894 1.702000 80 64 53
0.443923 -0.300914 1.702000 79 78 53
0.443923 -0.297935 1.702000 78 64 54
0.443923 -0.294956 1.702000 79 78 56
0.441837 -0.290604 1.694000 80 67 54
0.443923 -0.288997 1.702000 81 82 53
0.443923 -0.286018 1.702000 82 70 54
0.443923 -0.283038 1.702000 81 79 56
0.443923 -0.280059 1.702000 81 67 58
0.439750 -0.218399 1.686000 87 72 64
0.443923 -0.217493 1.702000 86 76 60
0.441837 -0.213505 1.694000 85 73 63
0.805165 1.015913 3.087000 58 41 47
0.797862 1.012054 3.059000 56 42 47
0.797862 1.017408 3.059000 55 43 46
0.784038 1.005043 3.006000 54 43 45
0.777257 1.001566 2.980000 54 43 45
0.770736 0.998337 2.955000 54 43 46
0.764216 0.995019 2.930000 55 42 51
0.739177 0.967379 2.834000 57 39 55
0.739177 0.972340 2.834000 59 40 58
0.732917 0.969024 2.810000 57 43 61
0.721180 0.958346 2.765000 56 43 56
0.709964 0.948207 2.722000 56 44 52
0.704487 0.945620 2.701000 56 43 50
0.709964 0.957737 2.722000 54 42 49
0.704487 0.955077 2.701000 53 43 54
0.693532 0.944880 2.659000 54 43 59
0.677883 0.928108 2.599000 56 43 54
0.672927 0.925840 2.580000 53 42 50
0.667711 0.923144 2.560000 51 44 51
0.658060 0.914218 2.523000 53 44 53
0.653365 0.912081 2.505000 55 44 56
0.648671 0.909880 2.487000 55 42 60
0.634847 0.894751 2.434000 56 44 52
0.630413 0.892732 2.417000 54 46 45
0.630413 0.896963 2.417000 52 44 50
0.625979 0.894856 2.400000 53 42 55
0.621806 0.893063 2.384000 55 42 55
0.613198 0.884817 2.351000 54 45 56
0.605113 0.877211 2.320000 53 46 52
0.600940 0.875194 2.304000 53 48 48
0.597027 0.873503 2.289000 53 45 56
0.593115 0.871760 2.274000 54 42 63
0.589203 0.869964 2.259000 56 42 59
0.585290 0.868115 2.244000 57 42 56
0.581639 0.866603 2.230000 59 42 54
0.455830 -0.674629 1.736000 40 17 18
0.458193 -0.675072 1.745000 40 18 17
0.458193 -0.672017 1.745000 41 18 17
0.455830 -0.665512 1.736000 41 18 17
0.458193 -0.665908 1.745000 41 19 23
0.453730 -0.656395 1.728000 42 20 29
0.456881 -0.657908 1.740000 43 21 25
0.458193 -0.656744 1.745000 42 21 21
0.455830 -0.650318 1.736000 40 23 21
0.453730 -0.644296 1.728000 38 22 21
0.453730 -0.641271 1.728000 36 23 17
0.453730 -0.638246 1.728000 39 21 14
0.453730 -0.635221 1.728000 43 19 12
0.453730 -0.632197 1.728000 42 21 10
0.453730 -0.629172 1.728000 41 23 9
0.453730 -0.626147 1.728000 40 20 9
0.453730 -0.623122 1.728000 39 18 13
0.453730 -0.620097 1.728000 39 18 18
0.453730 -0.617072 1.728000 39 17 19
0.455830 -0.616890 1.736000 39 19 20
0.453730 -0.611023 1.728000 38 21 17
0.453730 -0.607998 1.728000 39 21 14
0.453730 -0.604973 1.728000 41 21 14
0.453730 -0.601948 1.728000 42 21 15
0.453730 -0.598923 1.728000 43 21 18
0.453730 -0.595898 1.728000 43 21 21
0.453730 -0.592873 1.728000 44 23 18
0.453730 -0.589849 1.728000 44 20 16
0.453730 -0.586824 1.728000 44 18 18
0.453730 -0.583799 1.728000 43 20 21
0.453730 -0.580774 1.728000 42 22 15
0.453730 -0.577749 1.728000 42 22 9
0.453730 -0.574724 1.728000 42 24 12
0.453730 -0.571699 1.728000 40 22 15
0.453730 -0.568674 1.728000 38 21 16
0.453730 -0.565650 1.728000 41 22 17
0.453730 -0.562625 1.728000 44 24 17
0.453730 -0.559600 1.728000 43 23 17
0.453730 -0.556575 1.728000 42 24 17
0.453730 -0.553550 1.728000 43 25 18
0.453730 -0.550525 1.728000 44 26 18
0.453730 -0.547500 1.728000 43 26 19
0.453730 -0.544476 1.728000 42 26 22
0.453730 -0.541451 1.728000 44 25 25
0.451366 -0.535622 1.719000 47 26 21
0.453730 -0.535401 1.728000 46 25 17
0.453730 -0.532376 1.728000 46 24 17
0.453730 -0.529351 1.728000 45 22 18
0.453730 -0.526326 1.728000 45 22 20
0.451366 -0.520576 1.719000 46 24 23
0.453730 -0.520277 1.728000 47 26 29
0.451366 -0.514558 1.719000 46 25 35
0.453730 -0.514227 1.728000 45 25 25
0.453730 -0.511202 1.728000 46 22 16
0.453730 -0.508177 1.728000 48 21 19
0.453730 -0.505152 1.728000 48 21 22
0.453730 -0.502127 1.728000 48 23 18
0.453730 -0.499103 1.728000 47 23 15
0.453730 -0.496078 1.728000 47 23 20
0.453730 -0.493053 1.728000 46 23 25
0.451366 -0.487476 1.719000 46 22 25
0.451366 -0.484467 1.719000 45 23 26
0.446903 -0.476696 1.702000 45 21 28
0.444802 -0.471490 1.694000 46 22 31
0.446903 -0.470737 1.702000 47 20 26
0.446903 -0.467758 1.702000 48 26 22
0.449266 -0.467236 1.711000 49 30 24
0.446903 -0.461799 1.702000 49 27 26
0.449266 -0.461246 1.711000 49 24 26
0.451366 -0.460394 1.719000 49 22 26
0.451366 -0.457385 1.719000 50 24 26
0.451366 -0.454376 1.719000 50 26 27
0.451366 -0.451366 1.719000 50 26 27
0.451366 -0.448357 1.719000 50 27 28
0.451366 -0.445348 1.719000 50 27 24
0.451366 -0.442339 1.719000 49 27 21
0.453730 -0.441630 1.728000 48 26 21
0.453730 -0.438605 1.728000 48 27 21
0.451366 -0.433312 1.719000 49 29 25
0.453730 -0.432556 1.728000 50 29 30
0.451366 -0.427294 1.719000 50 30 28
0.451366 -0.424284 1.719000 50 29 27
0.449266 -0.419315 1.711000 50 29 27
0.449266 -0.416320 1.711000 51 28 27
0.449266 -0.413325 1.711000 53 30 27
0.449266 -0.410329 1.711000 54 29 28
0.449266 -0.407334 1.711000 55 30 29
0.449266 -0.404339 1.711000 56 29 30
0.449266 -0.401344 1.711000 57 26 33
0.451366 -0.400212 1.719000 57 30 37
0.449266 -0.395354 1.711000 58 30 25
0.449266 -0.392359 1.711000 57 29 13
0.449266 -0.389364 1.711000 57 26 23
0.449266 -0.386369 1.711000 59 31 34
0.446903 -0.381357 1.702000 62 33 33
0.446903 -0.378378 1.702000 62 33 33
0.446903 -0.375398 1.702000 63 34 36
0.446903 -0.372419 1.702000 58 35 39
0.446903 -0.369440 1.702000 54 35 35
0.446903 -0.366460 1.702000 58 36 31
0.446903 -0.363481 1.702000 62 36 32
0.446903 -0.360501 1.702000 62 36 33
0.446903 -0.357522 1.702000 62 29 38
0.446903 -0.354543 1.702000 60 32 43
0.446903 -0.351563 1.702000 59 20 42
0.446903 -0.348584 1.702000 61 30 41
0.446903 -0.345605 1.702000 63 24 42
0.446903 -0.342625 1.702000 64 34 44
0.449266 -0.341442 1.711000 66 28 46
0.446903 -0.336667 1.702000 66 36 49
0.446903 -0.333687 1.702000 67 25 47
0.446903 -0.330708 1.702000 66 33 45
0.446903 -0.327729 1.702000 66 17 44
0.446903 -0.324749 1.702000 68 35 44
0.444802 -0.320258 1.694000 70 29 48
0.444802 -0.317292 1.694000 69 36 53
0.444802 -0.314327 1.694000 69 24 53
0.444802 -0.311361 1.694000 69 37 54
0.444802 -0.308396 1.694000 70 25 52
0.446903 -0.306873 1.702000 70 37 50
0.446903 -0.303894 1.702000 71 26 50
0.446903 -0.300914 1.702000 70 38 50
0.444802 -0.296535 1.694000 69 26 50
0.444802 -0.293569 1.694000 68 41 50
0.444802 -0.290604 1.694000 68 30 51
0.444802 -0.287639 1.694000 70 45 53
0.444802 -0.284673 1.694000 71 40 53
0.446903 -0.283038 1.702000 71 46 54
0.446903 -0.280059 1.702000 72 34 56
0.446903 -0.277080 1.702000 73 47 59
0.449266 -0.275550 1.711000 74 44 58
0.449266 -0.272555 1.711000 74 51 58
0.444802 -0.249089 1.694000 78 47 57
0.444802 -0.246124 1.694000 78 57 59
0.444802 -0.243158 1.694000 79 60 56
0.444802 -0.240193 1.694000 79 62 53
0.444802 -0.237228 1.694000 79 63 51
0.444802 -0.234262 1.694000 79 60 50
0.444802 -0.231297 1.694000 80 61 52
0.444802 -0.228332 1.694000 81 63 54
0.442702 -0.224302 1.686000 82 64 55
0.442702 -0.221351 1.686000 81 64 56
0.440338 -0.217234 1.677000 81 66 52
0.440338 -0.214298 1.677000 81 68 49
0.440338 -0.211362 1.677000 80 72 51
0.440338 -0.208427 1.677000 80 68 54
0.446903 -0.208555 1.702000 80 65 54
0.446903 -0.205575 1.702000 81 66 54
0.446903 -0.202596 1.702000 81 69 57
0.810569 1.015913 3.087000 55 40 48
0.803217 1.012054 3.059000 53 42 47
0.803217 1.017408 3.059000 51 44 47
0.789301 1.005043 3.006000 52 43 47
0.782474 1.001566 2.980000 52 45 47
0.782474 1.006783 2.980000 53 43 47
0.775909 1.003509 2.955000 54 44 51
0.750177 0.975230 2.857000 55 41 56
0.744138 0.972340 2.834000 57 41 61
0.732059 0.961438 2.788000 56 42 67
0.726020 0.958346 2.765000 55 42 59
0.720243 0.955523 2.743000 55 42 51
0.720243 0.960324 2.743000 56 42 46
0.714729 0.957737 2.722000 56 42 41
0.709215 0.955077 2.701000 56 42 45
0.703701 0.952342 2.680000 56 43 49
0.687684 0.935250 2.619000 56 45 48
0.672192 0.918663 2.560000 54 44 48
0.672192 0.923144 2.560000 53 44 50
0.662477 0.914218 2.523000 54 44 53
0.653024 0.905527 2.487000 55 45 58
0.648298 0.903295 2.469000 54 44 63
0.639108 0.894751 2.434000 54 45 52
0.634644 0.892732 2.417000 53 45 41
0.634644 0.896963 2.417000 52 45 47
0.634644 0.901194 2.417000 53 43 53
0.625979 0.893063 2.384000 55 42 56
0.621515 0.890838 2.367000 54 44 59
0.613113 0.882882 2.335000 53 46 56
0.604973 0.875194 2.304000 52 46 53
0.601034 0.873503 2.289000 52 45 55
0.597096 0.871760 2.274000 51 44 57
0.597096 0.875740 2.274000 51 45 56
0.593157 0.873918 2.259000 57 42 56
0.585542 0.866603 2.230000 63 42 54
0.456755 -0.671520 1.728000 40 18 15
0.458869 -0.671590 1.736000 40 20 15
0.456755 -0.665470 1.728000 41 18 15
0.456755 -0.662445 1.728000 40 16 14
0.458869 -0.662473 1.736000 40 18 15
0.456755 -0.656395 1.728000 43 21 17
0.458869 -0.656396 1.736000 46 21 17
0.458869 -0.653357 1.736000 42 21 17
0.456755 -0.647321 1.728000 39 23 17
0.456755 -0.644296 1.728000 35 23 17
0.456755 -0.641271 1.728000 31 23 15
0.456755 -0.638246 1.728000 38 24 13
0.456755 -0.635221 1.728000 45 21 11
0.456755 -0.632197 1.728000 43 22 9
0.456755 -0.629172 1.728000 41 21 10
0.456755 -0.626147 1.728000 40 20 11
0.456755 -0.623122 1.728000 40 19 13
0.456755 -0.620097 1.728000 40 20 16
0.456755 -0.617072 1.728000 40 19 17
0.456755 -0.614047 1.728000 38 21 18
0.456755 -0.611023 1.728000 36 22 14
0.456755 -0.607998 1.728000 38 22 11
0.454376 -0.601822 1.719000 41 22 13
0.454376 -0.598813 1.719000 41 22 15
0.454376 -0.595804 1.719000 42 22 16
0.454376 -0.592795 1.719000 42 23 18
0.454376 -0.589786 1.719000 42 23 17
0.454376 -0.586776 1.719000 42 23 16
0.454376 -0.583767 1.719000 42 21 17
0.454376 -0.580758 1.719000 42 21 18
0.454376 -0.577749 1.719000 42 21 15
0.454376 -0.574740 1.719000 42 21 12
0.454376 -0.571731 1.719000 42 23 13
0.456755 -0.571699 1.728000 39 24 15
0.454376 -0.565713 1.719000 36 22 14
0.456755 -0.565650 1.728000 40 21 13
0.454376 -0.559694 1.719000 44 23 15
0.456755 -0.559600 1.728000 43 24 17
0.454376 -0.553676 1.719000 42 24 17
0.454376 -0.550667 1.719000 42 26 17
0.454376 -0.547658 1.719000 43 25 17
0.454376 -0.544649 1.719000 44 24 18
0.454376 -0.541640 1.719000 45 25 20
0.454376 -0.538631 1.719000 45 26 22
0.454376 -0.535622 1.719000 45 26 19
0.454376 -0.532612 1.719000 45 24 17
0.454376 -0.529603 1.719000 45 25 17
0.454376 -0.526594 1.719000 44 26 18
0.454376 -0.523585 1.719000 43 24 18
0.454376 -0.520576 1.719000 44 22 19
0.452261 -0.515158 1.711000 45 25 23
0.454376 -0.514558 1.719000 43 27 26
0.454376 -0.511549 1.719000 41 25 19
0.454376 -0.508540 1.719000 44 24 13
0.454376 -0.505530 1.719000 47 23 15
0.454376 -0.502521 1.719000 47 21 17
0.454376 -0.499512 1.719000 47 23 17
0.454376 -0.496503 1.719000 46 24 17
0.454376 -0.493494 1.719000 45 25 23
0.454376 -0.490485 1.719000 45 26 29
0.452261 -0.485207 1.711000 45 24 26
0.452261 -0.482212 1.711000 44 26 24
0.449882 -0.476696 1.702000 43 24 26
0.449882 -0.473717 1.702000 44 26 28
0.449882 -0.470737 1.702000 45 25 25
0.449882 -0.467758 1.702000 45 28 21
0.449882 -0.464779 1.702000 46 28 22
0.449882 -0.461799 1.702000 45 28 23
0.449882 -0.458820 1.702000 45 25 22
0.449882 -0.455841 1.702000 45 21 22
0.449882 -0.452861 1.702000 46 23 22
0.449882 -0.449882 1.702000 46 26 23
0.449882 -0.446903 1.702000 47 26 23
0.449882 -0.443923 1.702000 47 26 23
0.449882 -0.440944 1.702000 47 27 22
0.449882 -0.437965 1.702000 45 29 20
0.449882 -0.434985 1.702000 43 26 16
0.449882 -0.432006 1.702000 44 26 13
0.449882 -0.429027 1.702000 46 28 19
0.449882 -0.426047 1.702000 46 29 25
0.449882 -0.423068 1.702000 46 28 24
0.449882 -0.420088 1.702000 46 26 24
0.449882 -0.417109 1.702000 46 27 24
0.449882 -0.414130 1.702000 46 28 24
0.449882 -0.411150 1.702000 47 28 25
0.449882 -0.408171 1.702000 48 27 27
0.449882 -0.405192 1.702000 49 29 28
0.449882 -0.402212 1.702000 50 29 29
0.449882 -0.399233 1.702000 51 27 31
0.449882 -0.396254 1.702000 51 25 33
0.449882 -0.393274 1.702000 51 27 25
0.449882 -0.390295 1.702000 50 26 17
0.449882 -0.387316 1.702000 50 27 23
0.449882 -0.384336 1.702000 51 30 29
0.449882 -0.381357 1.702000 53 31 27
0.449882 -0.378378 1.702000 53 29 25
0.449882 -0.375398 1.702000 54 30 24
0.447767 -0.370668 1.694000 47 27 24
0.447767 -0.367703 1.694000 40 29 25
0.447767 -0.364738 1.694000 46 26 26
0.447767 -0.361772 1.694000 53 30 29
0.447767 -0.358807 1.694000 53 30 31
0.447767 -0.355842 1.694000 53 28 31
0.449882 -0.354543 1.702000 51 26 32
0.447767 -0.349911 1.694000 50 23 32
0.449882 -0.348584 1.702000 52 21 32
0.449882 -0.345605 1.702000 54 25 33
0.449882 -0.342625 1.702000 55 26 34
0.449882 -0.339646 1.702000 56 27 36
0.447767 -0.335084 1.694000 56 24 38
0.447767 -0.332119 1.694000 57 26 37
0.447767 -0.329154 1.694000 55 23 35
0.447767 -0.326188 1.694000 54 23 33
0.447767 -0.323223 1.694000 57 19 32
0.447767 -0.320258 1.694000 60 25 35
0.447767 -0.317292 1.694000 59 22 39
0.447767 -0.314327 1.694000 59 24 40
0.447767 -0.311361 1.694000 60 22 41
0.447767 -0.308396 1.694000 61 25 40
0.447767 -0.305431 1.694000 61 22 40
0.449882 -0.303894 1.702000 62 26 39
0.449882 -0.300914 1.702000 61 23 39
0.447767 -0.296535 1.694000 60 27 40
0.447767 -0.293569 1.694000 58 30 42
0.447767 -0.290604 1.694000 57 30 42
0.449882 -0.288997 1.702000 59 28 43
0.447767 -0.284673 1.694000 61 33 43
0.447767 -0.281708 1.694000 62 32 44
0.449882 -0.280059 1.702000 63 34 47
0.447767 -0.275777 1.694000 63 32 50
0.449882 -0.274100 1.702000 63 37 49
0.449882 -0.271121 1.702000 64 39 48
0.445653 -0.265621 1.686000 65 40 41
0.449882 -0.265162 1.702000 66 41 34
0.447767 -0.260951 1.694000 68 45 36
0.443274 -0.255396 1.677000 70 47 39
0.443274 -0.252461 1.677000 72 44 42
0.445653 -0.250864 1.686000 72 44 45
0.445653 -0.247913 1.686000 73 43 41
0.447767 -0.246124 1.694000 73 46 37
0.445653 -0.242010 1.686000 74 49 40
0.447767 -0.240193 1.694000 73 51 43
0.447767 -0.237228 1.694000 73 51 43
0.447767 -0.234262 1.694000 74 49 44
0.447767 -0.231297 1.694000 75 49 46
0.445653 -0.227253 1.686000 76 57 49
0.445653 -0.224302 1.686000 77 54 47
0.443274 -0.220169 1.677000 76 55 45
0.443274 -0.217234 1.677000 76 56 36
0.443274 -0.214298 1.677000 76 60 28
0.443274 -0.211362 1.677000 76 60 38
0.441159 -0.207432 1.669000 76 64 48
0.443274 -0.205491 1.677000 76 56 49
0.445653 -0.203643 1.686000 77 59 50
0.449882 -0.202596 1.702000 78 58 52
0.449882 -0.199617 1.702000 77 60 54
0.447767 -0.192748 1.694000 77 77 56
0.447767 -0.189782 1.694000 79 68 56
0.447767 -0.186817 1.694000 80 80 57
0.445653 -0.182983 1.686000 81 68 62
0.445653 -0.180032 1.686000 82 81 68
0.445653 -0.177081 1.686000 83 71 64
0.445653 -0.174129 1.686000 82 83 59
0.445653 -0.171178 1.686000 82 69 60
0.441159 -0.073040 1.669000 84 77 69
0.443274 -0.067519 1.677000 84 77 69
0.441159 -0.064275 1.669000 85 76 69
0.441159 -0.061353 1.669000 86 75 70
0.441159 -0.058432 1.669000 87 74 72
0.441159 -0.055510 1.669000 86 74 74
0.815973 1.015913 3.087000 53 40 49
0.808572 1.012054 3.059000 50 43 50
0.808572 1.017408 3.059000 48 43 48
0.787690 0.996350 2.980000 49 42 47
0.781082 0.993164 2.955000 51 44 46
0.781082 0.998337 2.955000 52 43 45
0.774474 0.995019 2.930000 54 42 46
0.761522 0.983422 2.881000 54 41 48
0.749099 0.972340 2.834000 55 42 51
0.736940 0.961438 2.788000 54 42 55
0.730860 0.958346 2.765000 54 41 53
0.730860 0.963187 2.765000 55 40 52
0.725045 0.960324 2.743000 56 43 47
0.719494 0.957737 2.722000 57 45 42
0.713943 0.955077 2.701000 59 43 45
0.702842 0.944880 2.659000 58 43 49
0.676673 0.914181 2.560000 57 44 47
0.676673 0.918663 2.560000 56 45 45
0.671915 0.916653 2.542000 55 43 46
0.666893 0.914218 2.523000 55 43 48
0.662135 0.912081 2.505000 55 44 52
0.657378 0.909880 2.487000 54 47 56
0.643368 0.894751 2.434000 53 46 49
0.638875 0.892732 2.417000 53 46 42
0.638875 0.896963 2.417000 53 45 45
0.634381 0.894856 2.400000 54 44 49
0.630152 0.893063 2.384000 55 43 52
0.621429 0.884817 2.351000 54 43 56
0.617200 0.882882 2.335000 53 44 54
0.609006 0.875194 2.304000 52 45 53
0.605041 0.873503 2.289000 51 45 53
0.601076 0.871760 2.274000 48 46 53
0.597111 0.869964 2.259000 46 45 53
0.593147 0.868115 2.244000 57 42 54
0.589446 0.866603 2.230000 68 43 51
0.459779 -0.671520 1.728000 40 21 13
0.459779 -0.668495 1.728000 39 20 14
0.459779 -0.665470 1.728000 39 20 13
0.459779 -0.662445 1.728000 39 18 12
0.459779 -0.659420 1.728000 39 17 8
0.457385 -0.652977 1.719000 40 19 5
0.459779 -0.653371 1.728000 42 21 9
0.459779 -0.650346 1.728000 40 22 14
0.457385 -0.643950 1.719000 39 25 14
0.457385 -0.640940 1.719000 36 23 14
0.457385 -0.637931 1.719000 33 23 13
0.457385 -0.634922 1.719000 38 22 13
0.457385 -0.631913 1.719000 42 21 11
0.457385 -0.628904 1.719000 41 21 9
0.457385 -0.625895 1.719000 40 21 11
0.457385 -0.622886 1.719000 40 19 13
0.457385 -0.619877 1.719000 40 19 13
0.457385 -0.616867 1.719000 39 20 14
0.457385 -0.613858 1.719000 38 21 15
0.457385 -0.610849 1.719000 38 23 16
0.457385 -0.607840 1.719000 37 26 12
0.457385 -0.604831 1.719000 39 24 9
0.455256 -0.599021 1.711000 41 23 12
0.457385 -0.598813 1.719000 41 22 15
0.455256 -0.593031 1.711000 42 22 15
0.455256 -0.590036 1.711000 39 23 15
0.455256 -0.587041 1.711000 36 24 15
0.455256 -0.584046 1.711000 38 23 16
0.455256 -0.581051 1.711000 41 23 15
0.455256 -0.578055 1.711000 41 21 15
0.452861 -0.572035 1.702000 42 22 15
0.455256 -0.572065 1.711000 42 21 15
0.455256 -0.569070 1.711000 42 23 15
0.455256 -0.566075 1.711000 40 23 15
0.455256 -0.563080 1.711000 39 22 12
0.455256 -0.560085 1.711000 41 22 10
0.455256 -0.557090 1.711000 43 24 13
0.452861 -0.551180 1.702000 41 24 17
0.455256 -0.551099 1.711000 39 24 16
0.455256 -0.548104 1.711000 41 25 16
0.455256 -0.545109 1.711000 43 26 17
0.455256 -0.542114 1.711000 44 25 18
0.455256 -0.539119 1.711000 45 26 18
0.455256 -0.536124 1.711000 42 27 19
0.452861 -0.530325 1.702000 40 28 18
0.452861 -0.527345 1.702000 41 26 18
0.452861 -0.524366 1.702000 43 26 18
0.452861 -0.521386 1.702000 42 26 18
0.452861 -0.518407 1.702000 41 26 17
0.452861 -0.515428 1.702000 43 25 16
0.452861 -0.512448 1.702000 45 26 17
0.452861 -0.509469 1.702000 42 26 18
0.452861 -0.506490 1.702000 40 26 14
0.455256 -0.506173 1.711000 42 24 10
0.455256 -0.503178 1.711000 45 26 11
0.455256 -0.500183 1.711000 45 24 13
0.455256 -0.497188 1.711000 46 26 16
0.455256 -0.494192 1.711000 45 25 19
