ply
format ascii 1.0
element vertex 1195
property float x
property float y
property float z
property uchar red
property uchar green
property uchar blue
end_header
-0.092798 0.652783 1.828000 153 140 148
-0.092341 0.652753 1.819000 151 139 148
-0.091376 0.649086 1.800000 149 138 146
-0.090412 0.645352 1.781000 154 139 144
-0.089955 0.645192 1.772000 159 139 149
-0.089498 0.645002 1.763000 156 141 153
-0.088787 0.642941 1.749000 154 140 151
-0.088584 0.644525 1.745000 153 140 149
-0.088127 0.644240 1.736000 153 140 149
-0.087264 0.640940 1.719000 151 137 148
-0.086858 0.640953 1.711000 149 137 149
-0.086401 0.640561 1.702000 152 140 150
-0.085995 0.640515 1.694000 155 139 151
-0.085589 0.640442 1.686000 156 139 153
-0.085132 0.639958 1.677000 158 138 149
-0.084726 0.639827 1.669000 156 140 145
-0.083508 0.633506 1.645000 155 136 144
-0.083152 0.633678 1.638000 158 132 143
-0.082746 0.633436 1.630000 162 132 142
-0.082746 0.636289 1.630000 157 135 141
-0.081579 0.630124 1.607000 153 136 142
-0.081223 0.630180 1.600000 153 136 143
-0.081579 0.635750 1.607000 153 135 146
-0.080462 0.629821 1.585000 155 137 148
-0.080106 0.629802 1.578000 157 136 144
-0.079751 0.629758 1.571000 154 135 140
-0.079345 0.629287 1.563000 152 133 142
-0.078990 0.629193 1.556000 153 132 143
-0.078634 0.629074 1.549000 155 131 140
-0.078279 0.628930 1.542000 153 131 138
-0.077264 0.623437 1.522000 152 131 140
-0.076908 0.623222 1.515000 151 130 142
-0.076604 0.623395 1.509000 150 132 141
-0.075944 0.620643 1.496000 149 134 141
-0.075588 0.620346 1.489000 148 134 141
-0.075588 0.622952 1.489000 148 133 141
-0.125476 0.699080 2.560000 152 139 155
-0.124594 0.698614 2.542000 152 137 158
-0.124594 0.703064 2.542000 151 137 150
-0.123662 0.702226 2.523000 152 138 142
-0.122780 0.701601 2.505000 152 140 145
-0.121898 0.700913 2.487000 153 140 148
-0.121016 0.700162 2.469000 155 141 150
-0.120133 0.699348 2.451000 156 140 153
-0.119300 0.698758 2.434000 157 140 151
-0.117634 0.693198 2.400000 154 138 149
-0.116016 0.687810 2.367000 151 138 149
-0.116016 0.691954 2.367000 151 139 149
-0.114448 0.686686 2.335000 151 140 146
-0.113712 0.686336 2.320000 151 140 143
-0.113712 0.690397 2.320000 151 140 145
-0.112193 0.685179 2.289000 152 140 148
-0.111458 0.684670 2.274000 153 140 148
-0.110723 0.684108 2.259000 154 140 148
-0.109987 0.683493 2.244000 156 140 149
-0.109301 0.683133 2.230000 157 139 150
-0.109301 0.687036 2.230000 158 140 151
-0.108566 0.686292 2.215000 154 139 152
-0.106556 0.677395 2.174000 151 138 151
-0.105870 0.676813 2.160000 152 137 150
-0.105233 0.676498 2.147000 154 138 148
-0.104547 0.675821 2.133000 154 135 147
-0.103910 0.675413 2.120000 155 137 149
-0.103272 0.674960 2.107000 154 138 152
-0.103272 0.678648 2.107000 154 140 151
-0.102684 0.678450 2.095000 155 139 150
-0.099645 0.661931 2.033000 157 140 149
-0.099057 0.661561 2.021000 156 140 148
-0.099057 0.665099 2.021000 155 140 149
-0.099057 0.668637 2.021000 154 139 151
-0.098469 0.668183 2.009000 153 139 149
-0.097342 0.664010 1.986000 153 140 148
-0.095675 0.656060 1.952000 153 141 146
-0.095136 0.655760 1.941000 153 138 144
-0.094107 0.652026 1.920000 153 138 146
-0.093568 0.651632 1.909000 153 137 149
-0.093078 0.651543 1.899000 153 138 148
-0.092538 0.651074 1.888000 152 139 148
-0.092048 0.650913 1.878000 152 141 148
-0.092048 0.654201 1.878000 151 141 149
-0.091558 0.653987 1.868000 149 141 149
-0.091068 0.653738 1.858000 154 140 150
-0.090578 0.653455 1.848000 158 140 149
-0.090088 0.653136 1.838000 155 138 148
-0.089156 0.649569 1.819000 152 140 147
-0.088666 0.649164 1.809000 151 138 147
-0.088225 0.649086 1.800000 150 137 144
-0.087735 0.648613 1.790000 153 137 141
-0.087294 0.648469 1.781000 156 138 149
-0.086853 0.648294 1.772000 155 139 157
-0.085971 0.644779 1.754000 155 140 153
-0.085529 0.644525 1.745000 154 140 150
-0.084696 0.641271 1.728000 153 142 149
-0.084696 0.644296 1.728000 152 137 148
-0.083422 0.637581 1.702000 151 135 148
-0.083030 0.637550 1.694000 152 137 149
-0.083030 0.640515 1.694000 154 138 149
-0.082638 0.640442 1.686000 155 138 150
-0.082196 0.639958 1.677000 155 138 147
-0.081412 0.636760 1.661000 152 137 145
-0.080628 0.633506 1.645000 149 136 143
-0.080285 0.633678 1.638000 153 132 142
-0.079893 0.633436 1.630000 157 131 139
-0.079893 0.636289 1.630000 155 134 136
-0.079501 0.636006 1.622000 153 137 139
-0.078765 0.632937 1.607000 151 136 142
-0.078765 0.635750 1.607000 150 136 143
-0.077687 0.629821 1.585000 152 136 144
-0.077344 0.629802 1.578000 155 136 144
-0.077001 0.629758 1.571000 152 135 144
-0.076609 0.629287 1.563000 150 135 144
-0.076266 0.629193 1.556000 152 133 145
-0.075923 0.629074 1.549000 153 132 142
-0.075580 0.628930 1.542000 153 131 140
-0.074599 0.623437 1.522000 152 132 141
-0.074256 0.623222 1.515000 151 131 142
-0.073962 0.623395 1.509000 150 132 141
-0.073325 0.620643 1.496000 148 135 140
-0.073325 0.623262 1.496000 147 136 140
-0.072982 0.622952 1.489000 147 134 140
-0.124728 0.706794 2.639000 154 137 149
-0.123783 0.706022 2.619000 158 139 149
-0.123783 0.710607 2.619000 155 141 149
-0.121940 0.704541 2.580000 152 139 151
-0.120995 0.703561 2.560000 149 138 153
-0.120995 0.708042 2.560000 147 138 148
-0.120144 0.707514 2.542000 149 138 143
-0.118395 0.701601 2.505000 151 140 145
-0.116694 0.695840 2.469000 152 142 148
-0.116694 0.700162 2.469000 153 142 149
-0.115843 0.699348 2.451000 154 143 150
-0.115843 0.703638 2.451000 155 139 148
-0.114236 0.698108 2.417000 153 136 146
-0.111873 0.687810 2.367000 151 137 147
-0.111873 0.691954 2.367000 150 139 149
-0.110360 0.686686 2.335000 150 139 146
-0.110360 0.690774 2.335000 150 140 144
-0.109651 0.690397 2.320000 150 138 145
-0.108186 0.685179 2.289000 151 140 147
-0.108186 0.689186 2.289000 152 140 146
-0.107477 0.688650 2.274000 154 140 146
-0.106768 0.688062 2.259000 156 139 147
-0.105398 0.683133 2.230000 158 139 149
-0.104689 0.682415 2.215000 161 140 151
-0.104027 0.681955 2.201000 154 140 153
-0.102751 0.677395 2.174000 148 138 151
-0.102089 0.676813 2.160000 150 137 149
-0.101475 0.676498 2.147000 153 135 146
-0.100813 0.675821 2.133000 154 134 143
-0.100199 0.675413 2.120000 155 137 149
-0.099584 0.674960 2.107000 155 140 154
-0.099017 0.674783 2.095000 155 139 152
-0.099017 0.678450 2.095000 158 140 150
-0.095520 0.658024 2.021000 162 140 149
-0.095520 0.661561 2.021000 159 140 148
-0.095520 0.665099 2.021000 156 139 148
-0.095520 0.668637 2.021000 155 138 148
-0.094433 0.664525 1.998000 154 138 148
-0.093865 0.664010 1.986000 153 140 149
-0.092826 0.660093 1.964000 153 139 149
-0.091738 0.655760 1.941000 152 138 150
-0.091266 0.655762 1.931000 152 138 150
-0.090226 0.651632 1.909000 152 138 150
-0.089753 0.651543 1.899000 153 138 148
-0.089234 0.651074 1.888000 152 140 147
-0.089234 0.654379 1.888000 151 140 146
-0.088761 0.654201 1.878000 149 140 146
-0.088288 0.653987 1.868000 147 140 147
-0.087816 0.653738 1.858000 154 142 149
-0.087343 0.653455 1.848000 162 140 148
-0.086870 0.653136 1.838000 157 138 148
-0.085972 0.649569 1.819000 152 138 148
-0.085500 0.649164 1.809000 152 137 148
-0.085074 0.649086 1.800000 152 137 146
-0.084602 0.648613 1.790000 152 136 144
-0.084176 0.648469 1.781000 153 137 148
-0.083751 0.648294 1.772000 154 137 153
-0.082900 0.644779 1.754000 156 138 151
-0.082049 0.641201 1.736000 155 139 149
-0.081671 0.641271 1.728000 154 139 148
-0.081671 0.644296 1.728000 153 137 147
-0.080868 0.640953 1.711000 153 137 147
-0.080064 0.637550 1.694000 153 138 148
-0.080064 0.640515 1.694000 154 139 151
-0.079686 0.640442 1.686000 153 139 153
-0.079261 0.639958 1.677000 153 138 150
-0.078505 0.636760 1.661000 148 136 147
-0.078127 0.636587 1.653000 144 134 145
-0.077418 0.633678 1.638000 148 131 144
-0.077040 0.633436 1.630000 153 131 141
-0.076661 0.633166 1.622000 153 133 138
-0.076331 0.633261 1.615000 153 135 139
-0.075952 0.632937 1.607000 150 137 141
-0.075952 0.635750 1.607000 147 136 142
-0.074913 0.629821 1.585000 150 136 143
-0.074582 0.629802 1.578000 153 135 142
-0.074582 0.632564 1.578000 151 134 142
-0.073873 0.629287 1.563000 149 135 141
-0.073542 0.629193 1.556000 150 135 139
-0.073211 0.629074 1.549000 152 132 141
-0.072880 0.628930 1.542000 152 132 142
-0.071935 0.623437 1.522000 153 132 142
-0.071604 0.623222 1.515000 151 131 142
-0.071321 0.623395 1.509000 150 133 141
-0.070990 0.623133 1.502000 148 139 140
-0.070706 0.623262 1.496000 146 135 139
-0.070375 0.622952 1.489000 146 131 139
-0.119199 0.701438 2.619000 153 137 149
-0.118288 0.700631 2.599000 155 139 147
-0.117424 0.700025 2.580000 153 139 146
-0.116513 0.699080 2.560000 152 139 147
-0.116513 0.703561 2.560000 150 138 149
-0.115694 0.703064 2.542000 149 139 147
-0.115694 0.707514 2.542000 150 139 145
-0.113191 0.696559 2.487000 151 142 146
-0.112372 0.695840 2.469000 152 142 148
-0.112372 0.700162 2.469000 153 144 148
-0.111552 0.699348 2.451000 153 141 148
-0.111552 0.703638 2.451000 154 139 145
-0.109231 0.693198 2.400000 150 137 143
-0.107729 0.687810 2.367000 146 138 146
-0.107729 0.691954 2.367000 148 138 149
-0.106273 0.686686 2.335000 150 140 147
-0.106273 0.690774 2.335000 150 138 146
-0.105590 0.690397 2.320000 150 135 146
-0.105590 0.694459 2.320000 150 138 146
-0.104862 0.693702 2.304000 151 140 145
-0.104179 0.693193 2.289000 153 139 145
-0.102814 0.688062 2.259000 156 140 146
-0.102131 0.687422 2.244000 156 140 148
-0.100811 0.682415 2.215000 157 141 151
-0.100174 0.681955 2.201000 153 140 155
-0.098945 0.677395 2.174000 150 140 151
-0.098308 0.676813 2.160000 151 136 148
-0.097717 0.676498 2.147000 153 133 144
-0.097079 0.675821 2.133000 155 135 140
-0.096488 0.675413 2.120000 157 140 148
-0.095350 0.671116 2.095000 155 139 157
-0.094166 0.666408 2.069000 154 138 154
-0.094758 0.674240 2.082000 156 139 151
-0.092528 0.661931 2.033000 158 140 149
-0.091982 0.661561 2.021000 157 139 148
-0.091982 0.665099 2.021000 156 139 147
-0.091436 0.664667 2.009000 155 138 146
-0.090935 0.664525 1.998000 155 138 148
-0.090389 0.664010 1.986000 156 139 150
-0.088841 0.656060 1.952000 158 140 153
-0.088341 0.655760 1.941000 155 138 157
-0.087886 0.655762 1.931000 152 138 154
-0.087385 0.655387 1.920000 153 138 152
-0.086429 0.651543 1.899000 154 139 149
-0.086429 0.654867 1.899000 152 139 146
-0.085929 0.654379 1.888000 151 140 144
-0.085929 0.657684 1.888000 150 139 143
-0.085018 0.653987 1.868000 149 139 145
-0.084563 0.653738 1.858000 153 140 148
-0.084108 0.653455 1.848000 158 140 148
-0.083653 0.653136 1.838000 154 138 148
-0.082788 0.649569 1.819000 151 139 149
-0.082333 0.649164 1.809000 151 138 150
-0.081923 0.649086 1.800000 150 138 148
-0.081468 0.648613 1.790000 152 138 147
-0.080649 0.645192 1.772000 154 138 148
-0.080649 0.648294 1.772000 156 136 149
-0.079830 0.644779 1.754000 158 136 149
-0.079011 0.641201 1.736000 154 138 149
-0.078647 0.641271 1.728000 150 139 147
-0.078237 0.640940 1.719000 151 138 146
-0.077873 0.640953 1.711000 152 139 147
-0.077463 0.640561 1.702000 151 138 148
-0.077099 0.640515 1.694000 151 141 152
-0.077099 0.643480 1.694000 152 140 157
-0.076735 0.643393 1.686000 152 139 153
-0.075597 0.636760 1.661000 149 136 150
-0.074869 0.633506 1.645000 146 135 148
-0.074550 0.633678 1.638000 149 132 146
-0.073822 0.630327 1.622000 152 131 143
-0.073504 0.630434 1.615000 153 132 141
-0.073139 0.630124 1.607000 155 134 140
-0.073139 0.632937 1.607000 152 135 140
-0.072821 0.632981 1.600000 149 136 141
-0.072457 0.632603 1.592000 151 135 142
-0.071820 0.629802 1.578000 153 135 141
-0.071501 0.629758 1.571000 151 135 141
-0.071137 0.629287 1.563000 150 137 137
-0.070818 0.629193 1.556000 151 134 134
-0.070500 0.629074 1.549000 152 132 139
-0.070500 0.631785 1.549000 151 132 145
-0.069589 0.626305 1.529000 151 133 143
-0.069271 0.626101 1.522000 149 132 142
-0.068952 0.625874 1.515000 148 132 141
-0.068361 0.623133 1.502000 147 135 140
-0.068088 0.623262 1.496000 147 136 139
-0.068088 0.625881 1.496000 147 134 138
-0.114614 0.701438 2.619000 152 136 147
-0.114614 0.706022 2.619000 153 138 147
-0.114614 0.710607 2.619000 152 140 148
-0.112907 0.704541 2.580000 152 139 147
-0.112032 0.703561 2.560000 151 139 147
-0.112032 0.708042 2.560000 151 138 143
-0.111244 0.707514 2.542000 151 138 140
-0.109625 0.701601 2.505000 152 140 143
-0.108837 0.700913 2.487000 153 143 146
-0.108050 0.700162 2.469000 154 142 147
-0.108050 0.704484 2.469000 153 140 148
-0.107262 0.703638 2.451000 153 138 145
-0.105774 0.698108 2.417000 147 137 143
-0.103586 0.687810 2.367000 142 137 146
-0.103586 0.691954 2.367000 146 138 148
-0.102185 0.686686 2.335000 150 138 147
-0.102185 0.690774 2.335000 150 138 146
-0.101529 0.690397 2.320000 150 137 145
-0.100829 0.689669 2.304000 150 137 144
-0.100829 0.693702 2.304000 150 137 145
-0.100172 0.693193 2.289000 153 139 146
-0.099516 0.692631 2.274000 156 139 146
-0.098860 0.692017 2.259000 155 140 147
-0.097590 0.687036 2.230000 154 140 149
-0.096321 0.681955 2.201000 153 141 151
-0.095140 0.677395 2.174000 152 139 150
-0.094527 0.676813 2.160000 152 137 148
-0.093958 0.676498 2.147000 153 135 145
-0.093345 0.675821 2.133000 156 135 143
-0.092777 0.675413 2.120000 160 138 148
-0.091682 0.671116 2.095000 156 140 153
-0.090545 0.666408 2.069000 153 138 151
-0.090019 0.666144 2.057000 154 138 150
-0.088969 0.661931 2.033000 155 139 149
-0.088444 0.661561 2.021000 156 140 148
-0.088444 0.665099 2.021000 157 139 146
-0.087919 0.664667 2.009000 156 139 144
-0.086912 0.660534 1.986000 156 138 146
-0.086431 0.660333 1.975000 159 139 148
-0.085950 0.660093 1.964000 163 139 151
-0.085950 0.663531 1.964000 158 138 154
-0.084943 0.659158 1.941000 153 137 152
-0.084024 0.655387 1.920000 154 137 149
-0.083543 0.654974 1.909000 156 138 147
-0.083105 0.654867 1.899000 153 140 145
-0.082624 0.654379 1.888000 151 139 145
-0.082186 0.654201 1.878000 151 138 145
-0.082186 0.657488 1.878000 151 138 146
-0.081311 0.653738 1.858000 152 139 148
-0.080873 0.653455 1.848000 154 139 147
-0.080435 0.653136 1.838000 152 138 147
-0.079604 0.649569 1.819000 151 138 147
-0.078773 0.645935 1.800000 150 139 147
-0.078335 0.645480 1.790000 149 138 146
-0.077941 0.645352 1.781000 152 140 145
-0.077547 0.645192 1.772000 155 138 148
-0.077153 0.645002 1.763000 157 136 151
-0.076366 0.641471 1.745000 160 137 149
-0.075622 0.638246 1.728000 153 139 148
-0.075622 0.641271 1.728000 146 139 146
-0.075228 0.640940 1.719000 148 138 145
-0.074878 0.640953 1.711000 151 137 144
-0.074484 0.640561 1.702000 150 136 143
-0.074134 0.640515 1.694000 149 137 147
-0.074134 0.643480 1.694000 150 142 152
-0.073784 0.643393 1.686000 152 138 149
-0.073040 0.639827 1.669000 150 134 146
-0.072690 0.639668 1.661000 149 134 146
-0.071683 0.633678 1.638000 150 131 146
-0.071333 0.633436 1.630000 152 132 143
-0.070983 0.633166 1.622000 154 133 141
-0.070676 0.633261 1.615000 157 134 140
-0.070326 0.632937 1.607000 154 135 138
-0.070326 0.635750 1.607000 152 134 140
-0.070020 0.635782 1.600000 152 134 142
-0.069670 0.635390 1.592000 153 134 141
-0.069057 0.632564 1.578000 152 134 141
-0.068401 0.629287 1.563000 152 133 139
-0.068094 0.629193 1.556000 152 132 137
-0.067788 0.629074 1.549000 153 132 142
-0.067219 0.626483 1.536000 151 132 148
-0.066913 0.626305 1.529000 149 132 145
-0.066607 0.626101 1.522000 148 132 143
-0.066300 0.625874 1.515000 147 132 142
-0.065731 0.623133 1.502000 147 133 140
-0.065469 0.623262 1.496000 148 134 139
-0.065162 0.622952 1.489000 148 134 139
-0.110030 0.701438 2.619000 153 137 146
-0.110030 0.706022 2.619000 152 139 148
-0.109189 0.705180 2.599000 151 139 150
-0.107551 0.699080 2.560000 150 140 147
-0.107551 0.703561 2.560000 150 138 145
-0.106795 0.703064 2.542000 151 138 140
-0.105996 0.702226 2.523000 151 138 136
-0.105240 0.701601 2.505000 152 140 140
-0.104484 0.700913 2.487000 153 141 145
-0.103728 0.700162 2.469000 154 143 146
-0.103728 0.704484 2.469000 154 140 148
-0.102971 0.703638 2.451000 155 139 146
-0.101543 0.698108 2.417000 151 137 144
-0.099442 0.687810 2.367000 147 138 146
-0.098770 0.687276 2.351000 149 137 148
-0.098098 0.686686 2.335000 151 137 147
-0.098098 0.690774 2.335000 152 137 147
-0.097468 0.690397 2.320000 153 138 145
-0.097468 0.694459 2.320000 150 136 143
-0.096796 0.693702 2.304000 147 135 145
-0.096166 0.693193 2.289000 150 137 147
-0.095535 0.692631 2.274000 154 139 146
-0.094905 0.692017 2.259000 153 139 146
-0.093687 0.687036 2.230000 153 140 147
-0.092468 0.681955 2.201000 152 139 148
-0.091334 0.677395 2.174000 151 138 148
-0.090200 0.672740 2.147000 150 137 149
-0.089066 0.667991 2.120000 150 136 147
-0.089066 0.671702 2.120000 153 137 146
-0.088519 0.671271 2.107000 156 140 147
-0.088015 0.671116 2.095000 152 139 149
-0.086923 0.666408 2.069000 148 137 149
-0.086419 0.666144 2.057000 151 138 149
-0.085410 0.661931 2.033000 154 140 148
-0.084906 0.661561 2.021000 155 139 148
-0.084402 0.661150 2.009000 156 140 145
-0.083940 0.661027 1.998000 155 138 143
-0.083436 0.660534 1.986000 155 139 144
-0.082974 0.660333 1.975000 156 139 146
-0.082512 0.660093 1.964000 158 139 149
-0.082512 0.663531 1.964000 155 137 152
-0.082007 0.662893 1.952000 153 135 149
-0.081125 0.659142 1.931000 154 135 147
-0.080663 0.658748 1.920000 155 137 145
-0.080201 0.658316 1.909000 152 138 144
-0.079781 0.658192 1.899000 150 140 145
-0.078899 0.654201 1.878000 150 138 147
-0.078478 0.653987 1.868000 150 138 147
-0.078058 0.653738 1.858000 151 138 148
-0.077638 0.653455 1.848000 153 140 147
-0.077218 0.653136 1.838000 152 138 147
-0.076420 0.649569 1.819000 151 138 145
-0.075622 0.645935 1.800000 149 138 144
-0.075202 0.645480 1.790000 148 138 144
-0.074823 0.645352 1.781000 151 138 144
-0.074445 0.645192 1.772000 154 139 148
-0.074067 0.645002 1.763000 155 137 153
-0.073689 0.644779 1.754000 156 137 150
-0.072597 0.638246 1.728000 151 138 147
-0.072597 0.641271 1.728000 147 140 145
-0.072219 0.640940 1.719000 148 138 144
-0.071883 0.640953 1.711000 148 137 141
-0.071504 0.640561 1.702000 145 135 139
-0.071168 0.640515 1.694000 142 129 143
-0.070832 0.640442 1.686000 146 135 147
-0.070454 0.639958 1.677000 150 138 145
-0.070118 0.639827 1.669000 150 136 143
-0.069782 0.639668 1.661000 151 137 144
-0.068816 0.633678 1.638000 150 136 146
-0.068480 0.633436 1.630000 150 136 144
-0.068144 0.633166 1.622000 152 134 142
-0.067849 0.633261 1.615000 154 134 139
-0.067513 0.632937 1.607000 153 134 137
-0.067219 0.632981 1.600000 153 134 140
-0.067219 0.635782 1.600000 152 133 143
-0.066589 0.632596 1.585000 152 133 142
-0.066295 0.632564 1.578000 152 133 141
-0.065665 0.629287 1.563000 151 131 140
-0.065371 0.629193 1.556000 151 132 140
-0.064783 0.626231 1.542000 151 134 145
-0.064236 0.623628 1.529000 150 133 151
-0.063942 0.623437 1.522000 149 132 148
-0.063648 0.623222 1.515000 147 131 145
-0.063396 0.623395 1.509000 146 132 143
-0.063102 0.623133 1.502000 145 132 141
-0.062850 0.623262 1.496000 144 133 140
-0.062556 0.622952 1.489000 144 134 140
-0.106250 0.706794 2.639000 153 139 146
-0.105445 0.706022 2.619000 152 138 147
-0.105445 0.710607 2.619000 150 139 148
-0.103069 0.699080 2.560000 149 137 147
-0.103069 0.703561 2.560000 150 135 146
-0.102345 0.703064 2.542000 151 137 143
-0.101580 0.702226 2.523000 152 138 140
-0.100130 0.696559 2.487000 153 138 143
-0.100130 0.700913 2.487000 153 139 146
-0.099406 0.700162 2.469000 154 140 146
-0.098681 0.699348 2.451000 156 140 146
-0.098681 0.703638 2.451000 158 137 143
-0.097312 0.698108 2.417000 155 136 141
-0.095299 0.687810 2.367000 152 137 143
-0.094655 0.687276 2.351000 152 137 145
-0.094655 0.691392 2.351000 152 136 146
-0.094011 0.690774 2.335000 154 136 147
-0.093407 0.690397 2.320000 156 136 146
-0.092762 0.689669 2.304000 150 136 145
-0.092762 0.693702 2.304000 144 136 145
-0.091555 0.688650 2.274000 148 137 146
-0.091555 0.692631 2.274000 153 137 145
-0.090347 0.687422 2.244000 152 137 145
-0.089783 0.687036 2.230000 152 138 145
-0.089179 0.686292 2.215000 151 138 146
-0.087528 0.677395 2.174000 150 138 147
-0.086965 0.676813 2.160000 148 138 148
-0.085878 0.672087 2.133000 147 138 148
-0.085354 0.671702 2.120000 150 138 148
-0.084831 0.671271 2.107000 153 140 149
-0.084348 0.671116 2.095000 148 142 150
-0.083824 0.670596 2.082000 144 139 150
-0.082818 0.666144 2.057000 148 138 150
-0.081852 0.661931 2.033000 153 138 150
-0.081368 0.661561 2.021000 154 139 151
-0.080885 0.661150 2.009000 156 138 148
-0.080644 0.662682 2.003000 155 136 146
-0.080442 0.664525 1.998000 154 137 147
-0.079516 0.660333 1.975000 154 140 149
-0.079074 0.660093 1.964000 154 139 152
-0.079074 0.663531 1.964000 153 137 156
-0.078590 0.662893 1.952000 153 135 151
-0.077302 0.655387 1.920000 153 134 147
-0.076457 0.651543 1.899000 154 135 145
-0.076457 0.654867 1.899000 151 136 144
-0.076014 0.654379 1.888000 149 138 145
-0.075611 0.654201 1.878000 149 139 146
-0.075611 0.657488 1.878000 150 139 148
-0.074806 0.653738 1.858000 151 138 150
-0.074403 0.653455 1.848000 152 138 148
-0.074001 0.653136 1.838000 151 138 146
-0.073598 0.652783 1.828000 151 137 145
-0.072471 0.645935 1.800000 149 138 143
-0.071706 0.642234 1.781000 148 137 141
-0.071343 0.642090 1.772000 150 137 140
-0.071343 0.645192 1.772000 153 137 144
-0.070981 0.645002 1.763000 152 136 149
-0.070619 0.644779 1.754000 152 137 147
-0.069572 0.638246 1.728000 150 138 146
-0.069210 0.637931 1.719000 149 138 145
-0.068887 0.637958 1.711000 147 139 145
-0.068525 0.637581 1.702000 146 138 145
-0.068203 0.637550 1.694000 141 138 145
-0.068203 0.640515 1.694000 136 135 145
-0.067881 0.640442 1.686000 142 134 146
-0.067519 0.639958 1.677000 148 136 145
-0.067196 0.639827 1.669000 151 138 144
-0.066874 0.639668 1.661000 154 137 145
-0.066230 0.636386 1.645000 151 140 146
-0.065626 0.633436 1.630000 148 136 144
-0.065304 0.633166 1.622000 149 135 143
-0.065022 0.633261 1.615000 151 134 142
-0.065022 0.636088 1.615000 152 135 141
-0.064700 0.635750 1.607000 154 134 142
-0.064418 0.635782 1.600000 153 134 144
-0.063814 0.632596 1.585000 152 134 144
-0.063251 0.629758 1.571000 151 136 145
-0.062929 0.629287 1.563000 151 134 143
-0.062365 0.626362 1.549000 150 134 141
-0.062083 0.626231 1.542000 150 134 144
-0.061560 0.623628 1.529000 149 134 147
-0.061278 0.623437 1.522000 149 132 146
-0.060996 0.623222 1.515000 147 129 144
-0.060755 0.623395 1.509000 146 131 143
-0.060473 0.623133 1.502000 143 132 141
-0.060231 0.623262 1.496000 141 133 140
-0.059949 0.622952 1.489000 141 136 138
-0.101631 0.706794 2.639000 153 137 147
-0.100860 0.706022 2.619000 154 138 146
-0.100860 0.710607 2.619000 150 138 146
-0.100860 0.715191 2.619000 147 137 146
-0.095777 0.696559 2.487000 153 138 145
-0.095084 0.695840 2.469000 153 139 147
-0.095084 0.700162 2.469000 153 140 145
-0.094391 0.699348 2.451000 154 138 144
-0.094391 0.703638 2.451000 155 133 141
-0.093081 0.698108 2.417000 154 135 138
-0.091810 0.692750 2.384000 153 137 140
-0.090539 0.687276 2.351000 152 135 143
-0.090539 0.691392 2.351000 152 135 145
-0.089923 0.690774 2.335000 152 135 148
-0.089346 0.690397 2.320000 153 135 148
-0.089346 0.694459 2.320000 150 135 148
-0.088152 0.689186 2.289000 146 136 146
-0.087574 0.688650 2.274000 150 136 145
-0.086996 0.688062 2.259000 154 136 145
-0.086419 0.687422 2.244000 153 137 145
-0.085880 0.687036 2.230000 152 138 144
-0.084763 0.681955 2.201000 151 138 144
-0.083723 0.677395 2.174000 150 139 145
-0.082683 0.672740 2.147000 149 139 147
-0.082144 0.672087 2.133000 148 140 148
-0.081643 0.671702 2.120000 150 139 150
-0.080681 0.667448 2.095000 153 141 151
-0.080180 0.666951 2.082000 150 141 152
-0.079679 0.666408 2.069000 147 140 151
-0.079217 0.666144 2.057000 150 138 151
-0.078293 0.661931 2.033000 153 138 152
-0.077831 0.661561 2.021000 154 139 154
-0.077369 0.661150 2.009000 154 140 152
-0.077369 0.664667 2.009000 153 137 150
-0.076945 0.664525 1.998000 152 136 151
-0.076483 0.664010 1.986000 152 139 152
-0.075636 0.660093 1.964000 152 141 156
-0.075636 0.663531 1.964000 152 138 161
-0.075174 0.662893 1.952000 152 135 154
-0.073941 0.655387 1.920000 153 134 147
-0.073518 0.654974 1.909000 155 135 146
-0.073132 0.654867 1.899000 152 136 145
-0.072709 0.654379 1.888000 149 138 145
-0.072324 0.654201 1.878000 149 140 146
-0.071939 0.653987 1.868000 149 142 149
-0.071553 0.653738 1.858000 150 138 152
-0.071168 0.653455 1.848000 151 137 149
-0.070783 0.653136 1.838000 152 136 146
-0.070398 0.652783 1.828000 153 135 144
-0.069320 0.645935 1.800000 151 136 143
-0.068588 0.642234 1.781000 149 138 139
-0.068588 0.645352 1.781000 151 137 136
-0.068242 0.645192 1.772000 153 139 140
-0.067895 0.645002 1.763000 152 138 145
-0.067548 0.644779 1.754000 152 138 145
-0.066855 0.641201 1.736000 150 137 145
-0.065892 0.634962 1.711000 149 135 146
-0.065892 0.637958 1.711000 148 137 147
-0.065546 0.637581 1.702000 148 138 149
-0.065238 0.637550 1.694000 145 138 151
-0.064930 0.637490 1.686000 142 140 148
-0.064930 0.640442 1.686000 144 137 145
-0.064583 0.639958 1.677000 147 134 145
-0.064275 0.639827 1.669000 148 134 146
-0.063967 0.639668 1.661000 150 135 146
-0.063351 0.636386 1.645000 148 135 147
-0.062773 0.633436 1.630000 147 133 145
-0.062465 0.633166 1.622000 150 134 144
-0.061887 0.630124 1.607000 153 135 144
-0.061887 0.632937 1.607000 155 135 145
-0.061618 0.632981 1.600000 157 135 145
-0.061618 0.635782 1.600000 155 134 145
-0.061040 0.632596 1.585000 152 135 147
-0.060501 0.629758 1.571000 152 134 149
-0.060193 0.629287 1.563000 153 137 146
-0.059654 0.626362 1.549000 151 134 143
-0.059384 0.626231 1.542000 149 134 143
-0.058883 0.623628 1.529000 149 134 144
-0.058614 0.623437 1.522000 148 135 144
-0.058344 0.623222 1.515000 148 131 144
-0.058113 0.623395 1.509000 147 132 143
-0.057844 0.623133 1.502000 145 133 142
-0.057612 0.623262 1.496000 142 134 139
-0.057612 0.625881 1.496000 142 134 137
-0.097011 0.706794 2.639000 154 134 146
-0.097011 0.711414 2.639000 156 135 146
-0.096276 0.710607 2.619000 150 140 146
-0.091423 0.696559 2.487000 153 137 146
-0.091423 0.700913 2.487000 152 139 149
-0.091423 0.705266 2.487000 152 139 149
-0.090762 0.704484 2.469000 152 140 149
-0.090100 0.703638 2.451000 153 136 145
-0.088850 0.698108 2.417000 153 135 141
-0.087012 0.687810 2.367000 154 135 142
-0.086424 0.687276 2.351000 153 133 143
-0.086424 0.691392 2.351000 152 134 145
-0.085836 0.690774 2.335000 151 135 148
-0.085284 0.690397 2.320000 151 135 148
-0.085284 0.694459 2.320000 150 136 148
-0.084145 0.689186 2.289000 149 136 146
-0.083042 0.684108 2.259000 152 136 145
-0.083042 0.688062 2.259000 155 136 145
-0.082491 0.687422 2.244000 153 137 145
-0.081976 0.687036 2.230000 152 137 143
-0.081425 0.686292 2.215000 151 138 141
-0.080395 0.681445 2.187000 151 138 143
-0.078925 0.672740 2.147000 150 139 146
-0.078410 0.672087 2.133000 149 139 147
-0.077932 0.671702 2.120000 151 140 149
-0.077013 0.667448 2.095000 153 140 149
-0.076535 0.666951 2.082000 152 141 150
-0.076058 0.666408 2.069000 151 139 150
-0.075616 0.666144 2.057000 152 139 149
-0.075175 0.665838 2.045000 154 139 150
-0.074293 0.661561 2.021000 153 141 152
-0.073852 0.661150 2.009000 153 138 151
-0.073852 0.664667 2.009000 152 136 150
-0.073448 0.664525 1.998000 151 137 149
-0.073006 0.664010 1.986000 150 139 149
-0.072198 0.660093 1.964000 150 139 151
-0.072198 0.663531 1.964000 151 139 153
-0.071757 0.662893 1.952000 152 136 147
-0.070985 0.659142 1.931000 154 133 141
-0.070580 0.658748 1.920000 156 135 145
-0.070176 0.658316 1.909000 152 137 150
-0.069808 0.658192 1.899000 149 138 148
-0.069036 0.654201 1.878000 149 141 147
-0.068669 0.653987 1.868000 149 137 148
-0.067933 0.650220 1.848000 149 137 149
-0.067933 0.653455 1.848000 150 136 147
-0.067566 0.653136 1.838000 152 136 146
-0.067198 0.652783 1.828000 155 134 144
-0.066169 0.645935 1.800000 152 134 143
-0.065471 0.642234 1.781000 150 135 141
-0.065140 0.642090 1.772000 151 135 139
-0.065140 0.645192 1.772000 153 137 142
-0.064809 0.645002 1.763000 152 139 145
-0.064478 0.644779 1.754000 152 138 146
-0.063816 0.641201 1.736000 150 137 148
-0.062897 0.634962 1.711000 149 136 146
-0.062566 0.634602 1.702000 150 137 144
-0.062566 0.637581 1.702000 151 137 146
-0.062272 0.637550 1.694000 149 139 148
-0.062272 0.640515 1.694000 148 139 146
-0.061978 0.640442 1.686000 147 140 145
-0.061647 0.639958 1.677000 147 136 145
-0.061353 0.639827 1.669000 146 132 146
-0.061059 0.639668 1.661000 146 134 147
-0.060471 0.636386 1.645000 146 134 148
-0.059920 0.633436 1.630000 147 135 144
-0.059626 0.633166 1.622000 151 136 141
-0.059368 0.633261 1.615000 155 135 142
-0.059074 0.632937 1.607000 158 135 144
-0.058817 0.632981 1.600000 161 134 144
-0.058817 0.635782 1.600000 157 135 144
-0.058265 0.632596 1.585000 153 132 143
-0.058008 0.632564 1.578000 154 131 142
-0.057751 0.632508 1.571000 155 134 142
-0.056942 0.626362 1.549000 152 134 142
-0.056685 0.626231 1.542000 149 133 143
-0.056464 0.626483 1.536000 148 135 145
-0.055950 0.623437 1.522000 148 134 144
-0.055692 0.623222 1.515000 148 131 143
-0.055472 0.623395 1.509000 149 133 144
-0.055214 0.623133 1.502000 146 136 144
-0.054994 0.623262 1.496000 144 135 141
-0.054736 0.622952 1.489000 144 135 138
-0.092391 0.716033 2.639000 150 135 147
-0.087700 0.701601 2.505000 152 135 148
-0.087070 0.700913 2.487000 152 137 151
-0.087070 0.705266 2.487000 152 139 153
-0.086440 0.704484 2.469000 153 137 155
-0.085810 0.703638 2.451000 155 136 149
-0.084619 0.698108 2.417000 154 136 144
-0.082869 0.687810 2.367000 153 136 144
-0.082309 0.687276 2.351000 151 134 144
-0.082309 0.691392 2.351000 149 133 146
-0.081748 0.690774 2.335000 149 135 148
-0.081748 0.694861 2.335000 150 137 148
-0.081223 0.694459 2.320000 149 136 148
-0.080138 0.689186 2.289000 149 136 147
-0.078562 0.679565 2.244000 151 137 146
-0.078562 0.683493 2.244000 154 138 145
-0.078072 0.683133 2.230000 153 136 145
-0.078072 0.687036 2.230000 152 136 141
-0.077057 0.681955 2.201000 152 136 138
-0.076567 0.681445 2.187000 151 137 141
-0.075166 0.672740 2.147000 149 138 145
-0.074676 0.672087 2.133000 147 140 146
-0.074221 0.671702 2.120000 149 139 148
-0.073766 0.671271 2.107000 152 139 148
-0.073346 0.671116 2.095000 151 139 149
-0.072891 0.670596 2.082000 151 139 148
-0.072016 0.666144 2.057000 152 138 148
-0.071595 0.665838 2.045000 152 140 149
-0.070755 0.661561 2.021000 152 139 150
-0.070335 0.661150 2.009000 153 138 150
-0.070335 0.664667 2.009000 151 137 150
-0.069950 0.664525 1.998000 150 138 148
-0.069530 0.664010 1.986000 151 138 147
-0.069145 0.663790 1.975000 152 138 146
-0.068760 0.663531 1.964000 150 138 145
-0.068340 0.662893 1.952000 149 138 140
-0.067954 0.662556 1.941000 148 136 136
-0.067219 0.658748 1.920000 148 136 145
-0.066834 0.658316 1.909000 147 137 155
-0.066484 0.658192 1.899000 147 139 151
-0.065749 0.654201 1.878000 147 135 148
-0.065049 0.650486 1.858000 148 129 147
-0.065049 0.653738 1.858000 148 133 146
-0.064698 0.653455 1.848000 149 136 146
-0.064348 0.653136 1.838000 151 134 146
-0.063998 0.652783 1.828000 153 132 145
-0.063018 0.645935 1.800000 151 134 144
-0.062353 0.642234 1.781000 150 136 143
-0.062038 0.642090 1.772000 150 135 142
-0.062038 0.645192 1.772000 150 136 144
-0.061723 0.645002 1.763000 150 138 146
-0.061408 0.644779 1.754000 151 138 148
-0.060777 0.641201 1.736000 151 137 151
-0.059902 0.634962 1.711000 150 136 146
-0.059587 0.634602 1.702000 152 136 142
-0.059587 0.637581 1.702000 154 137 143
-0.059307 0.637550 1.694000 152 138 145
-0.059027 0.637490 1.686000 150 140 145
-0.059027 0.640442 1.686000 148 140 146
-0.058432 0.636906 1.669000 147 140 146
-0.058432 0.639827 1.669000 146 136 146
-0.058152 0.639668 1.661000 145 138 148
-0.057872 0.639481 1.653000 146 136 150
-0.057066 0.633436 1.630000 148 139 144
-0.056541 0.630434 1.615000 150 136 138
-0.056261 0.630124 1.607000 153 136 140
-0.056261 0.632937 1.607000 153 134 143
-0.056016 0.632981 1.600000 153 134 143
-0.055736 0.632603 1.592000 152 132 143
-0.055491 0.632596 1.585000 151 130 139
-0.055001 0.629758 1.571000 152 131 136
-0.054721 0.629287 1.563000 153 134 139
-0.054230 0.626362 1.549000 150 133 142
-0.053985 0.626231 1.542000 147 132 144
-0.053530 0.623628 1.529000 147 134 146
-0.053285 0.623437 1.522000 148 136 144
-0.053040 0.623222 1.515000 150 133 143
-0.052585 0.620503 1.502000 152 135 145
-0.052375 0.620643 1.496000 148 135 147
-0.052375 0.623262 1.496000 145 135 143
-0.052130 0.622952 1.489000 145 134 140
-0.087772 0.716033 2.639000 149 134 145
-0.083315 0.701601 2.505000 152 134 146
-0.082716 0.700913 2.487000 152 137 148
-0.082716 0.705266 2.487000 152 136 150
-0.082118 0.704484 2.469000 155 134 152
-0.080388 0.693877 2.417000 158 136 148
-0.080388 0.698108 2.417000 155 137 145
-0.079823 0.697399 2.400000 152 136 145
-0.078725 0.691954 2.367000 149 135 145
-0.078725 0.696097 2.367000 146 135 146
-0.078193 0.695507 2.351000 148 137 147
-0.077661 0.694861 2.335000 150 137 146
-0.077162 0.694459 2.320000 149 138 146
-0.074634 0.675637 2.244000 149 137 147
-0.074169 0.675325 2.230000 151 138 148
-0.074169 0.679229 2.230000 153 137 149
-0.074169 0.683133 2.230000 153 135 150
-0.073670 0.682415 2.215000 153 135 146
-0.073204 0.681955 2.201000 152 133 143
-0.072739 0.681445 2.187000 152 136 144
-0.071408 0.672740 2.147000 148 139 146
-0.070510 0.667991 2.120000 145 138 147
-0.070510 0.671702 2.120000 148 138 148
-0.070078 0.671271 2.107000 151 139 149
-0.069679 0.671116 2.095000 151 140 151
-0.069679 0.674783 2.095000 152 138 149
-0.068814 0.670030 2.069000 151 137 148
-0.068016 0.665838 2.045000 151 138 150
-0.067218 0.661561 2.021000 152 140 151
-0.066818 0.661150 2.009000 153 138 150
-0.066818 0.664667 2.009000 151 138 149
-0.066453 0.664525 1.998000 150 138 149
-0.066053 0.664010 1.986000 152 139 148
-0.065688 0.663790 1.975000 154 138 147
-0.065322 0.663531 1.964000 150 139 146
-0.064923 0.662893 1.952000 146 137 143
-0.064557 0.662556 1.941000 143 137 140
-0.063858 0.658748 1.920000 140 137 146
-0.063492 0.658316 1.909000 142 136 151
-0.063160 0.658192 1.899000 145 135 149
-0.062794 0.657684 1.888000 146 134 148
-0.062461 0.657488 1.878000 147 132 147
-0.061796 0.653738 1.858000 147 132 147
-0.061464 0.653455 1.848000 148 135 146
-0.061131 0.653136 1.838000 150 135 145
-0.061131 0.656354 1.838000 152 133 144
-0.059535 0.642346 1.790000 151 134 144
-0.059235 0.642234 1.781000 150 136 142
-0.058936 0.642090 1.772000 148 136 140
-0.058936 0.645192 1.772000 147 136 142
-0.058637 0.645002 1.763000 149 139 144
-0.058337 0.644779 1.754000 151 138 146
-0.058038 0.644525 1.745000 151 138 149
-0.057472 0.641271 1.728000 152 136 147
-0.056608 0.634602 1.702000 155 136 145
-0.056608 0.637581 1.702000 158 137 146
-0.056342 0.637550 1.694000 155 137 148
-0.056076 0.637490 1.686000 153 138 147
-0.055776 0.637023 1.677000 150 140 146
-0.055510 0.636906 1.669000 147 139 145
-0.055510 0.639827 1.669000 146 137 145
-0.055244 0.639668 1.661000 145 136 147
-0.054978 0.639481 1.653000 147 135 148
-0.054479 0.636545 1.638000 149 136 144
-0.053947 0.633166 1.622000 150 136 141
-0.053714 0.633261 1.615000 151 135 143
-0.053448 0.632937 1.607000 148 134 145
-0.053215 0.632981 1.600000 145 134 144
-0.053215 0.635782 1.600000 147 132 144
-0.052716 0.632596 1.585000 150 131 141
-0.052484 0.632564 1.578000 151 131 138
-0.052251 0.632508 1.571000 152 133 140
-0.051519 0.626362 1.549000 148 135 142
-0.051286 0.626231 1.542000 145 133 139
-0.050854 0.623628 1.529000 146 135 136
-0.050621 0.623437 1.522000 148 134 138
-0.050189 0.620754 1.509000 151 132 141
-0.049956 0.620503 1.502000 155 133 142
-0.049756 0.620643 1.496000 151 134 144
-0.049756 0.623262 1.496000 147 134 141
-0.049523 0.622952 1.489000 147 134 139
-0.077229 0.695057 2.451000 149 137 147
-0.076693 0.694497 2.434000 152 136 149
-0.076157 0.693877 2.417000 154 138 148
-0.075622 0.693198 2.400000 153 136 147
-0.075117 0.692750 2.384000 152 136 147
-0.074582 0.691954 2.367000 150 135 147
-0.074582 0.696097 2.367000 148 135 146
-0.074078 0.695507 2.351000 149 136 146
-0.073573 0.694861 2.335000 150 137 145
-0.073101 0.694459 2.320000 150 137 144
-0.070706 0.675637 2.244000 149 138 147
-0.070265 0.675325 2.230000 151 139 150
-0.070265 0.679229 2.230000 152 140 153
-0.070265 0.683133 2.230000 154 137 156
-0.069792 0.682415 2.215000 156 138 152
-0.069792 0.686292 2.215000 154 136 148
-0.069351 0.685808 2.201000 152 138 148
-0.067650 0.672740 2.147000 150 138 148
-0.066799 0.667991 2.120000 148 138 148
-0.066799 0.671702 2.120000 150 138 149
-0.066389 0.671271 2.107000 152 140 151
-0.066389 0.674960 2.107000 153 139 153
-0.066011 0.674783 2.095000 154 139 151
-0.065192 0.670030 2.069000 149 137 149
-0.064058 0.661931 2.033000 145 138 151
-0.063680 0.661561 2.021000 149 139 153
-0.063302 0.661150 2.009000 154 139 151
-0.063302 0.664667 2.009000 152 137 149
-0.063113 0.666188 2.003000 150 137 149
-0.062577 0.664010 1.986000 150 138 150
-0.061884 0.660093 1.964000 150 139 148
-0.061884 0.663531 1.964000 149 137 147
-0.061506 0.662893 1.952000 147 137 146
-0.061159 0.662556 1.941000 148 138 145
-0.060497 0.658748 1.920000 148 140 146
-0.060497 0.662109 1.920000 147 136 148
-0.059489 0.654379 1.888000 146 134 148
-0.059489 0.657684 1.888000 145 133 148
-0.059174 0.657488 1.878000 144 133 148
-0.058544 0.653738 1.858000 148 135 148
-0.058229 0.653455 1.848000 151 139 146
-0.058229 0.656690 1.848000 151 136 144
-0.057914 0.656354 1.838000 152 134 144
-0.056716 0.645935 1.800000 150 136 144
-0.056118 0.642234 1.781000 149 139 141
-0.055834 0.642090 1.772000 149 135 138
-0.055834 0.645192 1.772000 148 133 140
-0.055550 0.645002 1.763000 148 136 142
-0.055267 0.644779 1.754000 149 138 144
-0.054983 0.644525 1.745000 149 137 147
-0.054164 0.637931 1.719000 150 136 147
-0.053628 0.634602 1.702000 152 136 148
-0.053628 0.637581 1.702000 154 138 149
-0.053376 0.637550 1.694000 152 136 151
-0.052841 0.634087 1.677000 150 136 148
-0.052841 0.637023 1.677000 149 138 146
-0.052589 0.636906 1.669000 148 141 145
-0.052336 0.636760 1.661000 148 137 145
-0.052084 0.636587 1.653000 149 135 146
-0.051832 0.636386 1.645000 149 138 147
-0.051612 0.636545 1.638000 148 135 145
-0.051108 0.633166 1.622000 149 135 144
-0.050887 0.633261 1.615000 151 136 145
-0.050635 0.632937 1.607000 149 135 147
-0.050414 0.632981 1.600000 148 136 146
-0.050162 0.632603 1.592000 149 133 145
-0.050162 0.635390 1.592000 150 133 143
-0.049721 0.632564 1.578000 151 133 141
-0.049501 0.632508 1.571000 152 134 142
-0.048587 0.623532 1.542000 149 133 143
-0.048587 0.626231 1.542000 147 133 135
-0.048177 0.623628 1.529000 148 133 127
-0.047957 0.623437 1.522000 148 135 133
-0.047736 0.623222 1.515000 150 135 139
-0.047736 0.625874 1.515000 152 134 140
-0.047137 0.620643 1.496000 149 133 141
-0.047137 0.623262 1.496000 147 135 139
-0.046917 0.622952 1.489000 147 134 138
-0.071926 0.698108 2.417000 152 136 146
-0.071420 0.697399 2.400000 153 135 146
-0.070438 0.691954 2.367000 152 134 145
-0.070438 0.696097 2.367000 151 135 146
-0.069962 0.695507 2.351000 151 137 147
-0.069486 0.694861 2.335000 151 137 148
-0.069040 0.694459 2.320000 150 138 149
-0.066778 0.675637 2.244000 150 139 148
-0.066361 0.675325 2.230000 151 140 148
-0.066361 0.679229 2.230000 152 138 150
-0.065915 0.678538 2.215000 155 136 153
-0.065915 0.682415 2.215000 159 137 151
-0.065498 0.681955 2.201000 156 137 149
-0.065082 0.681445 2.187000 153 138 150
-0.063892 0.672740 2.147000 152 138 151
-0.063475 0.672087 2.133000 151 138 150
-0.063088 0.671702 2.120000 152 139 149
-0.062701 0.671271 2.107000 153 139 150
-0.062701 0.674960 2.107000 155 138 151
-0.062701 0.678648 2.107000 157 137 149
-0.062344 0.678450 2.095000 148 137 147
-0.060499 0.661931 2.033000 139 137 147
-0.060142 0.661561 2.021000 147 139 147
-0.060142 0.665099 2.021000 155 138 148
-0.059785 0.664667 2.009000 152 135 148
-0.059785 0.668183 2.009000 150 137 148
-0.058773 0.660333 1.975000 148 139 148
-0.058446 0.660093 1.964000 147 136 147
-0.058089 0.659477 1.952000 148 133 146
-0.057761 0.659158 1.941000 149 135 143
-0.057464 0.659142 1.931000 153 139 141
-0.056809 0.654974 1.909000 157 137 143
-0.056511 0.654867 1.899000 152 134 146
-0.056184 0.654379 1.888000 148 134 147
-0.055886 0.654201 1.878000 145 134 148
-0.055589 0.653987 1.868000 142 135 149
-0.055291 0.653738 1.858000 148 137 150
-0.054994 0.653455 1.848000 155 137 148
-0.054696 0.653136 1.838000 153 136 145
-0.054131 0.649569 1.819000 152 137 144
-0.053565 0.645935 1.800000 150 139 144
-0.053268 0.645480 1.790000 149 138 142
-0.052732 0.642090 1.772000 149 135 141
-0.052732 0.645192 1.772000 150 135 142
-0.052464 0.645002 1.763000 148 136 143
-0.052196 0.644779 1.754000 147 136 145
-0.051780 0.642679 1.740000 148 136 146
-0.051661 0.644240 1.736000 149 136 147
-0.050917 0.637958 1.711000 150 137 148
-0.050649 0.637581 1.702000 151 137 151
-0.050411 0.637550 1.694000 149 136 154
-0.050173 0.637490 1.686000 147 135 150
-0.050173 0.640442 1.686000 148 137 147
-0.049667 0.636906 1.669000 149 138 146
-0.049191 0.633693 1.653000 151 137 145
-0.048953 0.633506 1.645000 154 139 145
-0.048744 0.633678 1.638000 151 149 146
-0.048744 0.636545 1.638000 148 138 145
-0.048060 0.630434 1.615000 149 135 144
-0.047822 0.630124 1.607000 151 135 145
-0.047822 0.632937 1.607000 151 134 145
-0.047614 0.632981 1.600000 151 134 144
-0.047614 0.635782 1.600000 151 134 143
-0.047376 0.635390 1.592000 151 133 141
-0.047167 0.635370 1.585000 151 134 138
-0.046751 0.632508 1.571000 152 133 143
-0.045888 0.623532 1.542000 151 130 147
-0.045888 0.626231 1.542000 150 130 140
-0.045709 0.626483 1.536000 149 131 133
-0.045292 0.623437 1.522000 149 135 138
-0.045292 0.626101 1.522000 149 140 142
-0.045084 0.625874 1.515000 149 134 141
-0.044519 0.620643 1.496000 148 132 140
-0.044519 0.623262 1.496000 148 133 140
-0.044132 0.620442 1.483000 148 135 140
-0.067695 0.698108 2.417000 152 136 146
-0.067219 0.697399 2.400000 154 135 145
-0.065847 0.687276 2.351000 152 135 144
-0.065847 0.691392 2.351000 150 136 146
-0.065847 0.695507 2.351000 151 136 149
-0.064979 0.690397 2.320000 151 138 151
-0.064979 0.694459 2.320000 151 138 154
-0.062850 0.675637 2.244000 152 141 150
-0.062458 0.675325 2.230000 150 139 146
-0.062458 0.679229 2.230000 149 138 148
-0.062038 0.678538 2.215000 152 137 150
-0.061646 0.678102 2.201000 155 138 150
-0.061646 0.681955 2.201000 152 138 150
-0.060889 0.677395 2.174000 150 139 152
-0.060133 0.672740 2.147000 151 138 155
-0.059741 0.672087 2.133000 153 137 152
-0.059377 0.671702 2.120000 152 138 150
-0.059013 0.671271 2.107000 152 140 150
-0.059013 0.674960 2.107000 153 137 150
-0.059013 0.678648 2.107000 155 136 147
-0.058677 0.678450 2.095000 149 136 145
-0.057949 0.673652 2.069000 144 137 143
-0.056940 0.665489 2.033000 149 138 142
-0.056604 0.665099 2.021000 154 139 145
-0.056268 0.664667 2.009000 152 137 148
-0.056268 0.668183 2.009000 150 138 147
-0.055316 0.660333 1.975000 149 137 146
-0.055008 0.660093 1.964000 148 136 145
-0.054672 0.659477 1.952000 148 134 145
-0.054364 0.659158 1.941000 148 133 141
-0.054084 0.659142 1.931000 147 135 137
-0.053775 0.658748 1.920000 147 138 140
-0.053187 0.654867 1.899000 147 136 144
-0.052879 0.654379 1.888000 147 135 146
-0.052879 0.657684 1.888000 146 135 148
-0.052599 0.657488 1.878000 145 136 150
-0.052039 0.653738 1.858000 149 137 153
-0.051759 0.653455 1.848000 153 138 150
-0.051479 0.653136 1.838000 151 137 147
-0.050667 0.645998 1.809000 150 139 145
-0.050414 0.645935 1.800000 150 138 144
-0.050134 0.645480 1.790000 149 140 144
-0.049630 0.642090 1.772000 150 137 144
-0.049630 0.645192 1.772000 151 137 144
-0.049378 0.645002 1.763000 147 136 145
-0.049378 0.648088 1.763000 143 135 145
-0.048622 0.641201 1.736000 145 134 146
-0.048398 0.641271 1.728000 147 136 147
-0.047922 0.637958 1.711000 149 136 148
-0.047670 0.637581 1.702000 151 138 152
-0.047446 0.637550 1.694000 151 135 157
-0.047222 0.637490 1.686000 150 134 153
-0.047222 0.640442 1.686000 150 135 149
-0.046745 0.636906 1.669000 149 138 147
-0.046521 0.636760 1.661000 150 136 146
-0.046073 0.633506 1.645000 151 135 145
-0.045877 0.633678 1.638000 147 137 145
-0.045653 0.633436 1.630000 144 135 145
-0.045233 0.630434 1.615000 147 135 145
-0.045233 0.633261 1.615000 150 136 144
-0.045009 0.632937 1.607000 152 134 144
-0.045009 0.635750 1.607000 154 135 143
-0.044813 0.635782 1.600000 152 133 142
-0.044589 0.635390 1.592000 150 132 139
-0.044197 0.632564 1.578000 150 133 136
-0.044001 0.632508 1.571000 150 135 144
-0.043188 0.623532 1.542000 150 130 152
-0.043188 0.626231 1.542000 149 128 146
-0.043188 0.628930 1.542000 149 131 140
-0.042824 0.626305 1.529000 148 134 143
-0.042628 0.626101 1.522000 148 133 146
-0.042264 0.623395 1.509000 149 130 143
-0.041900 0.620643 1.496000 148 132 140
-0.041900 0.623262 1.496000 147 133 141
-0.041704 0.622952 1.489000 147 133 143
-0.063464 0.698108 2.417000 153 137 145
-0.063018 0.697399 2.400000 156 135 145
-0.062152 0.691954 2.367000 153 135 144
-0.061731 0.691392 2.351000 150 134 146
-0.061731 0.695507 2.351000 151 134 148
-0.060917 0.690397 2.320000 152 135 149
-0.060917 0.694459 2.320000 153 136 150
-0.060103 0.689186 2.289000 154 137 145
-0.058554 0.675325 2.230000 150 138 141
-0.058554 0.679229 2.230000 147 137 144
-0.058160 0.678538 2.215000 149 136 147
-0.058160 0.682415 2.215000 152 138 148
-0.057425 0.677617 2.187000 149 139 149
-0.057084 0.677395 2.174000 147 138 150
-0.056375 0.672740 2.147000 151 138 151
-0.055666 0.667991 2.120000 155 137 150
-0.055325 0.667583 2.107000 153 136 149
-0.055325 0.671271 2.107000 152 137 150
-0.055009 0.671116 2.095000 152 137 150
-0.055009 0.674783 2.095000 153 136 147
-0.054327 0.670030 2.069000 151 137 143
-0.053697 0.665838 2.045000 149 137 140
-0.053382 0.665489 2.033000 151 137 137
-0.053066 0.665099 2.021000 153 136 141
-0.052751 0.664667 2.009000 151 139 146
-0.052751 0.668183 2.009000 150 138 145
-0.051570 0.656655 1.964000 149 138 145
-0.051255 0.656060 1.952000 149 137 144
-0.050966 0.655760 1.941000 148 137 143
-0.050703 0.655762 1.931000 147 134 141
-0.050703 0.659142 1.931000 142 133 139
-0.050414 0.658748 1.920000 137 136 141
-0.049863 0.654867 1.899000 141 138 143
-0.049574 0.654379 1.888000 146 136 143
-0.049574 0.657684 1.888000 147 137 144
-0.049312 0.657488 1.878000 149 136 146
-0.049049 0.657257 1.868000 150 138 148
-0.048786 0.656991 1.858000 151 138 146
-0.048261 0.653136 1.838000 150 137 144
-0.047762 0.649569 1.819000 149 137 145
-0.047264 0.645935 1.800000 149 137 147
-0.047001 0.645480 1.790000 150 138 145
-0.046528 0.642090 1.772000 151 138 144
-0.046292 0.641916 1.763000 153 137 144
-0.046292 0.645002 1.763000 146 137 145
-0.046056 0.644779 1.754000 139 135 144
-0.045583 0.641201 1.736000 142 131 143
-0.045373 0.641271 1.728000 146 134 144
-0.044927 0.637958 1.711000 149 136 145
-0.044690 0.637581 1.702000 152 136 148
-0.044690 0.640561 1.702000 153 135 151
-0.044480 0.640515 1.694000 154 134 149
-0.044270 0.640442 1.686000 152 133 146
-0.043614 0.633853 1.661000 150 135 146
-0.043194 0.630627 1.645000 149 136 146
-0.043010 0.630810 1.638000 148 134 145
-0.043010 0.633678 1.638000 144 131 145
-0.042800 0.633436 1.630000 140 133 145
-0.042406 0.630434 1.615000 144 135 145
-0.042406 0.633261 1.615000 149 135 144
-0.042196 0.632937 1.607000 153 134 144
-0.042196 0.635750 1.607000 158 133 144
-0.042012 0.635782 1.600000 154 134 145
-0.041802 0.635390 1.592000 150 133 142
-0.041434 0.632564 1.578000 149 133 139
-0.041251 0.632508 1.571000 149 131 143
-0.040489 0.623532 1.542000 149 128 148
-0.040489 0.626231 1.542000 149 129 145
-0.040332 0.626483 1.536000 148 133 141
-0.040148 0.626305 1.529000 148 132 142
-0.039964 0.626101 1.522000 148 130 142
-0.039623 0.623395 1.509000 149 131 139
-0.039439 0.623133 1.502000 148 133 136
-0.039281 0.623262 1.496000 147 133 142
-0.039097 0.622952 1.489000 147 133 148
-0.059233 0.698108 2.417000 150 136 145
-0.058817 0.697399 2.400000 152 136 145
-0.058008 0.691954 2.367000 150 134 145
-0.057616 0.691392 2.351000 148 134 146
-0.057224 0.690774 2.335000 149 134 148
-0.056856 0.690397 2.320000 150 132 147
-0.056464 0.689669 2.304000 151 134 146
-0.055729 0.684670 2.274000 153 135 141
