ply
format ascii 1.0
element vertex 1313
property float x
property float y
property float z
property uchar red
property uchar green
property uchar blue
end_header
1.891853 -0.412768 3.930000 59 47 46
1.891853 -0.405888 3.930000 58 46 46
1.891853 -0.399009 3.930000 57 45 47
1.891853 -0.392129 3.930000 59 45 48
1.891853 -0.385250 3.930000 61 46 46
1.891853 -0.378371 3.930000 59 47 45
1.891853 -0.371491 3.930000 57 48 44
1.891853 -0.364612 3.930000 59 49 44
1.891853 -0.357732 3.930000 62 48 43
1.891853 -0.350853 3.930000 60 49 42
1.891853 -0.343973 3.930000 59 48 43
1.891853 -0.337094 3.930000 58 47 44
1.891853 -0.330214 3.930000 58 47 45
1.891853 -0.323335 3.930000 58 47 46
1.891853 -0.316455 3.930000 58 48 47
1.870191 -0.306031 3.885000 59 47 48
1.891853 -0.302696 3.930000 61 46 45
1.891853 -0.295817 3.930000 60 46 43
1.891853 -0.288937 3.930000 59 47 48
1.891853 -0.282058 3.930000 59 49 53
1.891853 -0.275179 3.930000 59 47 49
1.891853 -0.268299 3.930000 60 46 45
1.891853 -0.261420 3.930000 62 47 41
1.891853 -0.254540 3.930000 60 49 38
1.870191 -0.244825 3.885000 59 49 44
1.891853 -0.240781 3.930000 58 49 50
1.870191 -0.231224 3.885000 58 48 48
1.870191 -0.224423 3.885000 59 47 46
1.870191 -0.217622 3.885000 60 46 46
1.870191 -0.210821 3.885000 57 45 47
1.870191 -0.204021 3.885000 54 47 46
1.870191 -0.197220 3.885000 55 47 45
1.870191 -0.190419 3.885000 57 46 46
1.870191 -0.183619 3.885000 56 46 46
1.870191 -0.176818 3.885000 56 46 45
1.870191 -0.170017 3.885000 54 49 45
1.870191 -0.163217 3.885000 53 48 48
1.870191 -0.156416 3.885000 53 47 52
1.870191 -0.149615 3.885000 53 47 46
1.870191 -0.142815 3.885000 53 46 41
1.870191 -0.136014 3.885000 53 48 46
1.870191 -0.129213 3.885000 53 48 51
1.870191 -0.122412 3.885000 53 47 48
1.870191 -0.115612 3.885000 53 45 45
1.870191 -0.108811 3.885000 53 45 44
1.870191 -0.102010 3.885000 54 46 43
1.849491 -0.094156 3.842000 56 45 47
1.849491 -0.087430 3.842000 56 46 51
1.849491 -0.080705 3.842000 57 45 50
1.849491 -0.073980 3.842000 58 45 49
1.849491 -0.067254 3.842000 60 45 45
1.849491 -0.060529 3.842000 58 45 41
1.849491 -0.053803 3.842000 56 45 44
1.849491 -0.047078 3.842000 55 44 48
1.849491 -0.040352 3.842000 54 43 43
1.849491 -0.033627 3.842000 54 43 38
1.849491 -0.026902 3.842000 55 44 43
1.849491 -0.020176 3.842000 54 44 48
1.849491 -0.013451 3.842000 53 46 46
1.849491 -0.006725 3.842000 53 47 45
1.849491 -0.000000 3.842000 53 48 45
1.849491 0.006726 3.842000 53 47 45
1.849491 0.013451 3.842000 53 46 49
1.849491 0.020176 3.842000 54 47 53
1.849491 0.026902 3.842000 55 44 51
1.849491 0.033627 3.842000 55 44 50
1.849491 0.040353 3.842000 55 45 46
1.849491 0.047078 3.842000 55 46 43
1.849491 0.053804 3.842000 55 45 44
1.849491 0.060529 3.842000 55 45 46
1.849491 0.067254 3.842000 55 43 42
1.849491 0.073980 3.842000 55 41 38
1.849491 0.080705 3.842000 55 44 40
1.849491 0.087430 3.842000 55 45 43
1.849491 0.094156 3.842000 55 44 45
1.849491 0.100881 3.842000 55 44 47
1.849491 0.107607 3.842000 55 44 43
1.849491 0.114332 3.842000 52 44 40
1.849491 0.121058 3.842000 50 44 42
1.849491 0.127783 3.842000 49 46 45
1.849491 0.134508 3.842000 49 45 44
1.849491 0.141234 3.842000 53 46 43
1.849491 0.147959 3.842000 58 44 42
1.849491 0.154685 3.842000 56 43 41
1.849491 0.161410 3.842000 54 43 43
1.849491 0.168136 3.842000 54 43 44
1.849491 0.174861 3.842000 54 43 40
1.849491 0.181587 3.842000 51 43 36
1.849491 0.188312 3.842000 49 43 38
1.849491 0.195037 3.842000 51 42 41
1.849491 0.201763 3.842000 53 42 42
1.849491 0.208488 3.842000 53 43 44
1.849491 0.215214 3.842000 53 43 41
1.849491 0.221939 3.842000 53 43 38
1.849491 0.228665 3.842000 53 43 37
1.849491 0.235390 3.842000 53 44 37
1.849491 0.242115 3.842000 53 42 39
1.849491 0.248841 3.842000 52 42 41
1.849491 0.255566 3.842000 52 41 40
1.829273 0.259424 3.800000 52 42 39
1.829273 0.266076 3.800000 52 42 38
1.829273 0.272728 3.800000 52 42 37
1.829273 0.279380 3.800000 52 41 36
1.829273 0.286032 3.800000 51 41 36
1.849491 0.295919 3.842000 51 41 38
1.849491 0.302644 3.842000 52 42 40
1.849491 0.309369 3.842000 53 42 40
1.849491 0.316095 3.842000 54 42 39
1.829273 0.319291 3.800000 55 41 38
1.829273 0.325943 3.800000 53 42 36
1.829273 0.332595 3.800000 52 43 34
1.829273 0.339247 3.800000 52 45 32
1.829273 0.345899 3.800000 52 42 34
1.829273 0.352551 3.800000 55 42 37
1.829273 0.359203 3.800000 58 41 38
1.829273 0.365855 3.800000 55 41 40
1.829273 0.372506 3.800000 53 41 39
1.829273 0.379158 3.800000 54 42 39
1.829273 0.385810 3.800000 55 41 39
1.829273 0.392462 3.800000 53 41 39
1.829273 0.399114 3.800000 51 40 41
1.829273 0.405766 3.800000 51 40 43
1.829273 0.412418 3.800000 51 40 41
1.829273 0.419070 3.800000 51 42 39
1.829273 0.425722 3.800000 51 42 40
1.829273 0.432374 3.800000 52 42 42
1.829273 0.439026 3.800000 53 41 38
1.829273 0.445677 3.800000 52 42 35
1.829273 0.452329 3.800000 51 41 34
1.809536 0.454029 3.759000 50 40 34
1.809536 0.460609 3.759000 49 39 33
1.809536 0.467189 3.759000 48 41 33
1.809536 0.473769 3.759000 47 41 36
1.829273 0.485589 3.800000 47 41 39
1.829273 0.492241 3.800000 47 41 38
1.829273 0.498893 3.800000 48 42 38
1.829273 0.505545 3.800000 50 40 34
1.829273 0.512197 3.800000 50 41 30
1.829273 0.518848 3.800000 51 40 30
1.829273 0.525500 3.800000 48 41 31
1.829273 0.532152 3.800000 45 40 33
1.829273 0.538804 3.800000 48 39 35
1.809536 0.539571 3.759000 51 39 38
1.809536 0.546151 3.759000 50 39 41
1.809536 0.552731 3.759000 50 38 39
1.809536 0.559311 3.759000 47 37 37
1.809536 0.565891 3.759000 45 38 37
1.809536 0.572471 3.759000 45 40 38
1.809536 0.579052 3.759000 46 40 31
1.809536 0.585632 3.759000 48 39 25
1.809536 0.592212 3.759000 50 39 30
1.809536 0.598792 3.759000 48 40 34
1.809536 0.605372 3.759000 46 38 33
1.809536 0.611952 3.759000 46 35 33
1.809536 0.618532 3.759000 47 37 34
1.789799 0.618294 3.718000 46 40 35
1.789799 0.624803 3.718000 45 40 34
1.771025 0.624689 3.679000 45 41 33
1.771025 0.631129 3.679000 45 39 37
1.771025 0.637569 3.679000 47 40 41
1.771025 0.644009 3.679000 49 39 36
1.771025 0.650449 3.679000 52 38 31
1.771025 0.656889 3.679000 55 39 31
1.789799 0.670361 3.718000 51 39 32
1.789799 0.676870 3.718000 48 39 28
1.789799 0.683378 3.718000 48 39 25
1.789799 0.689886 3.718000 48 37 29
1.789799 0.696395 3.718000 47 35 33
1.789799 0.702903 3.718000 47 36 34
1.789799 0.709411 3.718000 46 39 34
1.789799 0.715920 3.718000 45 38 32
1.789799 0.722428 3.718000 44 38 30
1.771025 0.721290 3.679000 44 39 27
1.771025 0.727730 3.679000 42 39 23
1.771025 0.734170 3.679000 40 39 25
1.771025 0.740610 3.679000 42 39 27
1.771025 0.747051 3.679000 44 38 29
1.771025 0.753491 3.679000 45 36 31
1.771025 0.759931 3.679000 47 35 34
1.771025 0.766371 3.679000 46 31 37
1.771025 0.772811 3.679000 46 33 37
1.771025 0.779251 3.679000 45 35 37
1.771025 0.785691 3.679000 44 37 36
1.771025 0.792131 3.679000 43 39 35
1.752251 0.790106 3.640000 42 37 33
1.752251 0.796478 3.640000 42 37 31
1.752251 0.802850 3.640000 43 34 35
1.771025 0.817891 3.679000 43 34 40
1.771025 0.824332 3.679000 43 33 35
1.771025 0.830772 3.679000 44 34 31
1.771025 0.837212 3.679000 46 32 34
1.771025 0.843652 3.679000 45 33 36
1.771025 0.850092 3.679000 45 31 30
1.771025 0.856532 3.679000 42 28 23
1.771025 0.862972 3.679000 39 32 24
1.771025 0.869412 3.679000 41 39 25
1.771025 0.875852 3.679000 44 33 22
1.771025 0.882293 3.679000 44 31 20
1.771025 0.888733 3.679000 45 32 23
1.752251 0.885683 3.640000 43 33 27
1.752251 0.892055 3.640000 41 31 27
1.752251 0.898427 3.640000 42 30 28
1.752251 0.904799 3.640000 44 31 28
1.752251 0.911170 3.640000 42 34 29
1.752251 0.917542 3.640000 41 31 27
1.752251 0.923914 3.640000 38 30 26
1.752251 0.930286 3.640000 36 31 27
1.752251 0.936658 3.640000 38 36 29
1.752251 0.943030 3.640000 41 33 30
1.752251 0.949401 3.640000 42 29 31
1.752251 0.955773 3.640000 44 31 30
1.752251 0.962145 3.640000 42 36 29
1.752251 0.968517 3.640000 40 34 28
1.752251 0.974889 3.640000 39 34 28
1.752251 0.981260 3.640000 39 32 28
1.752251 0.987632 3.640000 42 29 28
1.752251 0.994004 3.640000 45 28 26
1.752251 1.000376 3.640000 32 26 25
1.752251 1.006748 3.640000 20 19 18
1.752251 1.013120 3.640000 10 9 12
1.771025 1.030414 3.679000 1 5 7
1.771025 1.036855 3.679000 1 3 2
1.771025 1.043295 3.679000 2 2 2
1.771025 1.049735 3.679000 1 2 2
1.771025 1.056175 3.679000 1 1 1
1.771025 1.062615 3.679000 1 1 1
1.771025 1.069055 3.679000 2 1 1
1.771025 1.075495 3.679000 2 1 1
1.733958 1.059291 3.602000 3 1 2
1.733958 1.065596 3.602000 2 1 3
1.752251 1.083210 3.640000 1 1 2
1.752251 1.089581 3.640000 1 1 1
1.771025 1.107696 3.679000 1 1 1
1.290119 0.957034 2.680000 27 21 19
1.280010 0.954189 2.659000 28 24 14
1.270382 0.951632 2.639000 30 23 13
1.260754 0.949004 2.619000 32 22 11
1.260754 0.953589 2.619000 34 21 17
1.260754 0.958173 2.619000 30 21 22
1.251126 0.955406 2.599000 26 20 23
1.241980 0.952937 2.580000 28 21 24
1.241980 0.957454 2.580000 30 21 23
1.171697 0.907533 2.434000 31 20 22
1.168809 0.909546 2.428000 33 20 22
1.171697 0.916054 2.434000 30 20 22
1.171697 0.920315 2.434000 27 20 24
1.171697 0.924576 2.434000 27 22 27
1.171697 0.928836 2.434000 28 23 26
1.163514 0.926580 2.417000 24 26 25
1.131742 0.905394 2.351000 21 26 26
1.116819 0.897517 2.320000 25 25 28
1.101896 0.889531 2.289000 30 23 22
1.094675 0.887682 2.274000 28 21 16
1.898732 -1.547880 3.930000 41 31 27
1.898732 -1.541000 3.930000 39 34 29
1.898732 -1.534121 3.930000 40 34 31
1.898732 -1.527241 3.930000 41 34 29
1.920474 -1.537771 3.975000 41 31 27
1.920474 -1.530812 3.975000 41 30 30
1.920474 -1.523854 3.975000 42 29 33
1.920474 -1.516896 3.975000 43 28 33
1.920474 -1.509938 3.975000 43 29 34
1.920474 -1.502979 3.975000 44 30 38
1.920474 -1.475146 3.975000 47 30 25
1.920474 -1.468188 3.975000 48 33 21
1.920474 -1.461230 3.975000 50 34 23
1.920474 -1.454272 3.975000 51 39 26
1.920474 -1.447314 3.975000 52 42 30
1.920474 -1.440355 3.975000 54 41 34
1.920474 -1.433397 3.975000 56 41 35
1.920474 -1.322065 3.975000 59 45 41
1.920474 -1.315107 3.975000 57 45 44
1.920474 -1.308149 3.975000 56 46 41
1.920474 -1.301190 3.975000 56 45 39
1.920474 -1.294232 3.975000 56 46 42
1.920474 -1.287274 3.975000 56 45 45
1.920474 -1.280316 3.975000 56 45 44
1.920474 -1.273358 3.975000 55 45 44
1.920474 -1.266399 3.975000 55 46 44
1.920474 -1.259441 3.975000 56 45 45
1.920474 -1.252483 3.975000 58 45 42
1.920474 -1.245524 3.975000 57 45 40
1.920474 -1.238566 3.975000 57 46 43
1.920474 -1.231608 3.975000 57 46 46
1.920474 -1.224650 3.975000 58 47 43
1.920474 -1.217692 3.975000 59 45 40
1.920474 -1.210733 3.975000 59 45 43
1.920474 -1.203775 3.975000 59 45 46
1.920474 -1.196817 3.975000 58 45 51
1.920474 -1.189859 3.975000 59 44 57
1.920474 -1.182900 3.975000 59 44 51
1.920474 -1.175942 3.975000 57 46 45
1.920474 -1.168984 3.975000 54 48 45
1.920474 -1.162026 3.975000 55 47 45
1.898732 -1.141991 3.930000 56 46 43
1.898732 -1.135112 3.930000 57 47 41
1.898732 -1.128232 3.930000 58 47 45
1.898732 -1.121353 3.930000 58 45 49
1.920474 -1.127234 3.975000 58 46 47
1.920474 -1.120276 3.975000 58 46 45
1.920474 -1.113318 3.975000 59 47 45
1.920474 -1.078527 3.975000 56 48 46
1.920474 -1.071569 3.975000 56 50 46
1.920474 -1.064610 3.975000 57 48 47
1.920474 -1.057652 3.975000 59 47 48
1.920474 -1.050694 3.975000 58 46 50
1.920474 -1.043736 3.975000 57 46 48
1.920474 -1.036777 3.975000 56 46 46
1.920474 -1.029819 3.975000 56 49 46
1.920474 -1.022861 3.975000 58 47 47
1.920474 -1.015903 3.975000 60 46 52
1.920474 -1.008944 3.975000 61 46 57
1.920474 -1.001986 3.975000 62 46 48
1.920474 -0.995028 3.975000 61 46 39
1.920474 -0.988070 3.975000 61 46 43
1.920474 -0.981111 3.975000 61 46 47
1.920474 -0.974153 3.975000 61 47 46
1.920474 -0.967195 3.975000 60 46 46
1.920474 -0.960237 3.975000 60 45 46
1.920474 -0.953279 3.975000 61 47 47
1.920474 -0.946320 3.975000 62 48 45
1.920474 -0.939362 3.975000 61 49 44
1.920474 -0.932404 3.975000 61 50 45
1.920474 -0.925446 3.975000 61 48 47
1.920474 -0.918487 3.975000 61 48 45
1.920474 -0.911529 3.975000 60 49 44
1.920474 -0.904571 3.975000 59 49 45
1.920474 -0.897613 3.975000 59 48 47
1.920474 -0.890654 3.975000 59 49 47
1.920474 -0.883696 3.975000 60 47 47
1.920474 -0.876738 3.975000 62 47 47
1.920474 -0.869780 3.975000 62 47 47
1.920474 -0.862821 3.975000 62 46 47
1.920474 -0.855863 3.975000 59 48 47
1.920474 -0.848905 3.975000 57 51 45
1.920474 -0.841947 3.975000 58 50 43
1.920474 -0.834989 3.975000 59 50 45
1.920474 -0.828030 3.975000 59 49 47
1.920474 -0.821072 3.975000 59 49 45
1.920474 -0.814114 3.975000 58 49 43
1.920474 -0.807156 3.975000 57 50 44
1.898732 -0.791139 3.930000 61 48 46
1.920474 -0.793239 3.975000 64 47 43
1.920474 -0.786281 3.975000 62 47 41
1.920474 -0.779323 3.975000 60 49 42
1.920474 -0.772364 3.975000 59 49 44
1.920474 -0.765406 3.975000 59 50 45
1.920474 -0.758448 3.975000 59 48 47
1.920474 -0.751490 3.975000 59 46 47
1.920474 -0.744531 3.975000 58 48 47
1.920474 -0.737573 3.975000 57 50 47
1.920474 -0.730615 3.975000 60 48 48
1.920474 -0.723657 3.975000 64 48 41
1.920474 -0.716698 3.975000 62 47 35
1.920474 -0.709740 3.975000 60 47 40
1.920474 -0.702782 3.975000 61 46 46
1.920474 -0.695824 3.975000 61 46 51
1.920474 -0.688865 3.975000 60 46 56
1.920474 -0.681907 3.975000 60 46 53
1.920474 -0.674949 3.975000 58 47 50
1.920474 -0.667991 3.975000 57 47 50
1.920474 -0.661033 3.975000 58 46 50
1.920474 -0.654074 3.975000 60 45 50
1.920474 -0.647116 3.975000 60 44 50
1.920474 -0.640158 3.975000 60 45 48
1.920474 -0.633200 3.975000 59 47 47
1.920474 -0.626241 3.975000 59 49 47
1.920474 -0.619283 3.975000 58 49 47
1.920474 -0.612325 3.975000 57 52 47
1.920474 -0.605367 3.975000 58 50 48
1.920474 -0.598408 3.975000 59 48 53
1.920474 -0.591450 3.975000 58 49 58
1.920474 -0.584492 3.975000 58 49 48
1.920474 -0.577534 3.975000 58 47 39
1.920474 -0.570575 3.975000 57 49 43
1.920474 -0.563617 3.975000 58 48 47
1.920474 -0.556659 3.975000 59 48 48
1.920474 -0.549701 3.975000 59 46 50
1.920474 -0.542743 3.975000 60 44 50
1.898732 -0.529719 3.930000 59 46 50
1.898732 -0.522839 3.930000 59 48 50
1.920474 -0.521868 3.975000 60 47 51
1.898732 -0.509080 3.930000 61 47 49
1.898732 -0.502201 3.930000 60 47 47
1.898732 -0.495321 3.930000 59 46 51
1.876991 -0.482849 3.885000 58 47 56
1.898732 -0.481563 3.930000 57 47 51
1.898732 -0.474683 3.930000 59 47 46
1.898732 -0.467804 3.930000 61 47 46
1.898732 -0.460924 3.930000 60 48 47
1.876991 -0.448846 3.885000 59 47 45
1.898732 -0.447165 3.930000 58 48 43
1.898732 -0.440286 3.930000 57 50 45
1.898732 -0.433406 3.930000 59 49 47
1.898732 -0.426527 3.930000 61 49 46
1.898732 -0.419647 3.930000 59 48 45
1.898732 -0.412768 3.930000 58 47 45
1.898732 -0.405888 3.930000 57 46 45
1.898732 -0.399009 3.930000 57 47 45
1.898732 -0.392129 3.930000 58 46 46
1.898732 -0.385250 3.930000 60 47 43
1.898732 -0.378371 3.930000 59 48 41
1.898732 -0.371491 3.930000 58 49 41
1.898732 -0.364612 3.930000 59 47 42
1.898732 -0.357732 3.930000 61 46 42
1.876991 -0.346835 3.885000 60 48 42
1.898732 -0.343973 3.930000 58 49 41
1.876991 -0.333234 3.885000 58 47 41
1.898732 -0.330214 3.930000 57 48 40
1.898732 -0.323335 3.930000 57 47 40
1.898732 -0.316455 3.930000 57 47 44
1.876991 -0.306031 3.885000 59 45 49
1.876991 -0.299230 3.885000 62 45 47
1.876991 -0.292430 3.885000 60 46 46
1.898732 -0.288937 3.930000 59 48 52
1.876991 -0.278828 3.885000 58 48 59
1.876991 -0.272028 3.885000 57 47 52
1.876991 -0.265227 3.885000 58 47 45
1.876991 -0.258426 3.885000 60 49 39
1.876991 -0.251626 3.885000 59 49 34
1.876991 -0.244825 3.885000 59 49 43
1.876991 -0.238024 3.885000 58 49 53
1.876991 -0.231224 3.885000 58 49 49
1.876991 -0.224423 3.885000 57 47 46
1.876991 -0.217622 3.885000 57 47 48
1.876991 -0.210821 3.885000 55 47 50
1.876991 -0.204021 3.885000 53 50 48
1.876991 -0.197220 3.885000 55 47 46
1.876991 -0.190419 3.885000 57 47 45
1.876991 -0.183619 3.885000 56 46 44
1.876991 -0.176818 3.885000 56 46 44
1.876991 -0.170017 3.885000 54 47 45
1.876991 -0.163217 3.885000 53 48 50
1.876991 -0.156416 3.885000 53 47 55
1.876991 -0.149615 3.885000 53 49 46
1.856216 -0.141234 3.842000 53 47 37
1.856216 -0.134508 3.842000 54 49 45
1.856216 -0.127783 3.842000 54 47 54
1.856216 -0.121057 3.842000 54 47 50
1.856216 -0.114332 3.842000 54 44 47
1.856216 -0.107607 3.842000 54 43 47
1.856216 -0.100881 3.842000 55 44 48
1.856216 -0.094156 3.842000 56 44 53
1.856216 -0.087430 3.842000 56 44 58
1.856216 -0.080705 3.842000 56 45 53
1.856216 -0.073980 3.842000 57 45 49
1.856216 -0.067254 3.842000 57 46 46
1.856216 -0.060529 3.842000 56 45 44
1.856216 -0.053803 3.842000 55 45 48
1.856216 -0.047078 3.842000 55 44 53
1.856216 -0.040352 3.842000 56 43 43
1.856216 -0.033627 3.842000 55 43 34
1.856216 -0.026902 3.842000 55 45 41
1.856216 -0.020176 3.842000 53 45 48
1.856216 -0.013451 3.842000 52 48 46
1.856216 -0.006725 3.842000 52 48 45
1.856216 -0.000000 3.842000 52 49 45
1.856216 0.006726 3.842000 54 46 45
1.856216 0.013451 3.842000 56 46 46
1.856216 0.020176 3.842000 55 44 47
1.856216 0.026902 3.842000 54 42 49
1.856216 0.033627 3.842000 53 43 52
1.856216 0.040353 3.842000 53 45 47
1.856216 0.047078 3.842000 52 45 43
1.856216 0.053804 3.842000 52 44 43
1.856216 0.060529 3.842000 53 44 43
1.856216 0.067254 3.842000 55 45 39
1.856216 0.073980 3.842000 55 44 35
1.856216 0.080705 3.842000 55 45 39
1.856216 0.087430 3.842000 55 44 43
1.856216 0.094156 3.842000 55 44 48
1.856216 0.100881 3.842000 53 45 53
1.856216 0.107607 3.842000 52 46 48
1.856216 0.114332 3.842000 51 44 43
1.856216 0.121058 3.842000 50 43 45
1.856216 0.127783 3.842000 50 44 47
1.856216 0.134508 3.842000 51 43 46
1.856216 0.141234 3.842000 53 43 45
1.856216 0.147959 3.842000 55 42 45
1.856216 0.154685 3.842000 54 42 45
1.856216 0.161410 3.842000 53 42 43
1.856216 0.168136 3.842000 53 43 41
1.856216 0.174861 3.842000 54 44 38
1.835925 0.179601 3.800000 53 43 35
1.835925 0.186253 3.800000 53 44 38
1.856216 0.195037 3.842000 53 42 41
1.856216 0.201763 3.842000 53 43 44
1.856216 0.208488 3.842000 53 43 47
1.856216 0.215214 3.842000 53 43 44
1.856216 0.221939 3.842000 53 43 41
1.856216 0.228665 3.842000 53 44 37
1.856216 0.235390 3.842000 53 43 34
1.856216 0.242115 3.842000 53 41 37
1.856216 0.248841 3.842000 52 42 40
1.856216 0.255566 3.842000 52 42 40
1.835925 0.259424 3.800000 52 41 40
1.835925 0.266076 3.800000 52 42 40
1.835925 0.272728 3.800000 53 41 40
1.835925 0.279380 3.800000 54 42 40
1.835925 0.286032 3.800000 52 41 40
1.835925 0.292684 3.800000 51 41 40
1.835925 0.299336 3.800000 51 41 40
1.856216 0.309369 3.842000 52 42 39
1.835925 0.312640 3.800000 53 41 39
1.835925 0.319291 3.800000 53 41 39
1.835925 0.325943 3.800000 52 41 39
1.835925 0.332595 3.800000 51 41 35
1.835925 0.339247 3.800000 51 41 31
1.835925 0.345899 3.800000 51 39 35
1.835925 0.352551 3.800000 53 40 40
1.835925 0.359203 3.800000 55 41 40
1.835925 0.365855 3.800000 53 41 41
1.835925 0.372506 3.800000 51 42 40
1.835925 0.379158 3.800000 52 41 40
1.835925 0.385810 3.800000 53 41 39
1.835925 0.392462 3.800000 51 40 39
1.835925 0.399114 3.800000 50 41 38
1.835925 0.405766 3.800000 49 40 38
1.835925 0.412418 3.800000 49 41 38
1.835925 0.419070 3.800000 49 40 39
1.835925 0.425722 3.800000 49 44 42
1.816116 0.427708 3.759000 50 42 45
1.816116 0.434289 3.759000 52 41 41
1.816116 0.440869 3.759000 51 40 38
1.816116 0.447449 3.759000 50 40 34
1.816116 0.454029 3.759000 49 39 30
1.816116 0.460609 3.759000 49 39 31
1.816116 0.467189 3.759000 48 40 33
1.835925 0.478937 3.800000 48 41 36
1.835925 0.485589 3.800000 48 40 39
1.835925 0.492241 3.800000 48 41 39
1.835925 0.498893 3.800000 48 41 40
1.835925 0.505545 3.800000 48 41 34
1.835925 0.512197 3.800000 49 39 29
1.835925 0.518848 3.800000 50 38 29
1.835925 0.525500 3.800000 48 39 30
1.835925 0.532152 3.800000 47 40 34
1.835925 0.538804 3.800000 48 38 38
1.816116 0.539571 3.759000 50 37 42
1.835925 0.552108 3.800000 49 37 47
1.816116 0.552731 3.759000 49 37 44
1.816116 0.559311 3.759000 48 37 41
1.816116 0.565891 3.759000 47 37 41
1.816116 0.572471 3.759000 47 38 42
1.816116 0.579052 3.759000 47 41 34
1.816116 0.585632 3.759000 48 39 26
1.816116 0.592212 3.759000 49 39 28
1.816116 0.598792 3.759000 48 39 30
1.816116 0.605372 3.759000 47 38 31
1.816116 0.611952 3.759000 47 37 33
1.816116 0.618532 3.759000 48 37 34
1.796307 0.618294 3.718000 47 38 35
1.796307 0.624803 3.718000 47 39 32
1.777465 0.624689 3.679000 47 40 30
1.777465 0.631129 3.679000 47 41 32
1.777465 0.637569 3.679000 48 39 34
1.777465 0.644009 3.679000 49 37 27
1.777465 0.650449 3.679000 50 38 20
1.777465 0.656889 3.679000 52 41 24
1.796307 0.670361 3.718000 50 39 29
1.796307 0.676870 3.718000 48 38 25
1.796307 0.683378 3.718000 48 38 22
1.796307 0.689886 3.718000 48 38 27
1.796307 0.696395 3.718000 46 37 33
1.796307 0.702903 3.718000 45 37 30
1.796307 0.709411 3.718000 45 38 27
1.796307 0.715920 3.718000 44 41 27
1.777465 0.714850 3.679000 44 39 27
1.777465 0.721290 3.679000 44 40 26
1.777465 0.727730 3.679000 43 39 25
1.777465 0.734170 3.679000 43 38 25
1.777465 0.740610 3.679000 43 39 26
1.777465 0.747051 3.679000 44 40 30
1.777465 0.753491 3.679000 44 37 34
1.777465 0.759931 3.679000 45 35 35
1.777465 0.766371 3.679000 45 33 37
1.777465 0.772811 3.679000 45 34 35
1.777465 0.779251 3.679000 44 34 33
1.777465 0.785691 3.679000 44 38 32
1.777465 0.792131 3.679000 43 38 32
1.758622 0.790106 3.640000 42 37 31
1.758622 0.796478 3.640000 42 35 31
1.758622 0.802850 3.640000 42 34 31
1.758622 0.809221 3.640000 43 33 31
1.777465 0.824332 3.679000 44 33 30
1.758622 0.821965 3.640000 45 32 29
1.777465 0.837212 3.679000 45 31 29
1.777465 0.843652 3.679000 46 32 29
1.777465 0.850092 3.679000 47 34 28
1.777465 0.856532 3.679000 44 31 28
1.777465 0.862972 3.679000 42 31 26
1.777465 0.869412 3.679000 43 34 25
1.777465 0.875852 3.679000 44 31 20
1.777465 0.882293 3.679000 44 32 15
1.777465 0.888733 3.679000 44 34 19
1.758622 0.885683 3.640000 43 32 24
1.758622 0.892055 3.640000 42 30 25
1.758622 0.898427 3.640000 43 29 27
1.758622 0.904799 3.640000 44 28 27
1.758622 0.911170 3.640000 43 30 28
1.758622 0.917542 3.640000 43 30 27
1.758622 0.923914 3.640000 42 30 26
1.758622 0.930286 3.640000 41 29 27
1.758622 0.936658 3.640000 41 32 28
1.758622 0.943030 3.640000 41 34 28
1.758622 0.949401 3.640000 43 31 28
1.758622 0.955773 3.640000 46 31 28
1.758622 0.962145 3.640000 41 33 29
1.758622 0.968517 3.640000 36 35 28
1.758622 0.974889 3.640000 37 34 28
1.758622 0.981260 3.640000 39 33 29
1.758622 0.987632 3.640000 40 29 31
1.758622 0.994004 3.640000 41 27 29
1.758622 1.000376 3.640000 30 25 28
1.758622 1.006748 3.640000 20 21 21
1.758622 1.013120 3.640000 11 11 15
1.777465 1.030414 3.679000 2 5 8
1.777465 1.036855 3.679000 2 3 2
1.777465 1.043295 3.679000 2 2 2
1.777465 1.049735 3.679000 1 2 2
1.777465 1.056175 3.679000 1 2 2
1.758622 1.051350 3.640000 1 1 2
1.758622 1.057722 3.640000 2 2 1
1.758622 1.064094 3.640000 2 1 1
1.740263 1.059291 3.602000 2 1 1
1.740263 1.065596 3.602000 1 1 2
1.740263 1.071901 3.602000 1 1 1
1.758622 1.089581 3.640000 1 1 1
1.777465 1.107696 3.679000 1 2 1
1.275001 0.951632 2.639000 28 25 9
1.275001 0.956251 2.639000 29 21 8
1.265339 0.953589 2.619000 30 21 15
1.265339 0.958173 2.619000 28 20 22
1.265339 0.962758 2.619000 26 20 20
1.255676 0.959955 2.599000 27 21 18
1.255676 0.964505 2.599000 29 21 19
1.246496 0.961970 2.580000 29 20 21
1.170160 0.907298 2.422000 30 21 21
1.175958 0.916054 2.434000 28 20 22
1.175958 0.920315 2.434000 27 20 22
1.175958 0.924576 2.434000 27 21 23
1.167745 0.922349 2.417000 27 22 24
1.159531 0.920063 2.400000 25 25 25
1.135858 0.905394 2.351000 23 28 21
1.128127 0.903319 2.335000 26 24 17
1.113150 0.895360 2.304000 30 22 13
1.105903 0.893538 2.289000 28 21 10
1.905612 -1.547880 3.930000 42 30 24
1.905612 -1.541000 3.930000 39 32 25
1.905612 -1.534121 3.930000 39 34 26
1.905612 -1.527241 3.930000 40 33 25
1.927432 -1.537771 3.975000 41 30 24
1.927432 -1.530812 3.975000 43 30 30
1.927432 -1.523854 3.975000 42 28 37
1.927432 -1.516896 3.975000 42 28 34
1.927432 -1.509938 3.975000 43 30 31
1.927432 -1.502979 3.975000 44 30 33
1.927432 -1.468188 3.975000 49 34 25
1.927432 -1.461230 3.975000 51 36 26
1.927432 -1.454272 3.975000 52 41 26
1.927432 -1.447314 3.975000 53 41 30
1.927432 -1.440355 3.975000 54 40 34
1.927432 -1.329023 3.975000 58 43 41
1.927432 -1.322065 3.975000 59 44 41
1.927432 -1.315107 3.975000 57 45 41
1.927432 -1.308149 3.975000 56 45 39
1.927432 -1.301190 3.975000 56 45 38
1.927432 -1.294232 3.975000 56 45 41
1.927432 -1.287274 3.975000 56 45 44
1.927432 -1.280316 3.975000 56 45 44
1.927432 -1.273358 3.975000 53 46 44
1.927432 -1.266399 3.975000 50 46 43
1.927432 -1.259441 3.975000 53 46 42
1.927432 -1.252483 3.975000 56 45 38
1.927432 -1.245524 3.975000 55 45 34
1.927432 -1.238566 3.975000 55 45 38
1.927432 -1.231608 3.975000 56 47 43
1.927432 -1.224650 3.975000 57 46 42
1.927432 -1.217692 3.975000 58 46 42
1.927432 -1.210733 3.975000 60 45 43
1.927432 -1.203775 3.975000 60 45 45
1.927432 -1.196817 3.975000 60 44 44
1.927432 -1.189859 3.975000 59 44 43
1.927432 -1.182900 3.975000 59 44 43
1.927432 -1.175942 3.975000 56 47 43
1.927432 -1.168984 3.975000 53 47 44
1.905612 -1.148871 3.930000 54 48 45
1.905612 -1.141991 3.930000 56 47 41
1.905612 -1.135112 3.930000 57 49 37
1.905612 -1.128232 3.930000 58 47 41
1.905612 -1.121353 3.930000 57 46 45
1.927432 -1.127234 3.975000 56 45 43
1.927432 -1.120276 3.975000 58 46 42
1.927432 -1.113318 3.975000 60 46 42
1.927432 -1.078527 3.975000 55 49 36
1.927432 -1.071569 3.975000 53 49 41
1.927432 -1.064610 3.975000 55 50 46
1.927432 -1.057652 3.975000 57 47 46
1.927432 -1.050694 3.975000 57 47 45
1.927432 -1.043736 3.975000 58 46 45
1.927432 -1.036777 3.975000 58 46 46
1.927432 -1.029819 3.975000 59 47 45
1.927432 -1.022861 3.975000 59 49 44
1.927432 -1.015903 3.975000 59 47 49
1.927432 -1.008944 3.975000 59 49 54
1.927432 -1.001986 3.975000 60 47 49
1.927432 -0.995028 3.975000 60 46 44
1.927432 -0.988070 3.975000 61 46 46
1.927432 -0.981111 3.975000 60 47 48
1.927432 -0.974153 3.975000 59 47 48
1.927432 -0.967195 3.975000 59 46 48
1.927432 -0.960237 3.975000 59 47 50
1.927432 -0.953279 3.975000 58 49 52
1.927432 -0.946320 3.975000 58 49 49
1.927432 -0.939362 3.975000 58 50 46
1.927432 -0.932404 3.975000 59 49 45
1.927432 -0.925446 3.975000 59 48 44
1.927432 -0.918487 3.975000 59 48 42
1.927432 -0.911529 3.975000 59 49 41
1.927432 -0.904571 3.975000 59 48 47
1.927432 -0.897613 3.975000 59 47 53
1.927432 -0.890654 3.975000 59 47 51
1.927432 -0.883696 3.975000 58 47 49
1.927432 -0.876738 3.975000 58 47 49
1.905612 -0.859933 3.930000 60 49 49
1.927432 -0.862821 3.975000 62 47 48
1.927432 -0.855863 3.975000 60 47 47
1.927432 -0.848905 3.975000 59 49 45
1.927432 -0.841947 3.975000 59 50 43
1.927432 -0.834989 3.975000 59 49 45
1.927432 -0.828030 3.975000 59 49 47
1.927432 -0.821072 3.975000 59 48 48
1.927432 -0.814114 3.975000 59 48 50
1.927432 -0.807156 3.975000 60 48 47
1.905612 -0.791139 3.930000 61 49 44
1.927432 -0.793239 3.975000 62 47 41
1.927432 -0.786281 3.975000 61 46 39
1.905612 -0.770500 3.930000 60 48 41
1.927432 -0.772364 3.975000 59 49 43
1.905612 -0.756741 3.930000 59 49 44
1.905612 -0.749862 3.930000 59 49 44
1.927432 -0.751490 3.975000 59 48 44
1.905612 -0.736103 3.930000 57 50 44
1.905612 -0.729223 3.930000 55 50 45
1.905612 -0.722344 3.930000 61 50 45
1.927432 -0.723657 3.975000 67 48 42
1.927432 -0.716698 3.975000 64 49 38
1.927432 -0.709740 3.975000 62 47 42
1.927432 -0.702782 3.975000 63 46 46
1.927432 -0.695824 3.975000 65 46 48
1.927432 -0.688865 3.975000 62 45 51
1.927432 -0.681907 3.975000 60 45 49
1.927432 -0.674949 3.975000 58 46 48
1.927432 -0.667991 3.975000 57 46 47
1.927432 -0.661033 3.975000 59 46 47
1.927432 -0.654074 3.975000 61 45 48
1.927432 -0.647116 3.975000 60 45 50
1.927432 -0.640158 3.975000 60 46 48
1.927432 -0.633200 3.975000 59 49 47
1.927432 -0.626241 3.975000 59 49 46
1.927432 -0.619283 3.975000 59 49 46
1.927432 -0.612325 3.975000 59 49 47
1.927432 -0.605367 3.975000 59 49 47
1.927432 -0.598408 3.975000 59 48 48
1.927432 -0.591450 3.975000 59 50 50
1.927432 -0.584492 3.975000 59 48 45
1.927432 -0.577534 3.975000 60 46 41
1.927432 -0.570575 3.975000 62 47 46
1.927432 -0.563617 3.975000 60 47 52
1.927432 -0.556659 3.975000 59 46 51
1.927432 -0.549701 3.975000 58 46 50
1.927432 -0.542743 3.975000 58 45 50
1.905612 -0.529719 3.930000 58 46 50
1.927432 -0.528826 3.975000 59 47 51
1.927432 -0.521868 3.975000 59 47 53
1.905612 -0.509080 3.930000 59 47 49
1.905612 -0.502201 3.930000 59 49 46
1.905612 -0.495321 3.930000 59 48 48
1.883792 -0.482849 3.885000 57 50 51
1.883792 -0.476048 3.885000 55 48 47
1.883792 -0.469248 3.885000 57 47 44
1.883792 -0.462447 3.885000 59 48 45
1.883792 -0.455646 3.885000 59 49 47
1.883792 -0.448846 3.885000 59 48 45
1.883792 -0.442045 3.885000 59 47 44
1.883792 -0.435244 3.885000 59 48 45
1.905612 -0.433406 3.930000 61 49 46
1.905612 -0.426527 3.930000 63 49 46
1.905612 -0.419647 3.930000 60 49 46
1.905612 -0.412768 3.930000 57 47 46
1.905612 -0.405888 3.930000 57 46 47
1.905612 -0.399009 3.930000 58 47 46
1.905612 -0.392129 3.930000 58 47 46
1.905612 -0.385250 3.930000 59 48 42
1.905612 -0.378371 3.930000 59 49 39
1.905612 -0.371491 3.930000 59 48 41
1.905612 -0.364612 3.930000 60 47 43
1.883792 -0.353636 3.885000 61 47 43
1.883792 -0.346835 3.885000 59 49 44
1.883792 -0.340035 3.885000 58 47 43
1.883792 -0.333234 3.885000 57 46 43
1.883792 -0.326433 3.885000 57 47 42
1.883792 -0.319632 3.885000 56 49 42
1.883792 -0.312832 3.885000 56 46 44
1.883792 -0.306031 3.885000 60 43 46
1.883792 -0.299230 3.885000 64 44 46
1.883792 -0.292430 3.885000 61 46 45
1.883792 -0.285629 3.885000 59 47 50
1.883792 -0.278828 3.885000 57 49 54
1.883792 -0.272028 3.885000 55 48 51
1.883792 -0.265227 3.885000 57 49 47
1.883792 -0.258426 3.885000 59 49 42
1.883792 -0.251626 3.885000 59 49 38
1.862942 -0.242115 3.842000 59 49 44
1.862942 -0.235390 3.842000 58 49 50
1.862942 -0.228664 3.842000 58 47 48
1.862942 -0.221939 3.842000 56 47 46
1.883792 -0.217622 3.885000 55 48 49
1.883792 -0.210821 3.885000 54 49 53
1.883792 -0.204021 3.885000 53 48 50
1.883792 -0.197220 3.885000 55 47 48
1.883792 -0.190419 3.885000 57 47 47
1.883792 -0.183619 3.885000 56 47 46
1.883792 -0.176818 3.885000 56 46 46
1.883792 -0.170017 3.885000 54 48 47
1.883792 -0.163217 3.885000 53 47 49
1.883792 -0.156416 3.885000 53 47 52
1.883792 -0.149615 3.885000 53 46 46
1.883792 -0.142815 3.885000 54 46 40
1.862942 -0.134508 3.842000 56 47 45
1.862942 -0.127783 3.842000 56 47 49
1.862942 -0.121057 3.842000 56 46 48
1.862942 -0.114332 3.842000 55 44 47
1.862942 -0.107607 3.842000 55 44 46
1.862942 -0.100881 3.842000 56 46 46
1.862942 -0.094156 3.842000 57 45 47
1.862942 -0.087430 3.842000 56 44 48
1.862942 -0.080705 3.842000 56 45 47
1.862942 -0.073980 3.842000 55 45 47
1.862942 -0.067254 3.842000 55 46 44
1.862942 -0.060529 3.842000 55 46 41
1.862942 -0.053803 3.842000 55 45 44
1.862942 -0.047078 3.842000 56 44 47
1.862942 -0.040352 3.842000 58 42 42
1.862942 -0.033627 3.842000 56 41 38
1.862942 -0.026902 3.842000 55 44 41
1.862942 -0.020176 3.842000 53 45 45
1.862942 -0.013451 3.842000 52 46 43
1.862942 -0.006725 3.842000 52 49 41
1.862942 -0.000000 3.842000 52 47 41
1.862942 0.006726 3.842000 55 45 41
1.862942 0.013451 3.842000 59 44 41
1.862942 0.020176 3.842000 56 41 40
1.862942 0.026902 3.842000 54 42 45
1.862942 0.033627 3.842000 52 44 50
1.862942 0.040353 3.842000 51 45 47
1.862942 0.047078 3.842000 50 46 45
1.862942 0.053804 3.842000 50 44 44
1.862942 0.060529 3.842000 52 44 43
1.862942 0.067254 3.842000 55 44 39
1.862942 0.073980 3.842000 55 45 36
1.862942 0.080705 3.842000 55 45 39
1.862942 0.087430 3.842000 55 45 43
1.862942 0.094156 3.842000 55 45 45
1.862942 0.100881 3.842000 52 46 48
1.862942 0.107607 3.842000 50 45 44
1.862942 0.114332 3.842000 50 46 40
1.862942 0.121058 3.842000 50 44 43
1.862942 0.127783 3.842000 51 45 46
1.862942 0.134508 3.842000 53 43 44
1.862942 0.141234 3.842000 53 43 43
1.862942 0.147959 3.842000 53 42 43
1.862942 0.154685 3.842000 52 42 43
1.862942 0.161410 3.842000 52 42 43
1.862942 0.168136 3.842000 53 44 44
1.862942 0.174861 3.842000 54 43 41
1.862942 0.181587 3.842000 56 44 38
1.862942 0.188312 3.842000 58 43 38
1.862942 0.195037 3.842000 56 42 39
1.862942 0.201763 3.842000 54 43 41
1.862942 0.208488 3.842000 53 44 44
1.862942 0.215214 3.842000 53 43 41
1.862942 0.221939 3.842000 53 44 39
1.862942 0.228665 3.842000 53 43 36
1.862942 0.235390 3.842000 53 43 34
1.862942 0.242115 3.842000 53 43 35
1.862942 0.248841 3.842000 53 45 37
1.842577 0.252772 3.800000 53 42 39
1.842577 0.259424 3.800000 53 41 40
1.862942 0.269017 3.842000 53 41 43
1.862942 0.275742 3.842000 54 41 45
1.842577 0.279380 3.800000 56 41 43
1.842577 0.286032 3.800000 53 40 42
1.862942 0.295919 3.842000 51 41 40
1.862942 0.302644 3.842000 51 42 39
1.862942 0.309369 3.842000 52 41 37
1.842577 0.312640 3.800000 52 42 35
1.842577 0.319291 3.800000 52 41 36
1.842577 0.325943 3.800000 51 42 36
1.842577 0.332595 3.800000 51 41 34
1.842577 0.339247 3.800000 50 41 32
1.842577 0.345899 3.800000 50 40 36
1.842577 0.352551 3.800000 51 41 40
1.842577 0.359203 3.800000 53 41 40
1.842577 0.365855 3.800000 51 42 40
1.842577 0.372506 3.800000 49 42 39
1.842577 0.379158 3.800000 50 41 39
1.842577 0.385810 3.800000 51 40 39
1.842577 0.392462 3.800000 50 39 38
1.842577 0.399114 3.800000 50 40 38
1.842577 0.405766 3.800000 48 41 38
1.842577 0.412418 3.800000 47 39 38
1.842577 0.419070 3.800000 47 36 37
1.822696 0.421128 3.759000 47 40 36
1.822696 0.427708 3.759000 49 44 35
1.822696 0.434289 3.759000 51 41 36
1.822696 0.440869 3.759000 50 39 38
1.822696 0.447449 3.759000 50 39 36
1.822696 0.454029 3.759000 49 40 34
1.822696 0.460609 3.759000 49 39 34
1.822696 0.467189 3.759000 49 40 35
1.822696 0.473769 3.759000 50 39 35
1.822696 0.480350 3.759000 50 39 34
1.842577 0.492241 3.800000 50 40 36
1.842577 0.498893 3.800000 48 41 39
1.842577 0.505545 3.800000 47 40 36
1.842577 0.512197 3.800000 48 39 33
1.842577 0.518848 3.800000 49 39 34
1.842577 0.525500 3.800000 49 39 35
1.822696 0.526410 3.759000 49 38 36
1.822696 0.532991 3.759000 49 39 36
1.822696 0.539571 3.759000 49 38 40
1.822696 0.546151 3.759000 49 37 44
1.822696 0.552731 3.759000 49 38 41
1.822696 0.559311 3.759000 49 37 37
1.822696 0.565891 3.759000 49 36 38
1.822696 0.572471 3.759000 49 37 38
1.822696 0.579052 3.759000 49 39 32
1.822696 0.585632 3.759000 49 37 26
1.802816 0.585753 3.718000 49 38 28
1.802816 0.592261 3.718000 49 39 30
1.822696 0.605372 3.759000 49 39 32
1.822696 0.611952 3.759000 49 38 34
1.822696 0.618532 3.759000 49 38 33
1.802816 0.618294 3.718000 49 39 32
1.783905 0.618249 3.679000 50 38 32
1.783905 0.624689 3.679000 49 39 32
1.783905 0.631129 3.679000 49 40 32
1.783905 0.637569 3.679000 49 39 31
1.783905 0.644009 3.679000 49 38 29
1.783905 0.650449 3.679000 49 38 27
1.783905 0.656889 3.679000 49 39 27
1.802816 0.670361 3.718000 48 39 28
1.802816 0.676870 3.718000 48 37 28
1.802816 0.683378 3.718000 48 37 28
1.802816 0.689886 3.718000 48 38 30
1.802816 0.696395 3.718000 46 39 33
1.802816 0.702903 3.718000 44 37 30
1.802816 0.709411 3.718000 44 38 26
1.802816 0.715920 3.718000 44 38 28
1.783905 0.714850 3.679000 44 39 29
1.783905 0.721290 3.679000 44 38 29
1.783905 0.727730 3.679000 45 39 28
1.783905 0.734170 3.679000 47 37 29
1.783905 0.740610 3.679000 45 39 30
1.783905 0.747051 3.679000 44 40 35
1.783905 0.753491 3.679000 44 40 41
1.783905 0.759931 3.679000 44 35 39
1.783905 0.766371 3.679000 44 32 37
1.783905 0.772811 3.679000 45 32 31
1.783905 0.779251 3.679000 44 30 26
1.783905 0.785691 3.679000 44 34 29
1.783905 0.792131 3.679000 43 38 32
1.783905 0.798571 3.679000 42 36 29
1.783905 0.805011 3.679000 42 32 27
1.783905 0.811451 3.679000 42 33 29
1.783905 0.817891 3.679000 44 34 30
1.783905 0.824332 3.679000 46 33 32
1.783905 0.830772 3.679000 45 33 33
1.783905 0.837212 3.679000 45 32 31
1.783905 0.843652 3.679000 47 33 29
1.783905 0.850092 3.679000 49 33 29
1.783905 0.856532 3.679000 47 34 29
1.783905 0.862972 3.679000 45 34 27
1.783905 0.869412 3.679000 44 38 25
1.783905 0.875852 3.679000 44 34 22
1.783905 0.882293 3.679000 44 33 20
1.783905 0.888733 3.679000 44 32 21
1.764994 0.885683 3.640000 44 32 23
1.764994 0.892055 3.640000 44 30 25
1.764994 0.898427 3.640000 44 30 27
1.764994 0.904799 3.640000 44 30 26
1.764994 0.911170 3.640000 44 31 25
1.764994 0.917542 3.640000 45 31 24
1.764994 0.923914 3.640000 46 31 23
1.764994 0.930286 3.640000 47 30 24
1.764994 0.936658 3.640000 44 30 26
1.764994 0.943030 3.640000 41 32 27
1.764994 0.949401 3.640000 45 30 28
1.764994 0.955773 3.640000 49 30 30
1.764994 0.962145 3.640000 41 30 33
1.764994 0.968517 3.640000 33 33 30
1.764994 0.974889 3.640000 36 34 28
1.783905 0.991774 3.679000 39 33 30
1.764994 0.987632 3.640000 38 29 32
1.764994 0.994004 3.640000 37 28 37
1.764994 1.000376 3.640000 29 27 42
1.764994 1.006748 3.640000 21 19 27
1.764994 1.013120 3.640000 12 9 12
1.764994 1.019491 3.640000 4 5 7
1.783905 1.036855 3.679000 3 3 2
1.783905 1.043295 3.679000 2 2 2
1.783905 1.049735 3.679000 2 2 2
1.764994 1.044979 3.640000 2 2 1
1.764994 1.051350 3.640000 2 2 1
1.764994 1.057722 3.640000 2 1 1
1.764994 1.064094 3.640000 1 1 1
1.746569 1.059291 3.602000 1 1 1
1.764994 1.076838 3.640000 1 1 1
1.764994 1.083210 3.640000 1 1 1
1.783905 1.101256 3.679000 1 2 1
1.783905 1.107696 3.679000 1 2 1
1.279621 0.951632 2.639000 27 21 12
1.279621 0.956251 2.639000 27 19 11
1.269923 0.953589 2.619000 27 20 15
1.269923 0.958173 2.619000 26 19 20
1.269923 0.962758 2.619000 26 21 18
1.260225 0.959955 2.599000 27 24 17
1.260225 0.964505 2.599000 28 21 18
1.251013 0.961970 2.580000 27 19 18
1.171976 0.905425 2.417000 27 20 18
1.171976 0.909656 2.417000 27 21 19
1.171976 0.913887 2.417000 27 21 19
1.171976 0.918118 2.417000 27 22 20
1.171976 0.922349 2.417000 27 22 20
1.163733 0.920063 2.400000 26 25 20
1.139973 0.905394 2.351000 26 25 20
1.132215 0.903319 2.335000 28 22 20
1.117183 0.895360 2.304000 30 22 16
1.109910 0.893538 2.289000 28 22 13
1.912491 -1.541000 3.930000 40 31 21
1.912491 -1.534121 3.930000 40 32 21
1.912491 -1.527241 3.930000 39 34 21
1.912491 -1.520362 3.930000 40 33 21
1.912491 -1.513482 3.930000 41 34 31
1.934390 -1.523854 3.975000 41 30 41
1.934390 -1.516896 3.975000 41 28 34
1.934390 -1.509938 3.975000 42 29 28
1.934390 -1.502979 3.975000 44 30 28
1.934390 -1.461230 3.975000 51 35 28
1.934390 -1.454272 3.975000 52 39 27
1.934390 -1.440355 3.975000 54 41 34
1.934390 -1.329023 3.975000 60 43 43
1.934390 -1.322065 3.975000 61 45 41
1.934390 -1.315107 3.975000 57 45 39
1.934390 -1.301190 3.975000 54 45 37
1.934390 -1.294232 3.975000 55 45 40
1.934390 -1.287274 3.975000 56 45 44
1.934390 -1.280316 3.975000 56 45 44
1.934390 -1.273358 3.975000 54 45 45
1.934390 -1.266399 3.975000 53 47 42
1.934390 -1.259441 3.975000 54 46 39
1.934390 -1.252483 3.975000 56 46 34
1.934390 -1.245524 3.975000 55 45 29
1.934390 -1.238566 3.975000 55 45 34
1.934390 -1.224650 3.975000 58 45 42
1.934390 -1.217692 3.975000 59 45 45
1.934390 -1.210733 3.975000 59 45 44
1.934390 -1.203775 3.975000 60 44 44
1.934390 -1.196817 3.975000 62 45 37
1.934390 -1.189859 3.975000 60 44 30
1.934390 -1.182900 3.975000 59 44 35
1.934390 -1.175942 3.975000 56 45 41
1.934390 -1.168984 3.975000 54 46 43
1.934390 -1.162026 3.975000 55 46 45
1.912491 -1.141991 3.930000 56 47 39
1.912491 -1.135112 3.930000 56 47 34
1.912491 -1.128232 3.930000 57 47 37
1.912491 -1.121353 3.930000 56 46 41
1.934390 -1.127234 3.975000 55 45 40
1.934390 -1.120276 3.975000 57 45 40
1.934390 -1.113318 3.975000 60 46 40
1.934390 -1.078527 3.975000 56 48 26
1.934390 -1.071569 3.975000 54 48 36
1.934390 -1.064610 3.975000 55 48 46
1.934390 -1.057652 3.975000 57 47 43
1.934390 -1.050694 3.975000 59 46 41
1.934390 -1.043736 3.975000 61 46 43
1.934390 -1.036777 3.975000 60 46 46
1.934390 -1.029819 3.975000 60 45 44
1.934390 -1.022861 3.975000 60 46 42
1.934390 -1.015903 3.975000 60 46 47
1.934390 -1.008944 3.975000 60 47 52
1.934390 -1.001986 3.975000 60 48 51
1.934390 -0.995028 3.975000 60 46 50
1.934390 -0.988070 3.975000 60 45 50
1.934390 -0.981111 3.975000 59 46 50
1.912491 -0.963125 3.930000 59 48 50
1.912491 -0.956246 3.930000 59 47 51
1.912491 -0.949366 3.930000 59 49 54
1.934390 -0.953279 3.975000 59 49 58
1.934390 -0.946320 3.975000 60 49 53
1.934390 -0.939362 3.975000 59 50 48
1.934390 -0.932404 3.975000 59 51 44
1.934390 -0.925446 3.975000 59 49 41
1.934390 -0.918487 3.975000 59 49 39
1.934390 -0.911529 3.975000 60 48 38
1.912491 -0.894330 3.930000 61 48 48
1.912491 -0.887451 3.930000 60 47 59
1.934390 -0.890654 3.975000 59 48 55
1.912491 -0.873692 3.930000 58 46 51
1.912491 -0.866813 3.930000 58 48 51
1.912491 -0.859933 3.930000 60 47 51
1.912491 -0.853054 3.930000 62 47 49
1.912491 -0.846174 3.930000 60 47 47
1.934390 -0.848905 3.975000 58 49 45
1.934390 -0.841947 3.975000 58 49 43
1.934390 -0.834989 3.975000 59 49 45
1.934390 -0.828030 3.975000 59 48 47
1.934390 -0.821072 3.975000 60 49 52
1.934390 -0.814114 3.975000 59 48 57
1.890593 -0.788880 3.885000 59 47 50
1.912491 -0.791139 3.930000 60 48 43
1.912491 -0.784259 3.930000 60 49 40
1.912491 -0.777380 3.930000 60 48 37
1.912491 -0.770500 3.930000 59 49 40
1.934390 -0.772364 3.975000 58 49 43
1.912491 -0.756741 3.930000 57 49 42
1.912491 -0.749862 3.930000 58 49 42
1.934390 -0.751490 3.975000 59 50 42
1.912491 -0.736103 3.930000 58 49 42
1.912491 -0.729223 3.930000 57 50 42
1.912491 -0.722344 3.930000 59 48 43
1.934390 -0.723657 3.975000 62 46 42
1.934390 -0.716698 3.975000 62 47 42
1.934390 -0.709740 3.975000 62 47 44
1.934390 -0.702782 3.975000 62 46 46
1.934390 -0.695824 3.975000 63 47 46
1.934390 -0.688865 3.975000 61 46 47
1.934390 -0.681907 3.975000 60 45 46
1.934390 -0.674949 3.975000 59 46 46
1.934390 -0.667991 3.975000 58 47 45
1.934390 -0.661033 3.975000 59 46 45
1.934390 -0.654074 3.975000 60 46 47
1.912491 -0.639790 3.930000 61 45 50
1.912491 -0.632911 3.930000 63 46 48
1.934390 -0.633200 3.975000 61 47 47
1.934390 -0.626241 3.975000 59 49 46
1.934390 -0.619283 3.975000 59 49 46
1.934390 -0.612325 3.975000 60 49 46
1.934390 -0.605367 3.975000 61 47 47
1.934390 -0.598408 3.975000 62 46 44
1.934390 -0.591450 3.975000 60 48 42
1.934390 -0.584492 3.975000 59 50 42
1.912491 -0.570996 3.930000 60 47 43
1.934390 -0.570575 3.975000 61 47 50
1.934390 -0.563617 3.975000 60 46 57
1.912491 -0.550357 3.930000 59 46 54
1.912491 -0.543478 3.930000 58 47 51
1.912491 -0.536598 3.930000 58 47 50
1.912491 -0.529719 3.930000 58 46 50
1.912491 -0.522839 3.930000 58 47 53
1.912491 -0.515960 3.930000 58 46 56
1.912491 -0.509080 3.930000 58 46 50
1.912491 -0.502201 3.930000 58 47 45
1.912491 -0.495321 3.930000 59 47 46
1.890593 -0.482849 3.885000 57 48 47
1.890593 -0.476048 3.885000 55 51 44
1.890593 -0.469248 3.885000 57 49 42
1.890593 -0.462447 3.885000 59 49 44
1.890593 -0.455646 3.885000 58 49 47
1.890593 -0.448846 3.885000 57 49 46
1.890593 -0.442045 3.885000 58 48 45
1.890593 -0.435244 3.885000 59 47 45
1.912491 -0.433406 3.930000 60 47 46
1.912491 -0.426527 3.930000 61 49 46
1.912491 -0.419647 3.930000 58 48 47
1.912491 -0.412768 3.930000 56 46 48
1.912491 -0.405888 3.930000 57 46 50
1.912491 -0.399009 3.930000 58 49 48
1.912491 -0.392129 3.930000 58 48 46
1.912491 -0.385250 3.930000 58 49 42
1.912491 -0.378371 3.930000 59 49 38
1.912491 -0.371491 3.930000 59 49 41
1.912491 -0.364612 3.930000 59 47 45
1.890593 -0.353636 3.885000 60 46 45
1.890593 -0.346835 3.885000 59 46 46
1.890593 -0.340035 3.885000 59 45 45
1.890593 -0.333234 3.885000 58 46 45
1.890593 -0.326433 3.885000 57 47 45
1.890593 -0.319632 3.885000 56 47 45
1.912491 -0.316455 3.930000 56 47 44
1.890593 -0.306031 3.885000 59 45 44
1.890593 -0.299230 3.885000 62 45 44
1.890593 -0.292430 3.885000 60 46 45
1.912491 -0.288937 3.930000 59 46 47
1.890593 -0.278828 3.885000 57 47 50
1.890593 -0.272028 3.885000 55 47 50
1.890593 -0.265227 3.885000 56 48 50
1.890593 -0.258426 3.885000 57 51 46
1.890593 -0.251626 3.885000 57 50 42
1.869667 -0.242115 3.842000 57 51 44
1.869667 -0.235390 3.842000 56 49 47
1.869667 -0.228664 3.842000 55 46 46
1.869667 -0.221939 3.842000 55 48 46
1.869667 -0.215213 3.842000 55 51 51
1.869667 -0.208488 3.842000 54 49 56
1.869667 -0.201763 3.842000 53 49 53
1.869667 -0.195037 3.842000 55 48 50
1.890593 -0.190419 3.885000 57 47 49
1.890593 -0.183619 3.885000 56 46 49
1.890593 -0.176818 3.885000 56 45 49
1.890593 -0.170017 3.885000 55 46 49
1.890593 -0.163217 3.885000 55 47 49
1.890593 -0.156416 3.885000 54 46 49
1.890593 -0.149615 3.885000 54 45 46
1.890593 -0.142815 3.885000 55 45 44
1.869667 -0.134508 3.842000 56 46 44
1.869667 -0.127783 3.842000 57 46 45
1.869667 -0.121057 3.842000 58 46 46
1.869667 -0.114332 3.842000 56 44 47
1.869667 -0.107607 3.842000 55 44 46
1.869667 -0.100881 3.842000 57 46 45
1.869667 -0.094156 3.842000 60 49 42
1.869667 -0.087430 3.842000 58 46 39
1.869667 -0.080705 3.842000 56 46 42
1.869667 -0.073980 3.842000 55 47 45
1.869667 -0.067254 3.842000 54 48 42
1.869667 -0.060529 3.842000 54 47 39
1.869667 -0.053803 3.842000 55 46 40
1.869667 -0.047078 3.842000 56 44 41
1.869667 -0.040352 3.842000 56 41 41
1.869667 -0.033627 3.842000 56 43 42
1.869667 -0.026902 3.842000 55 45 42
1.869667 -0.020176 3.842000 53 45 43
1.869667 -0.013451 3.842000 51 45 40
1.869667 -0.006725 3.842000 52 45 37
1.869667 -0.000000 3.842000 53 45 37
1.869667 0.006726 3.842000 54 45 38
1.869667 0.013451 3.842000 55 46 36
1.869667 0.020176 3.842000 54 43 34
1.869667 0.026902 3.842000 54 43 41
1.869667 0.033627 3.842000 53 44 48
1.869667 0.040353 3.842000 53 46 48
1.869667 0.047078 3.842000 52 44 48
1.869667 0.053804 3.842000 52 45 45
1.869667 0.060529 3.842000 53 44 43
1.869667 0.067254 3.842000 55 45 40
1.869667 0.073980 3.842000 53 45 38
1.869667 0.080705 3.842000 52 47 40
1.869667 0.087430 3.842000 53 46 43
1.849228 0.093127 3.800000 55 45 43
1.849228 0.099779 3.800000 54 45 43
1.849228 0.106431 3.800000 54 45 40
1.869667 0.114332 3.842000 53 44 37
1.869667 0.121058 3.842000 52 44 41
1.869667 0.127783 3.842000 52 43 46
1.869667 0.134508 3.842000 53 43 43
1.869667 0.141234 3.842000 53 43 41
1.869667 0.147959 3.842000 53 44 41
1.869667 0.154685 3.842000 52 42 42
1.869667 0.161410 3.842000 52 42 44
1.869667 0.168136 3.842000 53 42 47
1.869667 0.174861 3.842000 55 43 44
1.849228 0.179601 3.800000 55 43 41
1.849228 0.186253 3.800000 55 42 39
1.869667 0.195037 3.842000 54 43 37
1.869667 0.201763 3.842000 53 45 39
1.869667 0.208488 3.842000 53 43 41
1.869667 0.215214 3.842000 53 42 39
1.869667 0.221939 3.842000 53 43 37
1.869667 0.228665 3.842000 53 44 35
1.869667 0.235390 3.842000 53 43 34
1.869667 0.242115 3.842000 53 44 34
1.869667 0.248841 3.842000 53 43 35
1.869667 0.255566 3.842000 54 41 38
1.869667 0.262291 3.842000 53 41 41
1.849228 0.266076 3.800000 53 42 46
1.849228 0.272728 3.800000 53 41 51
1.849228 0.279380 3.800000 54 41 47
1.849228 0.286032 3.800000 53 40 44
1.869667 0.295919 3.842000 51 41 41
1.869667 0.302644 3.842000 51 41 39
1.869667 0.309369 3.842000 51 41 35
1.869667 0.316095 3.842000 51 41 32
1.869667 0.322820 3.842000 51 42 33
1.849228 0.325943 3.800000 51 41 34
1.849228 0.332595 3.800000 51 41 34
1.849228 0.339247 3.800000 50 42 34
1.849228 0.345899 3.800000 49 42 37
1.849228 0.352551 3.800000 51 41 40
1.849228 0.359203 3.800000 52 42 39
1.849228 0.365855 3.800000 50 43 39
1.849228 0.372506 3.800000 48 43 39
1.849228 0.379158 3.800000 50 41 39
1.849228 0.385810 3.800000 51 41 38
1.849228 0.392462 3.800000 51 40 38
1.849228 0.399114 3.800000 50 40 38
1.849228 0.405766 3.800000 49 40 39
1.849228 0.412418 3.800000 49 41 37
1.849228 0.419070 3.800000 48 38 36
1.849228 0.425722 3.800000 48 38 31
1.829276 0.427708 3.759000 48 40 26
1.829276 0.434289 3.759000 48 41 32
1.829276 0.440869 3.759000 48 40 38
1.829276 0.447449 3.759000 48 39 38
1.829276 0.454029 3.759000 48 39 38
1.829276 0.460609 3.759000 49 39 38
1.829276 0.467189 3.759000 51 39 38
1.829276 0.473769 3.759000 54 39 34
1.829276 0.480350 3.759000 52 39 30
1.849228 0.492241 3.800000 50 39 34
1.849228 0.498893 3.800000 48 40 38
