ply
format ascii 1.0
element vertex 1315
property float x
property float y
property float z
property uchar red
property uchar green
property uchar blue
end_header
0.860458 0.077145 3.390000 58 47 50
0.868834 0.083888 3.423000 57 46 51
0.868834 0.089879 3.423000 55 47 53
0.868834 0.095871 3.423000 53 47 51
0.868834 0.101864 3.423000 57 49 50
0.868834 0.107855 3.423000 61 46 50
0.868834 0.113847 3.423000 57 46 50
0.868834 0.119839 3.423000 54 46 51
0.868834 0.125831 3.423000 53 46 52
0.868834 0.131823 3.423000 53 46 51
0.868834 0.137815 3.423000 53 47 50
0.868834 0.143807 3.423000 53 48 48
0.868834 0.149799 3.423000 53 50 47
0.868834 0.155791 3.423000 53 48 46
0.860458 0.160223 3.390000 56 46 45
0.860458 0.166157 3.390000 59 45 45
0.860458 0.172092 3.390000 57 45 45
0.860458 0.178026 3.390000 56 45 47
0.860458 0.183960 3.390000 56 45 49
0.860458 0.189894 3.390000 56 46 45
0.860458 0.195829 3.390000 54 46 42
0.860458 0.201763 3.390000 53 48 42
0.860458 0.207697 3.390000 54 49 42
0.860458 0.213631 3.390000 55 46 44
0.860458 0.219565 3.390000 55 44 46
0.860458 0.225500 3.390000 56 45 46
0.860458 0.231434 3.390000 57 45 47
0.860458 0.237368 3.390000 59 44 47
0.860458 0.243302 3.390000 55 44 47
0.860458 0.249236 3.390000 51 44 46
0.860458 0.255170 3.390000 53 46 46
0.860458 0.261105 3.390000 56 45 47
0.860458 0.267039 3.390000 53 46 48
0.860458 0.272973 3.390000 51 45 47
0.860458 0.278907 3.390000 51 46 47
0.852082 0.282069 3.357000 51 46 47
0.852082 0.287945 3.357000 52 46 47
0.860458 0.296710 3.390000 53 46 48
0.860458 0.302644 3.390000 52 47 49
0.852082 0.305574 3.357000 51 46 47
0.852082 0.311451 3.357000 53 45 45
0.852082 0.317327 3.357000 55 44 45
0.852082 0.323204 3.357000 53 44 45
0.852082 0.329080 3.357000 51 45 44
0.852082 0.334957 3.357000 51 45 42
0.852082 0.340833 3.357000 51 45 44
0.852082 0.346709 3.357000 50 44 47
0.852082 0.352586 3.357000 50 44 47
0.852082 0.358462 3.357000 52 44 47
0.852082 0.364339 3.357000 54 43 45
0.852082 0.370215 3.357000 54 44 44
0.852082 0.376092 3.357000 54 42 43
0.852082 0.381968 3.357000 54 44 42
0.852082 0.387844 3.357000 54 43 43
0.852082 0.393721 3.357000 53 44 44
0.852082 0.399597 3.357000 53 43 45
0.852082 0.405474 3.357000 53 43 46
0.852082 0.411350 3.357000 53 42 43
0.852082 0.417226 3.357000 53 42 41
0.852082 0.423103 3.357000 53 42 41
0.852082 0.428979 3.357000 53 43 41
0.852082 0.434856 3.357000 53 42 45
0.852082 0.440732 3.357000 53 40 49
0.852082 0.446609 3.357000 53 40 47
0.852082 0.452485 3.357000 50 40 45
0.852082 0.458362 3.357000 48 42 46
0.843706 0.459674 3.324000 50 44 47
0.843706 0.465493 3.324000 52 42 44
0.843706 0.471312 3.324000 52 43 41
0.843706 0.477130 3.324000 53 42 40
0.835838 0.478445 3.293000 52 42 40
0.835838 0.484209 3.293000 51 41 43
0.835838 0.489974 3.293000 49 42 46
0.835838 0.495738 3.293000 47 42 47
0.835838 0.501503 3.293000 48 42 47
0.843706 0.512042 3.324000 49 42 44
0.843706 0.517861 3.324000 49 45 42
0.843706 0.523680 3.324000 49 44 42
0.843706 0.529498 3.324000 49 42 42
0.843706 0.535317 3.324000 50 41 39
0.843706 0.541136 3.324000 48 43 35
0.843706 0.546954 3.324000 47 41 42
0.843706 0.552773 3.324000 47 41 49
0.843706 0.558592 3.324000 47 40 46
0.843706 0.564410 3.324000 47 42 43
0.843706 0.570229 3.324000 47 41 41
0.843706 0.576048 3.324000 49 40 40
0.843706 0.581866 3.324000 51 39 41
0.843706 0.587685 3.324000 51 39 43
0.835838 0.587969 3.293000 51 38 43
0.835838 0.593733 3.293000 50 39 43
0.835838 0.599497 3.293000 50 39 41
0.843706 0.610960 3.324000 50 42 40
0.843706 0.616778 3.324000 50 40 39
0.843706 0.622597 3.324000 49 38 37
0.843706 0.628416 3.324000 49 38 38
0.843706 0.634234 3.324000 49 39 40
0.843706 0.640053 3.324000 50 38 41
0.835838 0.639848 3.293000 49 36 43
0.835838 0.645613 3.293000 49 37 44
0.835838 0.651377 3.293000 49 37 45
0.827969 0.650955 3.262000 49 35 42
0.827969 0.656665 3.262000 49 35 40
0.827969 0.662375 3.262000 49 36 42
0.827969 0.668085 3.262000 47 37 44
0.827969 0.673796 3.262000 45 39 42
0.827969 0.679506 3.262000 45 40 41
0.827969 0.685216 3.262000 45 39 41
0.827969 0.690926 3.262000 45 40 42
0.827969 0.696636 3.262000 45 39 40
0.835838 0.709021 3.293000 45 39 39
0.835838 0.714785 3.293000 45 39 38
0.827969 0.713767 3.262000 45 41 38
0.827969 0.719477 3.262000 45 38 39
0.835838 0.732078 3.293000 46 35 40
0.835838 0.737843 3.293000 47 35 35
0.827969 0.736607 3.262000 47 35 30
0.827969 0.742317 3.262000 47 35 35
0.827969 0.748027 3.262000 47 35 40
0.827969 0.753737 3.262000 48 36 35
0.827969 0.759448 3.262000 47 38 31
0.827969 0.765158 3.262000 47 35 32
0.827969 0.770868 3.262000 46 34 33
0.827969 0.776578 3.262000 46 36 34
0.827969 0.782288 3.262000 45 39 36
0.827969 0.787998 3.262000 45 37 36
0.827969 0.793708 3.262000 47 35 37
0.827969 0.799419 3.262000 49 34 36
0.827969 0.805129 3.262000 45 34 35
0.827969 0.810839 3.262000 42 36 37
0.827969 0.816549 3.262000 42 37 39
0.827969 0.822259 3.262000 43 36 37
0.827969 0.827969 3.262000 42 36 36
0.827969 0.833679 3.262000 41 35 33
0.827969 0.839389 3.262000 41 36 29
0.827969 0.845100 3.262000 42 34 34
0.827969 0.850810 3.262000 42 36 38
0.827969 0.856520 3.262000 42 34 38
0.827969 0.862230 3.262000 44 35 37
0.827969 0.867940 3.262000 46 33 34
0.827969 0.873650 3.262000 44 34 32
0.827969 0.879360 3.262000 42 36 33
0.827969 0.885070 3.262000 42 36 34
0.827969 0.890781 3.262000 42 36 34
0.827969 0.896491 3.262000 41 37 34
0.827969 0.902201 3.262000 40 32 35
0.827969 0.907911 3.262000 39 30 36
0.827969 0.913621 3.262000 39 32 30
0.827969 0.919331 3.262000 39 35 25
0.820101 0.916250 3.231000 40 34 27
0.820101 0.921906 3.231000 39 32 30
0.820101 0.927562 3.231000 39 30 30
0.820101 0.933218 3.231000 39 28 31
0.820101 0.938874 3.231000 40 29 28
0.820101 0.944530 3.231000 30 21 26
0.820101 0.950186 3.231000 20 13 17
0.820101 0.955841 3.231000 11 5 8
0.820101 0.961497 3.231000 3 3 5
0.820101 0.967153 3.231000 2 1 2
0.820101 0.972809 3.231000 2 2 2
0.820101 0.978465 3.231000 2 2 2
0.820101 0.984121 3.231000 2 2 1
0.820101 0.989777 3.231000 2 3 1
0.820101 0.995433 3.231000 2 2 1
0.827969 1.010693 3.262000 2 2 2
0.827969 1.016404 3.262000 2 2 2
0.820101 1.012400 3.231000 3 2 3
0.827969 1.027824 3.262000 4 2 2
0.827969 1.033534 3.262000 3 2 1
0.820101 1.029368 3.231000 3 1 1
0.820101 1.035024 3.231000 2 1 1
0.820101 1.040680 3.231000 2 1 1
0.812486 1.036620 3.201000 2 2 2
0.820101 1.051991 3.231000 2 1 1
0.820101 1.057647 3.231000 3 2 1
0.805125 1.043886 3.172000 4 1 1
0.805125 1.049439 3.172000 3 1 2
0.737354 1.001785 2.905000 18 13 14
0.737354 1.006870 2.905000 20 14 16
0.731263 1.003595 2.881000 21 16 18
0.731263 1.008638 2.881000 23 15 23
0.719333 0.997145 2.834000 24 17 28
0.719333 1.002105 2.834000 25 18 25
0.713241 0.998538 2.810000 26 20 22
0.696235 0.979531 2.743000 28 20 24
0.696235 0.984333 2.743000 28 22 27
0.690905 0.981562 2.722000 28 22 29
0.690905 0.986326 2.722000 30 23 32
0.680244 0.975799 2.680000 32 24 32
0.669838 0.965490 2.639000 33 27 32
0.654862 0.948421 2.580000 34 25 36
0.654862 0.952937 2.580000 33 24 40
0.645217 0.943352 2.542000 33 25 37
0.640394 0.940717 2.523000 33 27 33
0.635825 0.938391 2.505000 34 27 33
0.631257 0.936001 2.487000 34 27 34
0.626688 0.933549 2.469000 34 27 33
0.617804 0.924576 2.434000 35 27 33
0.609174 0.915862 2.400000 36 26 33
0.605113 0.913929 2.384000 36 26 33
0.600798 0.911555 2.367000 36 26 33
0.596737 0.909509 2.351000 36 27 32
0.592676 0.907407 2.335000 36 27 34
0.960699 -1.460789 3.759000 58 43 43
0.960699 -1.454209 3.759000 56 44 43
0.950221 -1.431839 3.718000 54 46 45
0.950221 -1.425331 3.718000 55 43 47
0.950221 -1.418822 3.718000 56 40 47
0.950221 -1.412314 3.718000 57 41 47
0.950221 -1.405806 3.718000 58 41 48
0.950221 -1.399297 3.718000 58 42 49
0.950221 -1.392789 3.718000 58 43 47
0.940253 -1.371739 3.679000 57 44 45
0.940253 -1.365299 3.679000 55 46 45
0.940253 -1.358859 3.679000 55 45 45
0.940253 -1.352419 3.679000 56 44 41
0.940253 -1.345979 3.679000 59 44 38
0.950221 -1.353739 3.718000 62 44 41
0.940253 -1.333099 3.679000 60 44 45
0.950221 -1.340722 3.718000 59 44 47
0.950221 -1.334214 3.718000 59 44 50
0.950221 -1.327705 3.718000 59 44 50
0.950221 -1.321197 3.718000 60 44 50
0.940253 -1.300898 3.679000 61 46 46
0.950221 -1.308180 3.718000 59 46 42
0.940253 -1.288018 3.679000 57 47 44
0.950221 -1.295164 3.718000 58 47 47
0.940253 -1.275138 3.679000 59 49 47
0.950221 -1.282147 3.718000 60 47 47
0.950221 -1.275638 3.718000 60 46 48
0.950221 -1.269130 3.718000 60 46 50
0.960699 -1.276545 3.759000 60 49 48
0.960699 -1.269965 3.759000 59 47 46
0.960699 -1.263385 3.759000 58 47 49
0.950221 -1.243097 3.718000 59 48 52
0.950221 -1.236588 3.718000 60 49 55
0.950221 -1.230080 3.718000 61 47 58
0.950221 -1.223572 3.718000 62 47 51
0.940253 -1.204297 3.679000 60 47 45
0.940253 -1.197857 3.679000 59 47 49
0.940253 -1.191417 3.679000 59 48 54
0.940253 -1.184977 3.679000 60 50 56
0.940253 -1.178537 3.679000 60 49 59
0.940253 -1.172096 3.679000 59 50 54
0.940253 -1.165656 3.679000 59 49 50
0.940253 -1.159216 3.679000 59 48 53
0.940253 -1.152776 3.679000 59 48 57
0.940253 -1.146336 3.679000 60 50 53
0.940253 -1.139896 3.679000 61 49 49
0.940253 -1.133456 3.679000 62 49 44
0.940253 -1.127016 3.679000 62 50 39
0.940253 -1.120576 3.679000 61 51 44
0.940253 -1.114136 3.679000 62 50 50
0.940253 -1.107695 3.679000 63 49 52
0.940253 -1.101255 3.679000 64 49 55
0.940253 -1.094815 3.679000 66 50 55
0.940253 -1.088375 3.679000 64 50 56
0.940253 -1.081935 3.679000 63 51 55
0.940253 -1.075495 3.679000 63 50 54
0.940253 -1.069055 3.679000 63 50 54
0.940253 -1.062615 3.679000 63 51 55
0.940253 -1.056175 3.679000 63 53 56
0.930286 -1.038607 3.640000 62 52 58
0.930286 -1.032235 3.640000 62 52 57
0.930286 -1.025863 3.640000 64 50 56
0.930286 -1.019491 3.640000 66 49 54
0.930286 -1.013119 3.640000 65 51 53
0.930286 -1.006748 3.640000 64 53 49
0.930286 -1.000376 3.640000 65 51 45
0.930286 -0.994004 3.640000 66 50 51
0.930286 -0.987632 3.640000 68 50 57
0.930286 -0.981260 3.640000 70 52 60
0.930286 -0.974889 3.640000 67 52 63
0.930286 -0.968517 3.640000 64 53 61
0.930286 -0.962145 3.640000 65 51 59
0.930286 -0.955773 3.640000 66 49 58
0.920574 -0.939490 3.602000 67 52 58
0.930286 -0.943029 3.640000 68 53 60
0.920574 -0.926879 3.602000 69 52 63
0.920574 -0.920574 3.602000 70 51 54
0.930286 -0.923914 3.640000 68 52 46
0.930286 -0.917542 3.640000 66 52 49
0.930286 -0.911170 3.640000 66 53 53
0.920574 -0.895353 3.602000 66 55 56
0.920574 -0.889047 3.602000 66 55 59
0.930286 -0.892055 3.640000 65 55 59
0.920574 -0.876437 3.602000 67 54 59
0.920574 -0.870132 3.602000 69 54 59
0.920574 -0.863826 3.602000 69 54 59
0.920574 -0.857521 3.602000 69 55 59
0.920574 -0.851216 3.602000 68 55 59
0.920574 -0.844910 3.602000 68 56 59
0.920574 -0.838605 3.602000 67 54 59
0.920574 -0.832300 3.602000 67 51 58
0.920574 -0.825995 3.602000 67 53 58
0.920574 -0.819689 3.602000 68 55 58
0.920574 -0.813384 3.602000 67 56 59
0.920574 -0.807079 3.602000 66 58 55
0.920574 -0.800773 3.602000 67 57 51
0.920574 -0.794468 3.602000 68 56 53
0.920574 -0.788163 3.602000 68 56 56
0.920574 -0.781857 3.602000 69 56 54
0.920574 -0.775552 3.602000 69 56 53
0.911118 -0.761345 3.565000 70 56 53
0.911118 -0.755104 3.565000 68 57 53
0.911118 -0.748864 3.565000 67 59 55
0.911118 -0.742623 3.565000 69 58 57
0.901662 -0.728740 3.528000 71 56 56
0.901662 -0.722564 3.528000 70 56 56
0.901662 -0.716389 3.528000 69 59 56
0.911118 -0.717661 3.565000 69 59 57
0.911118 -0.711421 3.565000 70 59 54
0.911118 -0.705180 3.565000 70 56 51
0.920574 -0.706194 3.602000 70 55 64
0.920574 -0.699888 3.602000 71 56 77
0.920574 -0.693583 3.602000 71 56 65
0.920574 -0.687278 3.602000 70 58 53
0.920574 -0.680973 3.602000 69 60 62
0.920574 -0.674667 3.602000 69 59 71
0.911118 -0.661496 3.565000 70 57 68
0.911118 -0.655256 3.565000 69 56 65
0.911118 -0.649015 3.565000 68 55 63
0.911118 -0.642775 3.565000 67 57 62
0.911118 -0.636534 3.565000 67 59 62
0.911118 -0.630294 3.565000 68 57 62
0.911118 -0.624053 3.565000 69 55 61
0.911118 -0.617813 3.565000 69 55 60
0.911118 -0.611572 3.565000 70 56 57
0.911118 -0.605332 3.565000 68 55 55
0.911118 -0.599091 3.565000 67 55 57
0.911118 -0.592851 3.565000 68 54 60
0.901662 -0.580522 3.528000 70 53 60
0.892717 -0.568648 3.493000 69 55 60
0.901662 -0.568170 3.528000 69 54 60
0.892717 -0.556419 3.493000 69 55 60
0.892717 -0.550305 3.493000 69 56 59
0.892717 -0.544190 3.493000 68 54 59
0.892717 -0.538076 3.493000 68 53 61
0.901662 -0.537291 3.528000 68 54 64
0.901662 -0.531116 3.528000 67 55 56
0.901662 -0.524940 3.528000 67 55 48
0.901662 -0.518764 3.528000 67 56 53
0.901662 -0.512588 3.528000 67 55 59
0.901662 -0.506413 3.528000 67 55 54
0.901662 -0.500237 3.528000 67 55 49
0.901662 -0.494061 3.528000 66 56 53
0.901662 -0.487885 3.528000 65 56 58
0.901662 -0.481710 3.528000 64 55 58
0.901662 -0.475534 3.528000 64 55 59
0.901662 -0.469358 3.528000 64 56 58
0.892717 -0.458587 3.493000 64 55 58
0.892717 -0.452473 3.493000 65 54 58
0.892717 -0.446358 3.493000 65 54 58
0.892717 -0.440244 3.493000 66 55 58
0.892717 -0.434129 3.493000 66 54 59
0.901662 -0.432303 3.528000 67 54 58
0.901662 -0.426128 3.528000 67 53 58
0.901662 -0.419952 3.528000 67 54 57
0.901662 -0.413776 3.528000 65 54 56
0.901662 -0.407600 3.528000 64 54 54
0.901662 -0.401425 3.528000 65 54 53
0.901662 -0.395249 3.528000 65 53 53
0.901662 -0.389073 3.528000 63 55 53
0.901662 -0.382897 3.528000 62 57 53
0.901662 -0.376722 3.528000 62 54 53
0.901662 -0.370546 3.528000 62 52 54
0.892717 -0.360755 3.493000 63 52 56
0.892717 -0.354641 3.493000 64 52 53
0.892717 -0.348526 3.493000 62 53 51
0.892717 -0.342412 3.493000 61 53 56
0.892717 -0.336297 3.493000 62 52 62
0.892717 -0.330183 3.493000 63 53 57
0.892717 -0.324068 3.493000 62 53 53
0.892717 -0.317954 3.493000 61 56 54
0.892717 -0.311839 3.493000 62 53 56
0.892717 -0.305725 3.493000 63 51 54
0.892717 -0.299610 3.493000 61 52 52
0.892717 -0.293496 3.493000 59 55 51
0.892717 -0.287381 3.493000 59 53 50
0.892717 -0.281267 3.493000 60 52 47
0.892717 -0.275152 3.493000 61 53 45
0.892717 -0.269038 3.493000 62 52 55
0.892717 -0.262923 3.493000 62 49 65
0.892717 -0.256809 3.493000 63 47 59
0.892717 -0.250694 3.493000 62 49 54
0.892717 -0.244580 3.493000 61 51 51
0.892717 -0.238465 3.493000 60 50 48
0.892717 -0.232351 3.493000 59 51 49
0.883771 -0.223969 3.458000 60 51 50
0.883771 -0.217916 3.458000 61 51 47
0.883771 -0.211863 3.458000 60 50 44
0.883771 -0.205810 3.458000 60 50 48
0.883771 -0.199756 3.458000 59 49 53
0.883771 -0.193703 3.458000 58 51 56
0.883771 -0.187650 3.458000 60 50 59
0.883771 -0.181597 3.458000 62 50 56
0.883771 -0.175544 3.458000 59 50 54
0.883771 -0.169490 3.458000 56 52 51
0.883771 -0.163437 3.458000 56 51 49
0.883771 -0.157384 3.458000 56 51 51
0.892717 -0.152862 3.493000 57 51 54
0.883771 -0.145277 3.458000 59 50 54
0.892717 -0.140633 3.493000 58 49 54
0.892717 -0.134519 3.493000 58 50 55
0.883771 -0.127118 3.458000 60 48 56
0.892717 -0.122290 3.493000 61 48 56
0.892717 -0.116175 3.493000 59 48 57
0.892717 -0.110061 3.493000 57 50 62
0.883771 -0.102905 3.458000 57 49 67
0.883771 -0.096852 3.458000 57 51 60
0.883771 -0.090798 3.458000 56 50 53
0.883771 -0.084745 3.458000 56 52 55
0.883771 -0.078692 3.458000 55 50 57
0.874826 -0.071903 3.423000 55 50 54
0.874826 -0.065912 3.423000 57 49 52
0.883771 -0.060532 3.458000 59 49 50
0.883771 -0.054479 3.458000 57 50 48
0.883771 -0.048426 3.458000 55 51 47
0.883771 -0.042373 3.458000 55 50 47
0.883771 -0.036319 3.458000 55 49 47
0.883771 -0.030266 3.458000 57 47 47
0.883771 -0.024213 3.458000 60 46 48
0.874826 -0.017976 3.423000 58 46 50
0.874826 -0.011984 3.423000 56 46 49
0.874826 -0.005992 3.423000 57 46 49
0.874826 -0.000000 3.423000 58 46 49
0.874826 0.005992 3.423000 56 47 50
0.874826 0.011984 3.423000 54 48 50
0.874826 0.017976 3.423000 54 49 51
0.883771 0.024213 3.458000 55 50 52
0.883771 0.030266 3.458000 54 47 53
0.874826 0.035952 3.423000 53 47 50
0.874826 0.041944 3.423000 53 48 47
0.874826 0.047936 3.423000 54 49 42
0.874826 0.053928 3.423000 54 47 37
0.874826 0.059920 3.423000 54 46 41
0.874826 0.065912 3.423000 55 47 46
0.874826 0.071904 3.423000 56 46 48
0.874826 0.077896 3.423000 56 46 50
0.874826 0.083888 3.423000 56 46 50
0.874826 0.089879 3.423000 55 46 50
0.874826 0.095871 3.423000 54 47 50
0.874826 0.101864 3.423000 55 47 50
0.874826 0.107855 3.423000 57 46 50
0.874826 0.113847 3.423000 55 47 50
0.874826 0.119839 3.423000 54 49 50
0.874826 0.125831 3.423000 54 47 50
0.874826 0.131823 3.423000 54 47 50
0.874826 0.137815 3.423000 54 48 50
0.874826 0.143807 3.423000 53 50 50
0.866393 0.148355 3.390000 53 49 50
0.866393 0.154289 3.390000 53 49 47
0.866393 0.160223 3.390000 55 46 45
0.866393 0.166157 3.390000 57 46 44
0.866393 0.172092 3.390000 56 45 44
0.866393 0.178026 3.390000 56 45 46
0.866393 0.183960 3.390000 54 45 49
0.866393 0.189894 3.390000 53 49 47
0.866393 0.195829 3.390000 52 48 45
0.866393 0.201763 3.390000 51 49 42
0.866393 0.207697 3.390000 54 48 39
0.866393 0.213631 3.390000 58 45 41
0.866393 0.219565 3.390000 57 45 44
0.866393 0.225500 3.390000 56 46 46
0.866393 0.231434 3.390000 56 45 48
0.866393 0.237368 3.390000 57 44 47
0.866393 0.243302 3.390000 55 43 47
0.866393 0.249236 3.390000 53 43 47
0.866393 0.255170 3.390000 54 45 48
0.866393 0.261105 3.390000 56 45 48
0.866393 0.267039 3.390000 54 44 48
0.866393 0.272973 3.390000 53 44 47
0.857959 0.276192 3.357000 52 45 47
0.857959 0.282069 3.357000 52 47 48
0.857959 0.287945 3.357000 53 45 49
0.857959 0.293821 3.357000 54 44 51
0.866393 0.302644 3.390000 52 46 54
0.857959 0.305574 3.357000 51 47 48
0.866393 0.314512 3.390000 53 44 42
0.866393 0.320447 3.390000 56 45 42
0.866393 0.326381 3.390000 53 44 43
0.857959 0.329080 3.357000 50 46 38
0.857959 0.334957 3.357000 51 45 33
0.857959 0.340833 3.357000 53 45 40
0.857959 0.346709 3.357000 52 44 47
0.857959 0.352586 3.357000 52 45 47
0.857959 0.358462 3.357000 53 44 47
0.857959 0.364339 3.357000 54 44 44
0.857959 0.370215 3.357000 55 42 41
0.857959 0.376092 3.357000 56 41 41
0.857959 0.381968 3.357000 55 41 42
0.857959 0.387844 3.357000 54 43 41
0.857959 0.393721 3.357000 53 43 41
0.857959 0.399597 3.357000 53 43 41
0.857959 0.405474 3.357000 53 43 41
0.857959 0.411350 3.357000 53 42 40
0.857959 0.417226 3.357000 52 42 40
0.857959 0.423103 3.357000 51 43 40
0.857959 0.428979 3.357000 51 43 41
0.857959 0.434856 3.357000 51 43 42
0.857959 0.440732 3.357000 51 41 44
0.857959 0.446609 3.357000 51 41 44
0.857959 0.452485 3.357000 48 41 45
0.849525 0.453856 3.324000 45 43 45
0.849525 0.459674 3.324000 48 42 45
0.849525 0.465493 3.324000 51 41 43
0.849525 0.471312 3.324000 52 42 41
0.841602 0.472681 3.293000 53 42 40
0.841602 0.478445 3.293000 52 42 40
0.841602 0.484209 3.293000 51 42 42
0.841602 0.489974 3.293000 50 41 45
0.841602 0.495738 3.293000 50 41 47
0.841602 0.501503 3.293000 50 41 50
0.841602 0.507267 3.293000 50 41 44
0.849525 0.517861 3.324000 49 43 39
0.849525 0.523680 3.324000 49 45 39
0.849525 0.529498 3.324000 50 42 40
0.849525 0.535317 3.324000 51 41 36
0.849525 0.541136 3.324000 50 42 32
0.849525 0.546954 3.324000 49 41 38
0.849525 0.552773 3.324000 48 41 44
0.849525 0.558592 3.324000 47 42 44
0.849525 0.564410 3.324000 48 42 44
0.849525 0.570229 3.324000 49 42 44
0.841602 0.570675 3.293000 50 40 44
0.849525 0.581866 3.324000 51 39 43
0.841602 0.582204 3.293000 50 38 43
0.841602 0.587969 3.293000 49 36 43
0.841602 0.593733 3.293000 49 38 43
0.841602 0.599497 3.293000 50 40 40
0.841602 0.605262 3.293000 50 40 38
0.849525 0.616778 3.324000 50 40 35
0.849525 0.622597 3.324000 49 38 33
0.849525 0.628416 3.324000 49 39 35
0.849525 0.634234 3.324000 49 38 38
0.849525 0.640053 3.324000 49 40 40
0.849525 0.645872 3.324000 49 38 42
0.849525 0.651690 3.324000 50 37 42
0.841602 0.651377 3.293000 49 36 42
0.841602 0.657141 3.293000 49 34 40
0.833679 0.656665 3.262000 49 36 39
0.833679 0.662375 3.262000 50 39 43
0.833679 0.668085 3.262000 47 38 48
0.833679 0.673796 3.262000 45 40 45
0.833679 0.679506 3.262000 46 39 42
0.833679 0.685216 3.262000 47 39 42
0.833679 0.690926 3.262000 46 40 42
0.833679 0.696636 3.262000 45 41 35
0.833679 0.702346 3.262000 45 40 28
0.833679 0.708056 3.262000 45 40 31
0.833679 0.713767 3.262000 45 39 35
0.833679 0.719477 3.262000 46 37 38
0.833679 0.725187 3.262000 47 36 41
0.833679 0.730897 3.262000 47 37 37
0.833679 0.736607 3.262000 47 36 34
0.833679 0.742317 3.262000 47 36 36
0.833679 0.748027 3.262000 47 35 39
0.833679 0.753737 3.262000 48 35 33
0.833679 0.759448 3.262000 47 36 28
0.833679 0.765158 3.262000 47 36 30
0.833679 0.770868 3.262000 47 35 33
0.833679 0.776578 3.262000 46 35 36
0.833679 0.782288 3.262000 45 37 40
0.833679 0.787998 3.262000 45 39 40
0.833679 0.793708 3.262000 46 35 41
0.833679 0.799419 3.262000 48 34 40
0.825756 0.797477 3.231000 45 36 39
0.825756 0.803133 3.231000 43 37 39
0.825756 0.808789 3.231000 44 36 40
0.825756 0.814445 3.231000 45 34 40
0.833679 0.827969 3.262000 43 35 40
0.833679 0.833679 3.262000 42 34 30
0.833679 0.839389 3.262000 43 33 21
0.833679 0.845100 3.262000 45 31 26
0.833679 0.850810 3.262000 43 33 32
0.833679 0.856520 3.262000 42 31 35
0.833679 0.862230 3.262000 44 33 38
0.833679 0.867940 3.262000 46 32 35
0.833679 0.873650 3.262000 44 35 32
0.833679 0.879360 3.262000 42 38 38
0.833679 0.885070 3.262000 42 35 44
0.833679 0.890781 3.262000 42 35 41
0.833679 0.896491 3.262000 41 35 38
0.833679 0.902201 3.262000 41 34 35
0.833679 0.907911 3.262000 40 32 33
0.833679 0.913621 3.262000 39 33 27
0.833679 0.919331 3.262000 39 34 21
0.833679 0.925041 3.262000 40 34 24
0.825756 0.921906 3.231000 40 32 27
0.825756 0.927562 3.231000 40 31 30
0.825756 0.933218 3.231000 39 29 34
0.825756 0.938874 3.231000 39 32 30
0.825756 0.944530 3.231000 28 23 26
0.825756 0.950186 3.231000 17 13 18
0.825756 0.955841 3.231000 10 6 10
0.825756 0.961497 3.231000 3 3 5
0.825756 0.967153 3.231000 2 2 1
0.825756 0.972809 3.231000 2 2 1
0.825756 0.978465 3.231000 2 2 2
0.825756 0.984121 3.231000 2 2 1
0.825756 0.989777 3.231000 2 2 1
0.825756 0.995433 3.231000 2 2 1
0.825756 1.001088 3.231000 2 2 2
0.833679 1.016404 3.262000 2 2 3
0.825756 1.012400 3.231000 2 2 5
0.833679 1.027824 3.262000 3 2 3
0.833679 1.033534 3.262000 2 2 2
0.833679 1.039244 3.262000 2 2 2
0.825756 1.035024 3.231000 2 1 2
0.825756 1.040680 3.231000 2 2 2
0.825756 1.046335 3.231000 2 1 2
0.825756 1.051991 3.231000 2 1 1
0.825756 1.057647 3.231000 2 1 1
0.742440 1.001785 2.905000 18 11 14
0.736306 0.998552 2.881000 19 13 16
0.736306 1.003595 2.881000 20 14 18
0.730172 1.000236 2.857000 22 14 21
0.724294 0.997145 2.834000 23 15 25
0.718160 0.993619 2.810000 25 17 23
0.712538 0.990720 2.788000 26 19 22
0.706659 0.987387 2.765000 27 20 22
0.701037 0.984333 2.743000 28 21 23
0.701037 0.989134 2.743000 29 22 27
0.695670 0.986326 2.722000 30 23 32
0.684936 0.975799 2.680000 32 23 30
0.679569 0.972807 2.659000 32 25 29
0.659378 0.948421 2.580000 33 26 34
0.654267 0.945550 2.560000 32 24 40
0.654267 0.950032 2.560000 31 23 35
0.644811 0.940717 2.523000 31 26 31
0.640210 0.938391 2.505000 32 29 34
0.635610 0.936001 2.487000 33 27 38
0.631010 0.933549 2.469000 34 26 40
0.613375 0.911661 2.400000 36 26 43
0.609286 0.909756 2.384000 39 28 39
0.604941 0.907412 2.367000 36 25 35
0.604941 0.911555 2.367000 34 25 34
0.600852 0.909509 2.351000 34 25 34
0.596763 0.907407 2.335000 35 25 35
0.967279 -1.460789 3.759000 59 42 44
0.967279 -1.454209 3.759000 57 43 40
0.956729 -1.431839 3.718000 55 44 45
0.956729 -1.425331 3.718000 55 45 51
0.956729 -1.418822 3.718000 56 42 46
0.946693 -1.397500 3.679000 57 41 42
0.946693 -1.391059 3.679000 58 41 44
0.946693 -1.384619 3.679000 58 43 46
0.946693 -1.378179 3.679000 59 44 44
0.956729 -1.386281 3.718000 59 45 43
0.946693 -1.365299 3.679000 60 45 44
0.946693 -1.358859 3.679000 57 44 45
0.956729 -1.366756 3.718000 55 44 45
0.956729 -1.360247 3.718000 57 44 45
0.956729 -1.353739 3.718000 60 44 46
0.956729 -1.347230 3.718000 59 45 47
0.956729 -1.340722 3.718000 59 45 47
0.956729 -1.334214 3.718000 58 44 48
0.956729 -1.327705 3.718000 57 44 49
0.956729 -1.321197 3.718000 58 43 49
0.946693 -1.300898 3.679000 60 44 47
0.956729 -1.308180 3.718000 58 45 46
0.946693 -1.288018 3.679000 57 45 47
0.956729 -1.295164 3.718000 59 45 48
0.946693 -1.275138 3.679000 61 46 47
0.946693 -1.268698 3.679000 61 49 46
0.956729 -1.275638 3.718000 61 46 48
0.956729 -1.269130 3.718000 61 45 50
0.956729 -1.262622 3.718000 61 46 49
0.967279 -1.269965 3.759000 59 47 49
0.967279 -1.263385 3.759000 58 47 49
0.956729 -1.243097 3.718000 59 46 50
0.956729 -1.236588 3.718000 60 47 53
0.956729 -1.230080 3.718000 61 47 55
0.956729 -1.223572 3.718000 62 47 52
0.946693 -1.204297 3.679000 60 49 48
0.946693 -1.197857 3.679000 58 47 51
0.946693 -1.191417 3.679000 59 49 53
0.946693 -1.184977 3.679000 60 49 54
0.946693 -1.178537 3.679000 59 48 56
0.946693 -1.172096 3.679000 59 49 52
0.946693 -1.165656 3.679000 59 50 48
0.946693 -1.159216 3.679000 59 48 51
0.946693 -1.152776 3.679000 59 47 55
0.946693 -1.146336 3.679000 60 48 53
0.946693 -1.139896 3.679000 60 50 51
0.946693 -1.133456 3.679000 61 50 50
0.946693 -1.127016 3.679000 61 51 49
0.946693 -1.120576 3.679000 62 50 50
0.946693 -1.114136 3.679000 61 50 52
0.946693 -1.107695 3.679000 61 49 52
0.946693 -1.101255 3.679000 63 50 52
0.946693 -1.094815 3.679000 65 50 53
0.946693 -1.088375 3.679000 63 51 55
0.946693 -1.081935 3.679000 62 50 53
0.946693 -1.075495 3.679000 63 50 52
0.946693 -1.069055 3.679000 65 50 53
0.946693 -1.062615 3.679000 64 51 55
0.946693 -1.056175 3.679000 63 52 55
0.936657 -1.038607 3.640000 62 53 55
0.936657 -1.032235 3.640000 62 52 54
0.936657 -1.025863 3.640000 64 52 53
0.936657 -1.019491 3.640000 67 51 53
0.936657 -1.013119 3.640000 65 54 53
0.936657 -1.006748 3.640000 64 52 51
0.936657 -1.000376 3.640000 64 50 50
0.936657 -0.994004 3.640000 65 50 53
0.936657 -0.987632 3.640000 66 50 56
0.936657 -0.981260 3.640000 68 51 57
0.936657 -0.974889 3.640000 68 51 58
0.936657 -0.968517 3.640000 68 51 57
0.936657 -0.962145 3.640000 67 49 57
0.936657 -0.955773 3.640000 67 49 57
0.936657 -0.949401 3.640000 67 52 58
0.936657 -0.943029 3.640000 68 52 59
0.936657 -0.936657 3.640000 68 53 60
0.926879 -0.920574 3.602000 68 52 55
0.936657 -0.923914 3.640000 66 53 50
0.936657 -0.917542 3.640000 65 53 52
0.936657 -0.911170 3.640000 65 54 55
0.936657 -0.904798 3.640000 65 54 57
0.936657 -0.898427 3.640000 65 55 59
0.936657 -0.892055 3.640000 66 54 60
0.936657 -0.885683 3.640000 67 53 61
0.926879 -0.870132 3.602000 69 53 61
0.926879 -0.863826 3.602000 68 54 61
0.926879 -0.857521 3.602000 68 54 60
0.926879 -0.851216 3.602000 68 55 59
0.926879 -0.844910 3.602000 68 55 58
0.926879 -0.838605 3.602000 68 55 57
0.926879 -0.832300 3.602000 68 53 56
0.926879 -0.825995 3.602000 67 53 56
0.926879 -0.819689 3.602000 66 54 56
0.926879 -0.813384 3.602000 66 55 57
0.926879 -0.807079 3.602000 67 56 55
0.926879 -0.800773 3.602000 67 58 53
0.926879 -0.794468 3.602000 68 57 54
0.926879 -0.788163 3.602000 69 58 56
0.917358 -0.773826 3.565000 70 56 54
0.917358 -0.767586 3.565000 70 55 52
0.917358 -0.761345 3.565000 71 55 53
0.917358 -0.755104 3.565000 68 56 53
0.917358 -0.748864 3.565000 66 56 55
0.907837 -0.734916 3.528000 68 58 56
0.907837 -0.728740 3.528000 70 56 54
0.907837 -0.722564 3.528000 69 56 53
0.907837 -0.716389 3.528000 69 57 56
0.907837 -0.710213 3.528000 68 59 59
0.907837 -0.704037 3.528000 68 57 57
0.917358 -0.705180 3.565000 70 55 55
0.926879 -0.706194 3.602000 72 55 62
0.926879 -0.699888 3.602000 72 56 69
0.926879 -0.693583 3.602000 73 56 61
0.926879 -0.687278 3.602000 71 58 54
0.926879 -0.680973 3.602000 69 58 60
0.926879 -0.674667 3.602000 69 59 66
0.917358 -0.661496 3.565000 69 57 65
0.917358 -0.655256 3.565000 68 57 63
0.917358 -0.649015 3.565000 67 56 62
0.917358 -0.642775 3.565000 65 58 62
0.917358 -0.636534 3.565000 64 57 64
0.917358 -0.630294 3.565000 66 56 66
0.917358 -0.624053 3.565000 68 55 63
0.917358 -0.617813 3.565000 68 56 60
0.917358 -0.611572 3.565000 68 54 59
0.917358 -0.605332 3.565000 67 53 59
0.917358 -0.599091 3.565000 67 54 59
0.917358 -0.592851 3.565000 68 54 60
0.907837 -0.580522 3.528000 70 54 59
0.907837 -0.574346 3.528000 70 55 59
0.907837 -0.568170 3.528000 71 54 59
0.898831 -0.556419 3.493000 70 55 59
0.898831 -0.550305 3.493000 70 56 58
0.898831 -0.544190 3.493000 70 55 57
0.907837 -0.543467 3.528000 71 54 58
0.907837 -0.537291 3.528000 69 56 60
0.907837 -0.531116 3.528000 68 56 55
0.907837 -0.524940 3.528000 67 56 51
0.907837 -0.518764 3.528000 67 55 57
0.907837 -0.512588 3.528000 67 54 64
0.907837 -0.506413 3.528000 67 54 58
0.907837 -0.500237 3.528000 66 56 52
0.907837 -0.494061 3.528000 66 56 55
0.907837 -0.487885 3.528000 64 57 58
0.907837 -0.481710 3.528000 62 55 62
0.907837 -0.475534 3.528000 62 56 66
0.907837 -0.469358 3.528000 62 55 62
0.898831 -0.458587 3.493000 63 56 58
0.898831 -0.452473 3.493000 65 54 58
0.907837 -0.450831 3.528000 65 53 58
0.898831 -0.440244 3.493000 66 53 59
0.907837 -0.438479 3.528000 66 54 60
0.907837 -0.432303 3.528000 66 52 63
0.907837 -0.426128 3.528000 65 53 65
0.907837 -0.419952 3.528000 65 53 61
0.907837 -0.413776 3.528000 64 54 57
0.907837 -0.407600 3.528000 64 54 54
0.907837 -0.401425 3.528000 65 54 52
0.907837 -0.395249 3.528000 67 53 50
0.907837 -0.389073 3.528000 64 54 48
0.907837 -0.382897 3.528000 62 55 52
0.907837 -0.376722 3.528000 62 55 56
0.907837 -0.370546 3.528000 62 53 56
0.898831 -0.360755 3.493000 62 53 56
0.898831 -0.354641 3.493000 62 52 53
0.898831 -0.348526 3.493000 63 54 51
0.898831 -0.342412 3.493000 64 53 55
0.898831 -0.336297 3.493000 63 52 58
0.898831 -0.330183 3.493000 62 51 56
0.898831 -0.324068 3.493000 62 50 54
0.898831 -0.317954 3.493000 62 51 53
0.898831 -0.311839 3.493000 62 51 53
0.898831 -0.305725 3.493000 62 51 53
0.898831 -0.299610 3.493000 60 51 53
0.898831 -0.293496 3.493000 58 52 54
0.898831 -0.287381 3.493000 58 53 55
0.898831 -0.281267 3.493000 59 53 51
0.898831 -0.275152 3.493000 60 56 48
0.898831 -0.269038 3.493000 62 52 55
0.898831 -0.262923 3.493000 62 50 62
0.898831 -0.256809 3.493000 62 49 58
0.898831 -0.250694 3.493000 61 50 54
0.898831 -0.244580 3.493000 61 50 52
0.898831 -0.238465 3.493000 59 50 50
0.898831 -0.232351 3.493000 58 50 51
0.898831 -0.226236 3.493000 59 51 52
0.898831 -0.220122 3.493000 61 50 49
0.898831 -0.214007 3.493000 60 51 46
0.898831 -0.207893 3.493000 60 49 48
0.889825 -0.199756 3.458000 58 48 51
0.889825 -0.193703 3.458000 56 50 53
0.889825 -0.187650 3.458000 58 50 56
0.889825 -0.181597 3.458000 60 50 53
0.889825 -0.175544 3.458000 58 52 50
0.889825 -0.169490 3.458000 57 52 50
0.889825 -0.163437 3.458000 56 51 51
0.889825 -0.157384 3.458000 56 51 51
0.889825 -0.151331 3.458000 58 53 51
0.889825 -0.145277 3.458000 61 50 52
0.898831 -0.140633 3.493000 60 49 54
0.889825 -0.133171 3.458000 60 49 55
0.889825 -0.127118 3.458000 61 47 56
0.889825 -0.121065 3.458000 63 47 55
0.889825 -0.115011 3.458000 59 47 55
0.889825 -0.108958 3.458000 55 49 57
0.889825 -0.102905 3.458000 55 49 59
0.889825 -0.096852 3.458000 55 49 55
0.889825 -0.090798 3.458000 55 50 51
0.889825 -0.084745 3.458000 55 50 55
0.889825 -0.078692 3.458000 55 50 59
0.889825 -0.072639 3.458000 55 49 55
0.889825 -0.066585 3.458000 59 50 52
0.889825 -0.060532 3.458000 63 49 49
0.889825 -0.054479 3.458000 59 50 47
0.889825 -0.048426 3.458000 56 50 48
0.889825 -0.042373 3.458000 55 51 50
0.889825 -0.036319 3.458000 55 49 49
0.889825 -0.030266 3.458000 56 47 49
0.889825 -0.024213 3.458000 57 46 49
0.889825 -0.018160 3.458000 56 46 50
0.889825 -0.012106 3.458000 56 45 49
0.880818 -0.005992 3.423000 57 45 49
0.880818 -0.000000 3.423000 58 46 49
0.880818 0.005992 3.423000 55 49 50
0.880818 0.011984 3.423000 53 49 49
0.889825 0.018160 3.458000 54 51 49
0.880818 0.023968 3.423000 55 49 50
0.880818 0.029960 3.423000 53 47 51
0.880818 0.035952 3.423000 52 46 49
0.880818 0.041944 3.423000 53 46 48
0.880818 0.047936 3.423000 54 47 44
0.880818 0.053928 3.423000 53 47 41
0.880818 0.059920 3.423000 52 47 44
0.880818 0.065912 3.423000 53 49 48
0.880818 0.071904 3.423000 54 47 47
0.880818 0.077896 3.423000 55 46 47
0.880818 0.083888 3.423000 56 46 48
0.880818 0.089879 3.423000 55 46 50
0.880818 0.095871 3.423000 55 47 51
0.872327 0.100881 3.390000 54 46 53
0.880818 0.107855 3.423000 54 46 51
0.880818 0.113847 3.423000 54 47 50
0.880818 0.119839 3.423000 54 46 49
0.880818 0.125831 3.423000 55 46 49
0.880818 0.131823 3.423000 56 46 48
0.872327 0.136487 3.390000 55 49 47
0.880818 0.143807 3.423000 54 49 47
0.872327 0.148355 3.390000 53 49 47
0.872327 0.154289 3.390000 53 47 47
0.872327 0.160223 3.390000 54 46 47
0.872327 0.166157 3.390000 56 45 46
0.872327 0.172092 3.390000 56 45 46
0.872327 0.178026 3.390000 56 44 48
0.872327 0.183960 3.390000 53 44 50
0.872327 0.189894 3.390000 51 46 49
0.872327 0.195829 3.390000 50 48 49
0.872327 0.201763 3.390000 49 48 46
0.872327 0.207697 3.390000 55 49 43
0.872327 0.213631 3.390000 61 46 42
0.872327 0.219565 3.390000 58 45 41
0.872327 0.225500 3.390000 56 45 42
0.872327 0.231434 3.390000 55 45 43
0.872327 0.237368 3.390000 55 44 45
0.872327 0.243302 3.390000 55 44 47
0.872327 0.249236 3.390000 55 44 47
0.863835 0.252686 3.357000 55 46 48
0.872327 0.261105 3.390000 56 45 48
0.872327 0.267039 3.390000 55 44 48
0.863835 0.270316 3.357000 55 44 47
0.863835 0.276192 3.357000 54 44 46
0.863835 0.282069 3.357000 54 44 47
0.863835 0.287945 3.357000 54 43 48
0.872327 0.296710 3.390000 55 44 49
0.872327 0.302644 3.390000 53 46 51
0.863835 0.305574 3.357000 51 45 47
0.872327 0.314512 3.390000 54 42 44
0.872327 0.320447 3.390000 58 43 44
0.863835 0.323204 3.357000 54 44 45
0.863835 0.329080 3.357000 50 45 42
0.863835 0.334957 3.357000 52 45 40
0.863835 0.340833 3.357000 55 44 46
0.863835 0.346709 3.357000 55 44 52
0.863835 0.352586 3.357000 55 44 49
0.863835 0.358462 3.357000 54 45 47
0.863835 0.364339 3.357000 54 43 47
0.863835 0.370215 3.357000 56 42 47
0.863835 0.376092 3.357000 58 41 46
0.863835 0.381968 3.357000 56 39 46
0.863835 0.387844 3.357000 54 41 44
0.863835 0.393721 3.357000 53 42 43
0.863835 0.399597 3.357000 53 42 43
0.863835 0.405474 3.357000 53 44 44
0.863835 0.411350 3.357000 54 43 42
0.863835 0.417226 3.357000 52 44 41
0.863835 0.423103 3.357000 50 43 41
0.863835 0.428979 3.357000 49 43 41
0.863835 0.434856 3.357000 49 43 43
0.863835 0.440732 3.357000 49 42 45
0.863835 0.446609 3.357000 49 41 44
0.863835 0.452485 3.357000 45 42 44
0.855343 0.453856 3.324000 42 42 44
0.855343 0.459674 3.324000 46 42 44
0.855343 0.465493 3.324000 51 41 42
0.847366 0.466916 3.293000 52 42 41
0.847366 0.472681 3.293000 53 42 40
0.847366 0.478445 3.293000 52 42 40
0.847366 0.484209 3.293000 52 41 41
0.847366 0.489974 3.293000 52 42 42
0.847366 0.495738 3.293000 53 41 44
0.847366 0.501503 3.293000 52 41 47
0.855343 0.512042 3.324000 52 41 44
0.855343 0.517861 3.324000 50 44 42
0.855343 0.523680 3.324000 49 43 42
0.855343 0.529498 3.324000 50 43 42
0.855343 0.535317 3.324000 52 41 39
0.855343 0.541136 3.324000 51 43 35
0.855343 0.546954 3.324000 51 41 39
0.855343 0.552773 3.324000 49 41 44
0.855343 0.558592 3.324000 47 41 44
0.855343 0.564410 3.324000 49 42 44
0.847366 0.564911 3.293000 51 40 45
0.847366 0.570675 3.293000 51 39 46
0.847366 0.576440 3.293000 51 39 46
0.847366 0.582204 3.293000 49 41 46
0.847366 0.587969 3.293000 47 39 43
0.847366 0.593733 3.293000 49 40 41
0.847366 0.599497 3.293000 51 39 39
0.847366 0.605262 3.293000 50 40 37
0.855343 0.616778 3.324000 50 39 36
0.855343 0.622597 3.324000 49 37 35
0.855343 0.628416 3.324000 49 37 37
0.855343 0.634234 3.324000 49 37 40
0.855343 0.640053 3.324000 49 38 41
0.855343 0.645872 3.324000 50 39 42
0.855343 0.651690 3.324000 51 38 42
0.847366 0.651377 3.293000 50 39 42
0.847366 0.657141 3.293000 49 37 42
0.847366 0.662906 3.293000 50 39 41
0.839389 0.662375 3.262000 51 38 43
0.839389 0.668085 3.262000 48 39 45
0.839389 0.673796 3.262000 46 39 43
0.839389 0.679506 3.262000 47 40 42
0.839389 0.685216 3.262000 49 40 43
0.839389 0.690926 3.262000 47 40 44
0.839389 0.696636 3.262000 45 40 38
0.839389 0.702346 3.262000 45 41 32
0.839389 0.708056 3.262000 45 40 33
0.839389 0.713767 3.262000 46 41 35
0.839389 0.719477 3.262000 48 38 36
0.839389 0.725187 3.262000 48 38 37
0.847366 0.737843 3.293000 48 37 35
0.839389 0.736607 3.262000 47 37 34
0.839389 0.742317 3.262000 47 36 36
0.839389 0.748027 3.262000 47 34 39
0.839389 0.753737 3.262000 48 35 35
0.839389 0.759448 3.262000 48 36 31
0.839389 0.765158 3.262000 48 36 33
0.839389 0.770868 3.262000 47 36 36
0.839389 0.776578 3.262000 47 35 38
0.839389 0.782288 3.262000 46 38 40
0.839389 0.787998 3.262000 45 37 40
0.839389 0.793708 3.262000 46 34 40
0.839389 0.799419 3.262000 47 35 38
0.839389 0.805129 3.262000 45 39 36
0.831412 0.803133 3.231000 44 38 37
0.831412 0.808789 3.231000 46 39 39
0.831412 0.814445 3.231000 48 37 39
0.839389 0.827969 3.262000 45 38 39
0.839389 0.833679 3.262000 43 36 33
0.839389 0.839389 3.262000 46 34 26
0.839389 0.845100 3.262000 49 33 31
0.839389 0.850810 3.262000 45 34 35
0.839389 0.856520 3.262000 42 34 36
0.839389 0.862230 3.262000 44 36 37
0.839389 0.867940 3.262000 46 34 34
0.839389 0.873650 3.262000 44 37 32
0.839389 0.879360 3.262000 42 35 36
0.839389 0.885070 3.262000 42 34 41
0.839389 0.890781 3.262000 43 35 36
0.839389 0.896491 3.262000 42 37 32
0.839389 0.902201 3.262000 42 34 33
0.839389 0.907911 3.262000 40 31 34
0.839389 0.913621 3.262000 39 32 30
0.839389 0.919331 3.262000 40 34 26
0.839389 0.925041 3.262000 41 34 28
0.839389 0.930752 3.262000 41 33 30
0.831412 0.927562 3.231000 42 29 30
0.831412 0.933218 3.231000 40 26 31
0.831412 0.938874 3.231000 38 29 30
0.831412 0.944530 3.231000 26 26 30
0.831412 0.950186 3.231000 14 14 20
0.831412 0.955841 3.231000 8 5 10
0.831412 0.961497 3.231000 3 3 6
0.831412 0.967153 3.231000 3 2 1
0.831412 0.972809 3.231000 3 2 2
0.831412 0.978465 3.231000 2 2 2
0.831412 0.984121 3.231000 2 2 1
0.831412 0.989777 3.231000 2 3 1
0.831412 0.995433 3.231000 2 2 1
0.831412 1.001088 3.231000 2 2 2
0.839389 1.016404 3.262000 2 2 2
0.839389 1.022114 3.262000 2 2 3
0.839389 1.027824 3.262000 2 2 2
0.839389 1.033534 3.262000 2 2 2
0.839389 1.039244 3.262000 2 1 2
0.839389 1.044954 3.262000 2 2 2
0.839389 1.050664 3.262000 2 2 2
0.839389 1.056374 3.262000 2 2 2
0.839389 1.062085 3.262000 2 1 1
0.831412 1.057647 3.231000 2 2 1
0.747525 1.001785 2.905000 18 11 14
0.741349 0.998552 2.881000 19 12 15
0.741349 1.003595 2.881000 20 14 17
0.729255 0.992184 2.834000 21 13 21
0.729255 0.997145 2.834000 23 14 25
0.723079 0.993619 2.810000 25 17 21
0.711499 0.982547 2.765000 25 19 17
0.705838 0.979531 2.743000 26 20 20
0.705838 0.984333 2.743000 28 21 23
0.705838 0.989134 2.743000 30 22 25
0.700435 0.986326 2.722000 31 24 28
0.695031 0.983445 2.701000 32 24 28
0.679077 0.965490 2.639000 32 26 28
0.663895 0.948421 2.580000 33 24 35
0.658748 0.945550 2.560000 31 23 42
0.658748 0.950032 2.560000 30 24 34
0.658748 0.954513 2.560000 30 26 26
0.644595 0.938391 2.505000 30 28 30
0.639964 0.936001 2.487000 32 29 34
0.626325 0.920315 2.434000 34 27 37
0.617576 0.911661 2.400000 38 26 39
0.613459 0.909756 2.384000 42 26 37
0.609085 0.907412 2.367000 37 22 35
0.609085 0.911555 2.367000 33 23 36
0.604968 0.909509 2.351000 33 24 38
0.600850 0.907407 2.335000 34 26 40
0.984481 -1.476722 3.800000 59 42 45
0.973859 -1.454209 3.759000 57 43 38
0.973859 -1.447628 3.759000 56 45 46
0.973859 -1.441048 3.759000 57 44 55
0.963237 -1.418822 3.718000 57 44 46
0.963237 -1.412314 3.718000 57 42 37
0.953133 -1.391059 3.679000 58 41 40
0.953133 -1.384619 3.679000 58 43 44
0.953133 -1.378179 3.679000 59 45 42
0.963237 -1.386281 3.718000 59 45 41
0.953133 -1.365299 3.679000 58 45 43
0.963237 -1.373264 3.718000 57 45 45
0.963237 -1.366756 3.718000 55 46 48
0.963237 -1.360247 3.718000 57 45 52
0.963237 -1.353739 3.718000 59 45 50
0.963237 -1.347230 3.718000 58 45 49
0.963237 -1.340722 3.718000 57 47 48
0.963237 -1.334214 3.718000 57 46 47
0.963237 -1.327705 3.718000 58 47 48
0.963237 -1.321197 3.718000 59 44 49
0.953133 -1.300898 3.679000 60 43 49
0.953133 -1.294458 3.679000 58 44 50
0.953133 -1.288018 3.679000 57 46 49
0.953133 -1.281578 3.679000 58 45 49
0.953133 -1.275138 3.679000 60 44 47
0.953133 -1.268698 3.679000 60 45 46
0.953133 -1.262258 3.679000 60 45 48
0.963237 -1.269130 3.718000 60 45 50
0.963237 -1.262622 3.718000 60 46 51
0.963237 -1.256113 3.718000 60 46 52
0.973859 -1.263385 3.759000 60 48 50
0.963237 -1.243097 3.718000 60 48 49
0.963237 -1.236588 3.718000 60 49 51
0.963237 -1.230080 3.718000 60 47 53
0.963237 -1.223572 3.718000 60 47 52
0.963237 -1.217063 3.718000 60 47 52
0.953133 -1.197857 3.679000 60 46 52
0.953133 -1.191417 3.679000 59 48 53
0.953133 -1.184977 3.679000 58 49 53
0.953133 -1.178537 3.679000 58 48 53
0.953133 -1.172096 3.679000 59 49 50
0.953133 -1.165656 3.679000 59 49 47
0.953133 -1.159216 3.679000 59 48 50
0.953133 -1.152776 3.679000 60 47 53
0.953133 -1.146336 3.679000 61 47 53
0.953133 -1.139896 3.679000 61 49 54
0.953133 -1.133456 3.679000 61 50 56
0.953133 -1.127016 3.679000 61 50 59
0.953133 -1.120576 3.679000 61 50 56
0.953133 -1.114136 3.679000 61 50 54
0.953133 -1.107695 3.679000 60 50 51
0.953133 -1.101255 3.679000 62 49 49
0.953133 -1.094815 3.679000 64 50 52
0.953133 -1.088375 3.679000 63 50 55
0.943029 -1.070466 3.640000 62 51 52
0.953133 -1.075495 3.679000 63 49 50
0.953133 -1.069055 3.679000 65 49 52
0.943029 -1.051350 3.640000 64 50 55
0.943029 -1.044978 3.640000 63 52 53
0.943029 -1.038607 3.640000 62 52 52
0.943029 -1.032235 3.640000 62 51 51
0.943029 -1.025863 3.640000 64 51 51
0.943029 -1.019491 3.640000 67 50 52
0.943029 -1.013119 3.640000 65 53 53
0.943029 -1.006748 3.640000 64 54 54
0.943029 -1.000376 3.640000 65 51 56
0.943029 -0.994004 3.640000 66 50 56
0.943029 -0.987632 3.640000 66 52 56
0.943029 -0.981260 3.640000 66 54 54
0.933185 -0.964711 3.602000 66 53 53
0.933185 -0.958406 3.602000 66 53 54
0.933185 -0.952101 3.602000 66 50 55
0.943029 -0.955773 3.640000 67 49 56
0.933185 -0.939490 3.602000 67 51 58
0.943029 -0.943029 3.640000 68 52 58
0.943029 -0.936657 3.640000 68 52 58
0.943029 -0.930286 3.640000 68 53 56
0.943029 -0.923914 3.640000 66 53 54
0.943029 -0.917542 3.640000 64 54 56
0.943029 -0.911170 3.640000 64 53 58
0.933185 -0.895353 3.602000 65 54 58
0.933185 -0.889047 3.602000 65 54 59
0.943029 -0.892055 3.640000 66 55 61
0.943029 -0.885683 3.640000 67 53 63
0.933185 -0.870132 3.602000 69 53 63
0.933185 -0.863826 3.602000 67 53 63
0.933185 -0.857521 3.602000 66 53 61
0.933185 -0.851216 3.602000 66 54 59
0.933185 -0.844910 3.602000 67 55 57
0.933185 -0.838605 3.602000 68 54 55
0.933185 -0.832300 3.602000 70 53 54
0.933185 -0.825995 3.602000 67 53 54
0.933185 -0.819689 3.602000 65 55 54
0.933185 -0.813384 3.602000 65 55 55
0.933185 -0.807079 3.602000 66 56 55
0.933185 -0.800773 3.602000 65 57 56
0.933185 -0.794468 3.602000 64 56 56
0.933185 -0.788163 3.602000 67 56 56
0.933185 -0.781857 3.602000 70 55 54
0.923599 -0.767586 3.565000 70 55 52
0.923599 -0.761345 3.565000 71 56 53
0.923599 -0.755104 3.565000 69 55 54
0.923599 -0.748864 3.565000 68 54 55
0.914013 -0.734916 3.528000 69 55 56
0.914013 -0.728740 3.528000 70 56 53
0.914013 -0.722564 3.528000 69 55 50
0.914013 -0.716389 3.528000 68 54 55
0.923599 -0.717661 3.565000 68 55 61
0.923599 -0.711421 3.565000 69 56 60
0.923599 -0.705180 3.565000 70 55 59
0.933185 -0.706194 3.602000 71 56 60
0.933185 -0.699888 3.602000 71 55 61
0.933185 -0.693583 3.602000 72 56 58
0.914013 -0.673158 3.528000 70 57 56
0.914013 -0.666983 3.528000 68 56 59
0.914013 -0.660807 3.528000 68 58 62
0.914013 -0.654631 3.528000 69 58 62
0.914013 -0.648455 3.528000 69 56 62
0.923599 -0.649015 3.565000 69 55 62
0.923599 -0.642775 3.565000 67 56 62
0.923599 -0.636534 3.565000 66 58 66
0.923599 -0.630294 3.565000 67 56 71
0.923599 -0.624053 3.565000 68 55 65
0.923599 -0.617813 3.565000 68 54 60
0.923599 -0.611572 3.565000 68 53 62
0.923599 -0.605332 3.565000 68 53 64
0.923599 -0.599091 3.565000 68 55 62
0.923599 -0.592851 3.565000 70 54 60
0.914013 -0.580522 3.528000 72 54 59
0.914013 -0.574346 3.528000 71 54 59
0.914013 -0.568170 3.528000 70 55 59
0.914013 -0.561995 3.528000 68 55 59
0.914013 -0.555819 3.528000 66 58 57
0.914013 -0.549643 3.528000 67 55 55
0.914013 -0.543467 3.528000 68 54 55
0.914013 -0.537291 3.528000 67 56 56
0.914013 -0.531116 3.528000 67 58 55
0.914013 -0.524940 3.528000 66 56 54
0.914013 -0.518764 3.528000 66 55 61
0.914013 -0.512588 3.528000 68 54 69
0.914013 -0.506413 3.528000 70 54 62
0.914013 -0.500237 3.528000 67 54 56
0.914013 -0.494061 3.528000 65 55 57
0.914013 -0.487885 3.528000 64 55 59
0.914013 -0.481710 3.528000 63 53 66
0.914013 -0.475534 3.528000 64 54 74
0.914013 -0.469358 3.528000 65 54 66
0.914013 -0.463182 3.528000 65 54 58
0.914013 -0.457006 3.528000 65 54 58
0.904946 -0.446358 3.493000 65 53 58
0.904946 -0.440244 3.493000 65 53 60
0.904946 -0.434129 3.493000 65 52 62
0.914013 -0.432303 3.528000 66 50 67
0.914013 -0.426128 3.528000 65 51 73
0.914013 -0.419952 3.528000 65 54 65
0.914013 -0.413776 3.528000 64 54 58
0.914013 -0.407600 3.528000 63 54 55
0.914013 -0.401425 3.528000 64 52 52
0.914013 -0.395249 3.528000 64 51 48
0.904946 -0.385213 3.493000 63 53 44
0.904946 -0.379099 3.493000 63 54 51
0.904946 -0.372984 3.493000 62 54 59
0.904946 -0.366870 3.493000 62 54 57
0.904946 -0.360755 3.493000 62 51 56
0.904946 -0.354641 3.493000 62 50 54
0.904946 -0.348526 3.493000 63 53 52
0.904946 -0.342412 3.493000 64 54 53
0.904946 -0.336297 3.493000 63 52 55
0.904946 -0.330183 3.493000 62 51 55
0.904946 -0.324068 3.493000 62 51 55
0.895878 -0.314768 3.458000 63 50 52
0.895878 -0.308715 3.458000 62 51 50
0.904946 -0.305725 3.493000 62 53 52
0.904946 -0.299610 3.493000 61 51 55
0.904946 -0.293496 3.493000 60 50 57
0.904946 -0.287381 3.493000 60 52 60
0.904946 -0.281267 3.493000 60 54 55
0.904946 -0.275152 3.493000 61 52 51
0.904946 -0.269038 3.493000 62 51 55
0.904946 -0.262923 3.493000 62 50 59
0.904946 -0.256809 3.493000 62 50 56
0.904946 -0.250694 3.493000 62 50 54
0.895878 -0.242129 3.458000 63 50 53
0.895878 -0.236076 3.458000 60 50 53
0.895878 -0.230023 3.458000 58 51 53
0.895878 -0.223969 3.458000 59 51 54
0.895878 -0.217916 3.458000 61 50 51
0.904946 -0.214007 3.493000 61 50 49
0.904946 -0.207893 3.493000 62 49 49
0.904946 -0.201778 3.493000 59 49 49
0.904946 -0.195664 3.493000 56 51 51
0.904946 -0.189549 3.493000 58 50 53
0.904946 -0.183435 3.493000 60 49 50
0.904946 -0.177320 3.493000 58 51 47
0.904946 -0.171206 3.493000 56 53 50
0.895878 -0.163437 3.458000 56 51 53
0.895878 -0.157384 3.458000 56 51 51
0.895878 -0.151331 3.458000 57 50 49
0.895878 -0.145277 3.458000 58 49 51
0.895878 -0.139224 3.458000 58 50 54
0.895878 -0.133171 3.458000 58 51 55
0.895878 -0.127118 3.458000 60 49 57
0.895878 -0.121065 3.458000 61 49 55
0.895878 -0.115011 3.458000 59 49 53
0.895878 -0.108958 3.458000 57 51 52
0.895878 -0.102905 3.458000 58 48 51
0.895878 -0.096852 3.458000 58 46 50
0.895878 -0.090798 3.458000 57 49 50
0.886810 -0.083887 3.423000 55 50 56
0.886810 -0.077895 3.423000 55 49 62
0.886810 -0.071903 3.423000 55 49 57
0.886810 -0.065912 3.423000 57 49 52
0.886810 -0.059920 3.423000 59 49 49
0.886810 -0.053928 3.423000 57 50 47
0.895878 -0.048426 3.458000 55 51 50
0.895878 -0.042373 3.458000 56 50 53
0.895878 -0.036319 3.458000 57 50 52
0.895878 -0.030266 3.458000 57 47 51
0.895878 -0.024213 3.458000 57 47 50
0.895878 -0.018160 3.458000 57 46 50
0.895878 -0.012106 3.458000 57 46 50
0.895878 -0.006053 3.458000 58 45 50
0.886810 -0.000000 3.423000 59 46 50
0.886810 0.005992 3.423000 56 47 50
0.886810 0.011984 3.423000 53 50 48
0.886810 0.017976 3.423000 54 50 47
0.886810 0.023968 3.423000 55 50 48
0.886810 0.029960 3.423000 54 48 49
0.878261 0.035605 3.390000 53 47 49
0.878261 0.041539 3.390000 54 46 50
0.878261 0.047474 3.390000 55 46 47
0.878261 0.053408 3.390000 54 46 45
0.878261 0.059342 3.390000 54 47 47
0.878261 0.065276 3.390000 55 47 50
0.878261 0.071210 3.390000 57 47 47
0.878261 0.077145 3.390000 55 46 45
0.878261 0.083079 3.390000 53 46 47
0.878261 0.089013 3.390000 54 47 50
0.878261 0.094947 3.390000 55 50 53
0.878261 0.100881 3.390000 55 47 56
