ply
format ascii 1.0
element vertex 1269
property float x
property float y
property float z
property uchar red
property uchar green
property uchar blue
end_header
0.356822 -0.592579 3.640000 170 144 200
0.356822 -0.586207 3.640000 167 157 191
0.356822 -0.579836 3.640000 161 124 183
0.356822 -0.573464 3.640000 155 137 169
0.356822 -0.567092 3.640000 146 100 155
0.356822 -0.560720 3.640000 137 116 149
0.356822 -0.554348 3.640000 134 74 144
0.356822 -0.547976 3.640000 132 96 144
0.356822 -0.541605 3.640000 121 54 144
0.356822 -0.535233 3.640000 111 84 140
0.356822 -0.528861 3.640000 100 44 137
0.360645 -0.528087 3.679000 89 62 128
0.360645 -0.521647 3.679000 93 50 120
0.360645 -0.515207 3.679000 97 91 112
0.356822 -0.503374 3.640000 101 67 105
0.360645 -0.502327 3.679000 106 97 105
0.360645 -0.495887 3.679000 107 88 106
0.360645 -0.489447 3.679000 107 105 96
0.356822 -0.477886 3.640000 105 91 86
0.356822 -0.471515 3.640000 103 90 85
0.353097 -0.460287 3.602000 102 83 85
0.349470 -0.449318 3.565000 101 83 80
0.349470 -0.443078 3.565000 99 80 75
0.345843 -0.432303 3.528000 97 79 69
0.345843 -0.426128 3.528000 94 77 63
0.353097 -0.428760 3.602000 91 76 65
0.345843 -0.370546 3.528000 80 63 64
0.345843 -0.364370 3.528000 79 61 72
0.345843 -0.358194 3.528000 78 59 64
0.349470 -0.355710 3.565000 77 56 56
0.349470 -0.349470 3.565000 76 56 55
0.349470 -0.343229 3.565000 75 58 54
0.349470 -0.336989 3.565000 74 59 56
0.353097 -0.334181 3.602000 75 58 59
0.353097 -0.327876 3.602000 75 58 54
0.353097 -0.321570 3.602000 74 58 49
0.349470 -0.312027 3.565000 74 58 53
0.345843 -0.302612 3.528000 73 57 58
0.345843 -0.296437 3.528000 72 57 55
0.345843 -0.290261 3.528000 74 56 52
0.342412 -0.281267 3.493000 75 56 51
0.345843 -0.277909 3.528000 74 58 50
0.342412 -0.269038 3.493000 73 59 51
0.345843 -0.265558 3.528000 74 58 53
0.345843 -0.259382 3.528000 75 57 51
0.349470 -0.255862 3.565000 76 58 50
0.349470 -0.249621 3.565000 77 60 51
0.349470 -0.243381 3.565000 76 62 53
0.349470 -0.237140 3.565000 76 64 53
0.349470 -0.230900 3.565000 76 64 54
0.349470 -0.224659 3.565000 77 65 55
0.349470 -0.218419 3.565000 79 65 56
0.349470 -0.212178 3.565000 81 65 55
0.345843 -0.203800 3.528000 81 66 54
0.345843 -0.197624 3.528000 81 67 56
0.345843 -0.191449 3.528000 81 68 59
0.345843 -0.185273 3.528000 82 69 58
0.345843 -0.179097 3.528000 83 71 57
0.345843 -0.172921 3.528000 85 73 59
0.345843 -0.166746 3.528000 86 75 62
0.345843 -0.160570 3.528000 86 75 65
0.345843 -0.154394 3.528000 88 76 69
0.345843 -0.148218 3.528000 90 78 71
0.345843 -0.142043 3.528000 91 79 74
0.342412 -0.134519 3.493000 93 81 76
0.342412 -0.128404 3.493000 94 83 78
0.342412 -0.122290 3.493000 95 85 78
0.342412 -0.116175 3.493000 98 86 79
0.342412 -0.110061 3.493000 101 87 81
0.342412 -0.103946 3.493000 103 89 84
0.342412 -0.097832 3.493000 106 91 86
0.342412 -0.091717 3.493000 108 94 89
0.342412 -0.085603 3.493000 110 96 92
0.342412 -0.079488 3.493000 114 99 95
0.342412 -0.073374 3.493000 118 101 97
0.345843 -0.067933 3.528000 120 104 100
0.345843 -0.061758 3.528000 123 107 102
0.342412 -0.055030 3.493000 126 110 105
0.342412 -0.048916 3.493000 130 114 108
0.342412 -0.042801 3.493000 134 118 111
0.342412 -0.036687 3.493000 139 122 115
0.338981 -0.030266 3.458000 143 125 120
0.338981 -0.024213 3.458000 147 127 122
0.338981 -0.018160 3.458000 151 131 125
0.335550 -0.011984 3.423000 155 135 128
0.335550 -0.005992 3.423000 159 140 131
0.338981 -0.000000 3.458000 163 144 134
0.338981 0.006053 3.458000 167 147 137
0.338981 0.012107 3.458000 172 147 142
0.338981 0.018160 3.458000 175 154 147
0.342412 0.024458 3.493000 178 157 151
0.342412 0.030573 3.493000 178 157 155
0.345843 0.037055 3.528000 178 155 156
0.345843 0.043230 3.528000 177 158 158
0.342412 0.048916 3.493000 176 156 150
0.345843 0.055582 3.528000 177 157 143
0.342412 0.061145 3.493000 178 159 148
0.342412 0.067259 3.493000 178 160 154
0.342412 0.073374 3.493000 178 161 153
0.342412 0.079488 3.493000 178 162 153
0.342412 0.085603 3.493000 178 161 154
0.342412 0.091717 3.493000 179 162 155
0.338981 0.096852 3.458000 179 163 156
0.338981 0.102905 3.458000 178 161 157
0.335550 0.107855 3.423000 176 160 153
0.335550 0.113847 3.423000 177 161 150
0.335550 0.119839 3.423000 178 163 152
0.342412 0.128405 3.493000 177 162 155
0.342412 0.134519 3.493000 177 161 156
0.342412 0.140634 3.493000 177 160 158
0.342412 0.146748 3.493000 176 160 156
0.342412 0.152863 3.493000 176 158 155
0.342412 0.158977 3.493000 175 157 152
0.342412 0.165092 3.493000 175 157 150
0.342412 0.171206 3.493000 175 156 150
0.342412 0.177321 3.493000 173 155 151
0.342412 0.183435 3.493000 171 156 149
0.342412 0.189550 3.493000 169 154 148
0.342412 0.195664 3.493000 167 153 147
0.342412 0.201778 3.493000 165 150 146
0.342412 0.207893 3.493000 164 148 142
0.342412 0.214007 3.493000 162 145 139
0.342412 0.220122 3.493000 160 144 137
0.342412 0.226236 3.493000 157 142 135
0.342412 0.232351 3.493000 154 137 134
0.342412 0.238465 3.493000 152 136 133
0.342412 0.244580 3.493000 150 134 130
0.338981 0.248182 3.458000 146 131 127
0.338981 0.254236 3.458000 143 129 124
0.338981 0.260289 3.458000 139 126 122
0.342412 0.269038 3.493000 136 125 120
0.338981 0.272395 3.458000 133 120 119
0.338981 0.278449 3.458000 130 117 114
0.338981 0.284502 3.458000 128 114 110
0.338981 0.290555 3.458000 126 113 108
0.338981 0.296608 3.458000 123 108 107
0.338981 0.302662 3.458000 121 106 104
0.335550 0.305590 3.423000 118 103 101
0.335550 0.311582 3.423000 115 100 98
0.335550 0.317574 3.423000 113 97 95
0.335550 0.323566 3.423000 111 96 92
0.332315 0.326381 3.390000 109 94 90
0.332315 0.332315 3.390000 107 94 88
0.335550 0.341542 3.423000 105 91 87
0.335550 0.347534 3.423000 103 89 85
0.332315 0.350118 3.390000 101 88 84
0.335550 0.359518 3.423000 99 87 84
0.335550 0.365510 3.423000 98 86 84
0.335550 0.371502 3.423000 96 85 82
0.335550 0.377494 3.423000 95 83 80
0.335550 0.383486 3.423000 95 82 79
0.335550 0.389478 3.423000 94 80 78
0.335550 0.395470 3.423000 93 79 75
0.335550 0.401461 3.423000 91 78 72
0.335550 0.407454 3.423000 90 79 68
0.335550 0.413445 3.423000 89 77 64
0.338981 0.423726 3.458000 88 75 65
0.338981 0.429779 3.458000 87 75 67
0.338981 0.435833 3.458000 87 75 63
0.338981 0.441886 3.458000 87 73 59
0.342412 0.452473 3.493000 87 72 60
0.338981 0.453992 3.458000 85 70 62
0.338981 0.460046 3.458000 83 68 60
0.335550 0.461381 3.423000 82 67 59
0.335550 0.467373 3.423000 82 67 57
0.335550 0.473365 3.423000 81 64 55
0.335550 0.479357 3.423000 80 62 54
0.335550 0.485349 3.423000 79 62 53
0.335550 0.491341 3.423000 78 64 53
0.332315 0.492538 3.390000 77 62 53
0.332315 0.498472 3.390000 77 60 59
0.329080 0.499497 3.357000 75 58 65
0.329080 0.505373 3.357000 72 59 57
0.329080 0.511249 3.357000 73 57 50
0.332315 0.522209 3.390000 74 56 45
0.332315 0.528144 3.390000 74 55 41
0.332315 0.534078 3.390000 75 55 39
0.332315 0.540012 3.390000 74 54 37
0.332315 0.545946 3.390000 73 54 40
0.332315 0.551880 3.390000 70 53 44
0.322806 0.541853 3.293000 68 54 43
0.330452 0.560589 3.371000 67 53 43
0.330452 0.566490 3.371000 67 53 42
0.330452 0.572391 3.371000 66 51 41
0.329080 0.575890 3.357000 66 52 40
0.329080 0.581766 3.357000 65 50 40
0.332315 0.593420 3.390000 64 50 38
0.332315 0.599354 3.390000 63 49 37
0.332315 0.605288 3.390000 63 49 33
0.329080 0.605272 3.357000 63 49 30
0.332315 0.617156 3.390000 63 49 36
0.329080 0.617025 3.357000 63 47 43
0.329080 0.622901 3.357000 64 47 42
0.329080 0.628778 3.357000 62 45 41
0.329080 0.634654 3.357000 60 45 40
0.332609 0.677097 3.393000 60 44 41
0.329080 0.675789 3.357000 59 44 38
0.332315 0.688367 3.390000 58 44 36
0.332315 0.694301 3.390000 57 42 35
0.332315 0.700235 3.390000 57 41 34
0.329080 0.699295 3.357000 57 41 34
0.332315 0.712104 3.390000 58 39 34
0.332315 0.718038 3.390000 56 40 34
0.332315 0.723972 3.390000 55 41 34
0.332315 0.729906 3.390000 55 41 34
0.332315 0.735840 3.390000 55 41 34
0.332315 0.741774 3.390000 55 40 34
0.332315 0.747709 3.390000 55 41 34
0.329080 0.746306 3.357000 55 40 34
0.329080 0.752183 3.357000 55 40 33
0.329080 0.758059 3.357000 56 40 32
0.329080 0.763936 3.357000 58 42 32
0.325845 0.762245 3.324000 57 41 32
0.329080 0.775689 3.357000 57 42 30
0.329080 0.781565 3.357000 56 42 28
0.329080 0.787442 3.357000 56 42 31
0.322806 0.778194 3.293000 56 42 35
0.329080 0.799194 3.357000 56 41 40
0.325845 0.797157 3.324000 56 40 45
0.325845 0.802975 3.324000 57 39 43
0.329080 0.816824 3.357000 56 39 41
0.329080 0.822700 3.357000 55 40 40
0.329080 0.828577 3.357000 54 41 40
0.329080 0.834453 3.357000 54 42 40
0.329080 0.840329 3.357000 54 42 41
0.329080 0.846206 3.357000 54 43 37
0.329080 0.852082 3.357000 54 42 33
0.332315 0.866393 3.390000 54 40 36
0.332315 0.872327 3.390000 53 41 39
0.332315 0.878261 3.390000 53 42 39
0.332315 0.884195 3.390000 54 40 40
0.332315 0.890130 3.390000 55 38 45
0.335550 0.904786 3.423000 56 39 50
0.332315 0.901998 3.390000 57 41 45
0.332315 0.907932 3.390000 56 40 40
0.329080 0.904970 3.357000 55 38 39
0.329080 0.910847 3.357000 56 39 39
0.329080 0.916723 3.357000 57 40 39
0.329080 0.922599 3.357000 55 39 39
0.329080 0.928476 3.357000 54 39 35
0.329080 0.934352 3.357000 53 38 31
0.329080 0.940229 3.357000 52 41 37
0.329080 0.946105 3.357000 51 40 44
0.329080 0.951982 3.357000 50 41 38
0.329080 0.957858 3.357000 46 36 33
0.329080 0.963734 3.357000 43 33 30
0.325845 0.960079 3.324000 39 29 27
0.325845 0.965898 3.324000 34 26 21
0.322806 0.962654 3.293000 30 22 16
0.235267 0.915862 2.400000 72 56 56
0.233699 0.913929 2.384000 70 54 54
0.232032 0.911555 2.367000 69 53 56
0.231248 0.912604 2.359000 68 54 59
0.365987 -1.284167 3.668000 71 50 40
0.365987 -1.277746 3.668000 70 51 45
0.363194 -1.102325 3.640000 114 75 78
0.359402 -1.084512 3.602000 122 85 82
0.359402 -1.078207 3.602000 124 55 87
0.367085 -1.094815 3.679000 127 80 86
0.370976 -1.099913 3.718000 141 42 85
0.370976 -1.093404 3.718000 155 76 94
0.370976 -1.086896 3.718000 167 46 103
0.367085 -1.069055 3.679000 179 80 126
0.367085 -1.062615 3.679000 193 22 149
0.367085 -1.056175 3.679000 208 93 162
0.367085 -1.049735 3.679000 221 59 174
0.370976 -1.054354 3.718000 234 118 191
0.360899 -0.930739 3.617000 254 254 252
0.367085 -0.940253 3.679000 254 254 253
0.367085 -0.933813 3.679000 254 254 254
0.367085 -0.927373 3.679000 254 254 254
0.367085 -0.920933 3.679000 254 254 254
0.363194 -0.904798 3.640000 254 254 254
0.363194 -0.898427 3.640000 254 254 254
0.352019 -0.864607 3.528000 254 254 250
0.352019 -0.858431 3.528000 254 254 247
0.352019 -0.852255 3.528000 254 243 247
0.352019 -0.846080 3.528000 254 254 247
0.363194 -0.866567 3.640000 254 250 247
0.367085 -0.869412 3.679000 254 254 248
0.367085 -0.862972 3.679000 254 252 249
0.363194 -0.847452 3.640000 254 254 250
0.367085 -0.850092 3.679000 254 251 250
0.363194 -0.834708 3.640000 254 254 251
0.363194 -0.828337 3.640000 254 251 251
0.359402 -0.813384 3.602000 254 254 251
0.359402 -0.807079 3.602000 254 251 252
0.363194 -0.809221 3.640000 254 254 253
0.363194 -0.802849 3.640000 254 254 253
0.363194 -0.790106 3.640000 254 253 254
0.363194 -0.783734 3.640000 254 254 254
0.363194 -0.777362 3.640000 254 253 254
0.359402 -0.750331 3.602000 254 254 254
0.359402 -0.744026 3.602000 254 254 254
0.359402 -0.737720 3.602000 254 254 254
0.359402 -0.731415 3.602000 254 254 254
0.359402 -0.725110 3.602000 254 254 254
0.359402 -0.718804 3.602000 254 254 254
0.359402 -0.712499 3.602000 254 254 254
0.352019 -0.691686 3.528000 254 254 254
0.352019 -0.685510 3.528000 254 254 254
0.352019 -0.679334 3.528000 254 254 254
0.352019 -0.673158 3.528000 254 254 254
0.352019 -0.666983 3.528000 254 254 254
0.352019 -0.660807 3.528000 254 254 254
0.352019 -0.654631 3.528000 254 254 254
0.352019 -0.648455 3.528000 254 254 254
0.352019 -0.642279 3.528000 254 253 254
0.359402 -0.649446 3.602000 254 254 254
0.359402 -0.643141 3.602000 254 251 250
0.359402 -0.636835 3.602000 254 254 247
0.367085 -0.644009 3.679000 254 247 245
0.363194 -0.592579 3.640000 254 250 227
0.352019 -0.568170 3.528000 254 215 222
0.352019 -0.561995 3.528000 246 201 218
0.352019 -0.555819 3.528000 238 184 211
0.348526 -0.544190 3.493000 227 146 204
0.352019 -0.543467 3.528000 216 149 198
0.359402 -0.548561 3.602000 201 83 191
0.363194 -0.547976 3.640000 187 115 184
0.363194 -0.541605 3.640000 175 36 177
0.363194 -0.535233 3.640000 164 90 173
0.363194 -0.528861 3.640000 153 29 170
0.359402 -0.517035 3.602000 142 78 160
0.355710 -0.505483 3.565000 141 26 150
0.355710 -0.499243 3.565000 141 92 138
0.355710 -0.493002 3.565000 142 79 127
0.355710 -0.486762 3.565000 144 108 122
0.355710 -0.480521 3.565000 135 109 117
0.355710 -0.474280 3.565000 126 105 101
0.352019 -0.463182 3.528000 117 102 85
0.352019 -0.457006 3.528000 108 90 84
0.352019 -0.450831 3.528000 103 84 84
0.352019 -0.444655 3.528000 99 81 79
0.352019 -0.438479 3.528000 96 78 75
0.352019 -0.432303 3.528000 94 76 69
0.348526 -0.421900 3.493000 91 75 64
0.348526 -0.415786 3.493000 89 72 65
0.348526 -0.372984 3.493000 79 60 57
0.348526 -0.366870 3.493000 79 60 60
0.348526 -0.360755 3.493000 78 60 64
0.348526 -0.354641 3.493000 78 58 59
0.352019 -0.352019 3.528000 77 55 54
0.352019 -0.345843 3.528000 76 57 51
0.352019 -0.339667 3.528000 74 59 47
0.352019 -0.333491 3.528000 72 58 50
0.352019 -0.327315 3.528000 73 59 53
0.355710 -0.324508 3.565000 74 58 52
0.355710 -0.318267 3.565000 73 58 51
0.352019 -0.308788 3.528000 72 57 53
0.352019 -0.302612 3.528000 72 58 55
0.348526 -0.293496 3.493000 73 57 53
0.348526 -0.287381 3.493000 74 56 52
0.348526 -0.281267 3.493000 75 57 53
0.348526 -0.275152 3.493000 74 58 54
0.348526 -0.269038 3.493000 73 59 54
0.348526 -0.262923 3.493000 73 60 53
0.348526 -0.256809 3.493000 74 58 51
0.345034 -0.248182 3.458000 75 58 50
0.345034 -0.242129 3.458000 77 60 48
0.348526 -0.238465 3.493000 76 64 47
0.348526 -0.232351 3.493000 76 64 51
0.348526 -0.226236 3.493000 76 64 55
0.348526 -0.220122 3.493000 77 64 55
0.352019 -0.216152 3.528000 79 67 55
0.352019 -0.209976 3.528000 81 65 55
0.352019 -0.203800 3.528000 81 65 55
0.352019 -0.197624 3.528000 81 66 56
0.352019 -0.191449 3.528000 82 68 58
0.352019 -0.185273 3.528000 83 69 58
0.352019 -0.179097 3.528000 84 72 58
0.352019 -0.172921 3.528000 85 72 59
0.348526 -0.165091 3.493000 85 75 61
0.348526 -0.158977 3.493000 86 76 64
0.348526 -0.152862 3.493000 88 78 67
0.348526 -0.146748 3.493000 90 78 70
0.348526 -0.140633 3.493000 91 80 74
0.345034 -0.133171 3.458000 93 81 76
0.348526 -0.128404 3.493000 94 82 78
0.345034 -0.121065 3.458000 95 84 79
0.345034 -0.115011 3.458000 98 87 80
0.345034 -0.108958 3.458000 101 87 82
0.345034 -0.102905 3.458000 103 89 84
0.345034 -0.096852 3.458000 105 91 86
0.345034 -0.090798 3.458000 107 94 88
0.345034 -0.084745 3.458000 110 96 90
0.341542 -0.077895 3.423000 114 99 93
0.345034 -0.072639 3.458000 118 101 95
0.348526 -0.067259 3.493000 121 106 97
0.345034 -0.060532 3.458000 124 107 100
0.345034 -0.054479 3.458000 127 111 103
0.341542 -0.047936 3.423000 130 114 105
0.341542 -0.041944 3.423000 134 120 107
0.341542 -0.035952 3.423000 139 122 112
0.341542 -0.029960 3.423000 143 126 117
0.341542 -0.023968 3.423000 147 128 120
0.341542 -0.017976 3.423000 150 132 122
0.341542 -0.011984 3.423000 154 136 126
0.338249 -0.005934 3.390000 158 142 129
0.341542 -0.000000 3.423000 163 145 133
0.341542 0.005992 3.423000 166 149 138
0.341542 0.011984 3.423000 169 150 140
0.345034 0.018160 3.458000 172 153 143
0.345034 0.024213 3.458000 175 156 146
0.348526 0.030573 3.493000 175 157 150
0.348526 0.036687 3.493000 176 156 151
0.348526 0.042802 3.493000 175 153 152
0.348526 0.048916 3.493000 174 155 149
0.348526 0.055031 3.493000 175 156 146
0.348526 0.061145 3.493000 177 158 150
0.345034 0.066586 3.458000 177 159 153
0.345034 0.072639 3.458000 178 160 152
0.345034 0.078692 3.458000 178 161 152
0.341542 0.083888 3.423000 178 161 154
0.341542 0.089879 3.423000 179 161 156
0.341542 0.095871 3.423000 180 162 157
0.338249 0.100881 3.390000 179 161 159
0.338249 0.106816 3.390000 179 162 155
0.338249 0.112750 3.390000 179 162 152
0.338249 0.118684 3.390000 179 163 156
0.338249 0.124618 3.390000 179 161 160
0.341542 0.131823 3.423000 179 161 158
0.341542 0.137815 3.423000 177 160 157
0.341542 0.143807 3.423000 176 161 155
0.341542 0.149799 3.423000 175 160 153
0.341542 0.155791 3.423000 175 159 152
0.341542 0.161783 3.423000 175 158 152
0.341542 0.167775 3.423000 176 157 153
0.341542 0.173767 3.423000 173 155 154
0.341542 0.179759 3.423000 171 155 151
0.341542 0.185751 3.423000 169 156 148
0.341542 0.191743 3.423000 167 151 146
0.341542 0.197735 3.423000 165 149 144
0.345034 0.205810 3.458000 163 146 141
0.345034 0.211863 3.458000 161 144 139
0.345034 0.217916 3.458000 159 143 137
0.345034 0.223970 3.458000 156 141 135
0.345034 0.230023 3.458000 153 137 133
0.345034 0.236076 3.458000 151 134 132
0.345034 0.242129 3.458000 149 132 129
0.341542 0.245670 3.423000 145 129 126
0.341542 0.251662 3.423000 142 128 124
0.341542 0.257654 3.423000 138 126 122
0.345034 0.266342 3.458000 135 123 120
0.338249 0.267039 3.390000 132 117 118
0.338249 0.272973 3.390000 129 115 112
0.338249 0.278907 3.390000 127 114 107
0.338249 0.284841 3.390000 126 111 106
0.338249 0.290776 3.390000 123 108 104
0.338249 0.296710 3.390000 121 106 103
0.338249 0.302644 3.390000 118 103 103
0.338249 0.308578 3.390000 115 100 99
0.338249 0.314512 3.390000 113 97 95
0.338249 0.320447 3.390000 111 96 92
0.334956 0.323204 3.357000 108 94 89
0.334956 0.329080 3.357000 106 92 88
0.338249 0.338249 3.390000 104 90 86
0.334956 0.340833 3.357000 103 89 84
0.334956 0.346709 3.357000 101 88 82
0.338249 0.356052 3.390000 99 87 83
0.338249 0.361986 3.390000 97 86 84
0.334956 0.364339 3.357000 96 84 81
0.334956 0.370215 3.357000 95 82 78
0.334956 0.376092 3.357000 95 81 78
0.334956 0.381968 3.357000 94 80 78
0.334956 0.387844 3.357000 93 79 74
0.334956 0.393721 3.357000 91 78 71
0.334956 0.399597 3.357000 90 78 66
0.338249 0.409460 3.390000 89 78 62
0.338249 0.415394 3.390000 88 76 64
0.338249 0.421328 3.390000 87 76 66
0.338249 0.427262 3.390000 87 74 63
0.334956 0.428979 3.357000 87 73 61
0.334956 0.434856 3.357000 88 71 61
0.334956 0.440732 3.357000 86 69 62
0.338249 0.450999 3.390000 84 68 60
0.338249 0.456933 3.390000 83 68 58
0.338249 0.462867 3.390000 82 66 56
0.338249 0.468802 3.390000 80 65 54
0.338249 0.474736 3.390000 79 63 55
0.338249 0.480670 3.390000 79 62 55
0.338249 0.486604 3.390000 79 62 54
0.334956 0.487744 3.357000 78 62 52
0.334956 0.493620 3.357000 77 59 56
0.334956 0.499497 3.357000 74 59 59
0.331664 0.500405 3.324000 72 57 54
0.331664 0.506224 3.324000 73 55 50
0.334956 0.517126 3.357000 74 55 47
0.334956 0.523002 3.357000 73 56 45
0.334956 0.528879 3.357000 73 54 43
0.334956 0.534755 3.357000 72 53 40
0.334956 0.540632 3.357000 72 53 42
0.334956 0.546508 3.357000 69 53 44
0.328571 0.541853 3.293000 67 53 43
0.328571 0.547618 3.293000 67 52 42
0.328571 0.553382 3.293000 67 52 40
0.328571 0.559147 3.293000 66 51 37
0.328571 0.564911 3.293000 65 51 38
0.334956 0.581766 3.357000 64 51 39
0.334956 0.587643 3.357000 64 50 38
0.334956 0.593519 3.357000 63 49 37
0.334956 0.599396 3.357000 63 49 35
0.334956 0.605272 3.357000 63 50 34
0.334956 0.611149 3.357000 63 48 38
0.334956 0.617025 3.357000 64 47 42
0.331664 0.616778 3.324000 66 46 43
0.331664 0.622597 3.324000 63 45 44
0.331664 0.628416 3.324000 60 45 42
0.328571 0.628319 3.293000 60 45 40
0.328571 0.634084 3.293000 60 45 36
0.328571 0.639848 3.293000 59 46 33
0.328571 0.645613 3.293000 59 45 37
0.328571 0.651377 3.293000 60 44 40
0.328571 0.657141 3.293000 62 43 37
0.328571 0.662906 3.293000 60 44 33
0.334956 0.681666 3.357000 58 43 32
0.334956 0.687542 3.357000 57 41 32
0.334956 0.693419 3.357000 56 41 33
0.334956 0.699295 3.357000 58 42 34
0.334956 0.705172 3.357000 60 39 33
0.334956 0.711048 3.357000 57 38 33
0.334956 0.716924 3.357000 55 39 31
0.338249 0.729906 3.390000 55 41 30
0.338249 0.735840 3.390000 55 41 32
0.338249 0.741774 3.390000 55 41 34
0.334956 0.740430 3.357000 55 41 33
0.331664 0.738970 3.324000 55 41 33
0.331664 0.744789 3.324000 55 39 32
0.331664 0.750607 3.324000 57 39 32
0.328571 0.749372 3.293000 60 39 32
0.328571 0.755136 3.293000 59 38 32
0.328571 0.760900 3.293000 59 40 30
0.328571 0.766665 3.293000 57 42 28
0.328571 0.772429 3.293000 56 41 31
0.328571 0.778194 3.293000 56 42 34
0.331664 0.791338 3.324000 56 41 38
0.328571 0.789723 3.293000 55 41 42
0.328571 0.795487 3.293000 55 39 39
0.328571 0.801251 3.293000 55 41 36
0.328571 0.807016 3.293000 56 40 34
0.328571 0.812780 3.293000 54 42 33
0.328571 0.818544 3.293000 52 41 38
0.328571 0.824309 3.293000 52 42 43
0.328571 0.830073 3.293000 53 41 35
0.328571 0.835838 3.293000 54 41 27
0.331664 0.849525 3.324000 55 40 31
0.334956 0.863835 3.357000 53 40 35
0.334956 0.869712 3.357000 51 40 37
0.334956 0.875588 3.357000 53 42 39
0.334956 0.881465 3.357000 55 39 41
0.338249 0.896064 3.390000 57 37 44
0.338249 0.901998 3.390000 59 38 40
0.334956 0.899094 3.357000 57 41 36
0.331664 0.896074 3.324000 55 40 35
0.331664 0.901893 3.324000 55 41 35
0.331664 0.907711 3.324000 55 39 36
0.334956 0.922599 3.357000 54 39 38
0.334956 0.928476 3.357000 54 38 34
0.331664 0.925168 3.324000 52 37 30
0.331664 0.930986 3.324000 51 38 33
0.331664 0.936805 3.324000 52 38 36
0.334956 0.951982 3.357000 54 37 34
0.334956 0.957858 3.357000 51 34 31
0.331664 0.954261 3.324000 48 35 29
0.328571 0.951126 3.293000 43 34 27
0.325477 0.947882 3.262000 39 29 23
0.325477 0.953592 3.262000 30 21 19
0.241165 0.918118 2.417000 70 56 61
0.239468 0.915862 2.400000 72 54 62
0.237872 0.913929 2.384000 69 55 63
0.236176 0.911555 2.367000 66 54 62
0.234579 0.909509 2.351000 66 55 61
0.365707 -1.261060 3.602000 72 53 36
0.365707 -1.254755 3.602000 72 52 45
0.369566 -1.115068 3.640000 120 97 82
0.369566 -1.108697 3.640000 124 111 86
0.365707 -1.090817 3.602000 130 111 91
0.365707 -1.084512 3.602000 137 139 93
0.365707 -1.078207 3.602000 144 120 96
0.369566 -1.083209 3.640000 152 152 94
0.361951 -1.054650 3.565000 167 134 92
0.369566 -1.070466 3.640000 182 188 118
0.365707 -1.052985 3.602000 197 165 145
0.369566 -1.057722 3.640000 212 229 160
0.365707 -1.040375 3.602000 221 181 175
0.365707 -1.034069 3.602000 231 254 201
0.365707 -1.027764 3.602000 237 205 228
0.373525 -1.043294 3.679000 244 254 241
0.360936 -0.914785 3.555000 254 254 254
0.358194 -0.901662 3.528000 254 254 254
0.358194 -0.895486 3.528000 254 254 254
0.358194 -0.889310 3.528000 254 254 254
0.354641 -0.874373 3.493000 254 254 254
0.358194 -0.876958 3.528000 254 254 254
0.354641 -0.862144 3.493000 254 254 254
0.354641 -0.856030 3.493000 254 254 254
0.354641 -0.849915 3.493000 254 254 254
0.354641 -0.843801 3.493000 254 254 254
0.358194 -0.846080 3.528000 254 254 254
0.358194 -0.839904 3.528000 254 254 254
0.358194 -0.833728 3.528000 254 254 254
0.361951 -0.836231 3.565000 254 254 254
0.365707 -0.838605 3.602000 254 254 254
0.365707 -0.832300 3.602000 254 254 254
0.365707 -0.825995 3.602000 254 254 254
0.365707 -0.819689 3.602000 254 254 254
0.361951 -0.805029 3.565000 254 254 254
0.361951 -0.798788 3.565000 254 254 254
0.361951 -0.792548 3.565000 254 254 254
0.363372 -0.789395 3.579000 254 254 254
0.358499 -0.729360 3.531000 254 254 254
0.356570 -0.719287 3.512000 254 254 254
0.354641 -0.709282 3.493000 254 254 254
0.354641 -0.703167 3.493000 254 254 254
0.351087 -0.690068 3.458000 254 254 254
0.354641 -0.690938 3.493000 254 254 254
0.354641 -0.684824 3.493000 254 254 254
0.354641 -0.678709 3.493000 254 254 254
0.354641 -0.672595 3.493000 254 254 254
0.354641 -0.666480 3.493000 254 254 254
0.358194 -0.666983 3.528000 254 254 254
0.358194 -0.660807 3.528000 254 254 254
0.358194 -0.654631 3.528000 254 254 254
0.358194 -0.648455 3.528000 254 254 254
0.358194 -0.642279 3.528000 254 254 254
0.354641 -0.629793 3.493000 254 254 254
0.354641 -0.623679 3.493000 254 254 254
0.354641 -0.617564 3.493000 254 254 254
0.354641 -0.611450 3.493000 254 254 254
0.354641 -0.568648 3.493000 254 253 254
0.354641 -0.562534 3.493000 254 254 254
0.358194 -0.561995 3.528000 250 240 254
0.358194 -0.555819 3.528000 246 254 254
0.351087 -0.538737 3.458000 240 227 254
0.354641 -0.538076 3.493000 235 254 246
0.354641 -0.531961 3.493000 226 206 239
0.358194 -0.531116 3.528000 217 245 224
0.358194 -0.524940 3.528000 203 174 210
0.358194 -0.518764 3.528000 190 213 206
0.361951 -0.517964 3.565000 180 156 203
0.361951 -0.511724 3.565000 171 197 191
0.361951 -0.505483 3.565000 165 141 180
0.361951 -0.499243 3.565000 159 174 164
0.358194 -0.487885 3.528000 154 138 149
0.358194 -0.481710 3.528000 148 147 138
0.358194 -0.475534 3.528000 137 123 128
0.358194 -0.469358 3.528000 125 104 106
0.354641 -0.458587 3.493000 114 97 85
0.354641 -0.452473 3.493000 103 85 84
0.354641 -0.446358 3.493000 99 82 83
0.354641 -0.440244 3.493000 96 80 79
0.354641 -0.434129 3.493000 93 77 75
0.354641 -0.428015 3.493000 91 74 70
0.351087 -0.417673 3.458000 89 73 65
0.351087 -0.411620 3.458000 86 72 65
0.347534 -0.401461 3.423000 85 69 65
0.344183 -0.391657 3.390000 84 68 59
0.344183 -0.385723 3.390000 82 67 54
0.344183 -0.379789 3.390000 80 68 54
0.351087 -0.369247 3.458000 77 59 59
0.351087 -0.363194 3.458000 78 58 57
0.354641 -0.360755 3.493000 77 59 56
0.354641 -0.354641 3.493000 76 60 54
0.354641 -0.348526 3.493000 74 57 53
0.354641 -0.342412 3.493000 72 58 47
0.354641 -0.336297 3.493000 72 58 41
0.354641 -0.330183 3.493000 72 58 44
0.354641 -0.324068 3.493000 72 58 47
0.358194 -0.321140 3.528000 73 60 50
0.358194 -0.314964 3.528000 72 57 53
0.354641 -0.305725 3.493000 71 56 53
0.354641 -0.299610 3.493000 71 57 53
0.354641 -0.293496 3.493000 72 58 52
0.354641 -0.287381 3.493000 72 57 52
0.354641 -0.281267 3.493000 73 58 55
0.354641 -0.275152 3.493000 73 58 59
0.351087 -0.266342 3.458000 73 59 56
0.351087 -0.260289 3.458000 73 59 54
0.351087 -0.254236 3.458000 74 60 52
0.347534 -0.245670 3.423000 74 59 50
0.347534 -0.239678 3.423000 75 58 46
0.347534 -0.233686 3.423000 75 61 42
0.347534 -0.227694 3.423000 76 64 49
0.347534 -0.221703 3.423000 77 62 57
0.347534 -0.215711 3.423000 77 62 56
0.351087 -0.211863 3.458000 79 64 55
0.351087 -0.205810 3.458000 81 65 55
0.354641 -0.201778 3.493000 81 65 56
0.354641 -0.195664 3.493000 82 65 57
0.354641 -0.189549 3.493000 82 67 58
0.354641 -0.183435 3.493000 83 69 59
0.354641 -0.177320 3.493000 83 70 60
0.354641 -0.171206 3.493000 84 71 60
0.354641 -0.165091 3.493000 85 74 60
0.354641 -0.158977 3.493000 86 77 62
0.351087 -0.151331 3.458000 87 77 65
0.351087 -0.145277 3.458000 89 78 69
0.351087 -0.139224 3.458000 90 80 74
0.347534 -0.131823 3.423000 92 82 76
0.351087 -0.127118 3.458000 94 82 78
0.347534 -0.119839 3.423000 95 83 79
0.347534 -0.113847 3.423000 98 85 81
0.347534 -0.107855 3.423000 100 86 82
0.347534 -0.101863 3.423000 102 88 84
0.347534 -0.095871 3.423000 104 91 86
0.347534 -0.089879 3.423000 106 93 88
0.347534 -0.083887 3.423000 109 96 89
0.347534 -0.077895 3.423000 113 98 91
0.347534 -0.071903 3.423000 117 101 93
0.347534 -0.065912 3.423000 120 104 95
0.347534 -0.059920 3.423000 123 106 98
0.347534 -0.053928 3.423000 126 109 102
0.344183 -0.047474 3.390000 129 113 102
0.344183 -0.041539 3.390000 133 118 103
0.344183 -0.035605 3.390000 137 123 109
0.344183 -0.029671 3.390000 141 126 115
0.344183 -0.023737 3.390000 145 129 117
0.344183 -0.017802 3.390000 149 133 120
0.344183 -0.011868 3.390000 153 138 124
0.344183 -0.005934 3.390000 157 142 128
0.344183 -0.000000 3.390000 161 147 133
0.344183 0.005934 3.390000 164 149 139
0.344183 0.011869 3.390000 167 153 139
0.344183 0.017803 3.390000 170 155 140
0.344183 0.023737 3.390000 174 159 142
0.351087 0.030266 3.458000 176 159 145
0.351087 0.036320 3.458000 178 160 146
0.351087 0.042373 3.458000 175 157 147
0.351087 0.048426 3.458000 172 157 148
0.351087 0.054479 3.458000 173 157 150
0.351087 0.060532 3.458000 174 158 151
0.347534 0.065912 3.423000 175 158 153
0.344183 0.071210 3.390000 177 160 152
0.344183 0.077145 3.390000 177 161 151
0.340833 0.082270 3.357000 178 164 154
0.344183 0.089013 3.390000 179 162 157
0.340833 0.094023 3.357000 180 164 159
0.340833 0.099899 3.357000 181 166 161
0.340833 0.105776 3.357000 182 168 158
0.340833 0.111652 3.357000 181 165 155
0.344183 0.118684 3.390000 180 166 160
0.344183 0.124618 3.390000 181 164 165
0.344183 0.130552 3.390000 182 164 160
0.344183 0.136487 3.390000 179 163 156
0.344183 0.142421 3.390000 176 164 154
0.344183 0.148355 3.390000 176 162 152
0.344183 0.154289 3.390000 175 161 153
0.344183 0.160223 3.390000 175 159 154
0.344183 0.166157 3.390000 174 159 156
0.344183 0.172092 3.390000 172 157 158
0.344183 0.178026 3.390000 169 156 153
0.344183 0.183960 3.390000 167 152 149
0.344183 0.189894 3.390000 165 149 145
0.344183 0.195829 3.390000 163 147 142
0.344183 0.201763 3.390000 162 146 141
0.344183 0.207697 3.390000 160 144 140
0.344183 0.213631 3.390000 158 144 138
0.344183 0.219565 3.390000 155 140 136
0.344183 0.225500 3.390000 153 138 133
0.347534 0.233687 3.423000 150 134 131
0.347534 0.239679 3.423000 147 134 128
0.344183 0.243302 3.390000 144 131 125
0.344183 0.249236 3.390000 141 128 124
0.340833 0.252686 3.357000 137 125 123
0.344183 0.261105 3.390000 134 124 120
0.340833 0.264439 3.357000 131 118 117
0.344183 0.272973 3.390000 129 115 111
0.340833 0.276192 3.357000 127 113 105
0.340833 0.282069 3.357000 125 112 103
0.340833 0.287945 3.357000 123 109 102
0.340833 0.293821 3.357000 121 108 103
0.340833 0.299698 3.357000 118 103 105
0.340833 0.305574 3.357000 115 101 100
0.340833 0.311451 3.357000 113 98 96
0.340833 0.317327 3.357000 111 97 92
0.340833 0.323204 3.357000 108 94 89
0.340833 0.329080 3.357000 106 93 87
0.340833 0.334957 3.357000 104 90 86
0.340833 0.340833 3.357000 102 89 83
0.340833 0.346709 3.357000 100 88 80
0.340833 0.352586 3.357000 99 88 82
0.340833 0.358462 3.357000 97 86 84
0.340833 0.364339 3.357000 96 84 80
0.340833 0.370215 3.357000 95 82 77
0.337482 0.372395 3.324000 94 81 77
0.337482 0.378213 3.324000 93 80 78
0.337482 0.384032 3.324000 93 80 74
0.337482 0.389850 3.324000 91 78 71
0.337482 0.395669 3.324000 90 78 65
0.340833 0.405474 3.357000 89 77 60
0.340833 0.411350 3.357000 88 77 62
0.340833 0.417226 3.357000 87 74 65
0.337482 0.418944 3.324000 87 72 64
0.337482 0.424763 3.324000 86 72 63
0.337482 0.430581 3.324000 86 72 62
0.337482 0.436400 3.324000 84 70 62
0.334335 0.438094 3.293000 83 70 60
0.334335 0.443859 3.293000 82 67 58
0.337482 0.453856 3.324000 81 65 56
0.337482 0.459674 3.324000 80 64 54
0.337482 0.465493 3.324000 79 63 56
0.337482 0.471312 3.324000 79 62 58
0.337482 0.477130 3.324000 80 62 55
0.337482 0.482949 3.324000 78 60 52
0.337482 0.488768 3.324000 77 58 53
0.334335 0.489974 3.293000 75 58 54
0.334335 0.495738 3.293000 72 58 52
0.334335 0.501503 3.293000 73 55 50
0.334335 0.507267 3.293000 73 54 50
0.334335 0.513031 3.293000 73 54 50
0.334335 0.518796 3.293000 73 54 47
0.334335 0.524560 3.293000 71 53 44
0.334335 0.530325 3.293000 70 53 44
0.331188 0.531042 3.262000 68 53 44
0.331188 0.536752 3.262000 67 54 43
0.331188 0.542463 3.262000 66 52 42
0.331188 0.548173 3.262000 66 52 38
0.331188 0.553883 3.262000 65 51 34
0.331188 0.559593 3.262000 65 51 36
0.334335 0.570675 3.293000 64 50 39
0.334335 0.576440 3.293000 64 50 38
0.334335 0.582204 3.293000 63 49 38
0.334335 0.587969 3.293000 63 49 38
0.334335 0.593733 3.293000 62 49 38
0.334335 0.599497 3.293000 62 49 39
0.334335 0.605262 3.293000 62 47 41
0.334335 0.611026 3.293000 63 46 44
0.334335 0.616791 3.293000 61 45 47
0.331188 0.616694 3.262000 60 45 43
0.331188 0.622404 3.262000 59 45 40
0.331188 0.628115 3.262000 59 44 36
0.331188 0.633825 3.262000 59 44 33
0.331188 0.639535 3.262000 59 45 35
0.331188 0.645245 3.262000 59 44 37
0.334335 0.657141 3.293000 60 43 33
0.334335 0.662906 3.293000 59 43 29
0.337482 0.674965 3.324000 58 44 29
0.337482 0.680784 3.324000 56 42 29
0.337482 0.686602 3.324000 55 41 31
0.337482 0.692421 3.324000 56 40 34
0.340833 0.705172 3.357000 57 39 33
0.340833 0.711048 3.357000 56 39 32
0.340833 0.716924 3.357000 55 39 29
0.340833 0.722801 3.357000 55 40 27
0.340833 0.728677 3.357000 55 41 30
0.340833 0.734554 3.357000 54 41 34
0.337482 0.733152 3.324000 53 44 33
0.334335 0.732078 3.293000 53 41 32
0.334335 0.737843 3.293000 54 39 32
0.334335 0.743607 3.293000 56 38 32
0.334335 0.749372 3.293000 57 38 32
0.334335 0.755136 3.293000 57 39 33
0.334335 0.760900 3.293000 57 39 30
0.331188 0.759448 3.262000 56 40 28
0.334335 0.772429 3.293000 55 41 31
0.331188 0.770868 3.262000 55 41 34
0.331188 0.776578 3.262000 55 41 37
0.331188 0.782288 3.262000 55 40 40
0.331188 0.787998 3.262000 55 38 35
0.331188 0.793708 3.262000 55 39 31
0.331188 0.799419 3.262000 55 40 28
0.331188 0.805129 3.262000 54 40 26
0.331188 0.810839 3.262000 53 40 35
0.331188 0.816549 3.262000 53 41 45
0.331188 0.822259 3.262000 53 41 33
0.331188 0.827969 3.262000 53 40 21
0.331188 0.833679 3.262000 53 41 26
0.334335 0.847366 3.293000 52 39 31
0.334335 0.853131 3.293000 51 37 35
0.337482 0.866981 3.324000 52 40 39
0.340833 0.881465 3.357000 53 41 38
0.340833 0.887341 3.357000 54 38 38
0.340833 0.893217 3.357000 56 36 35
0.340833 0.899094 3.357000 55 39 32
0.337482 0.896074 3.324000 54 40 31
0.337482 0.901893 3.324000 54 39 31
0.337482 0.907711 3.324000 53 39 34
0.337482 0.913530 3.324000 53 38 38
0.337482 0.919349 3.324000 53 37 33
0.337482 0.925168 3.324000 52 36 29
0.337482 0.930986 3.324000 52 37 29
0.337482 0.936805 3.324000 52 37 29
0.337482 0.942623 3.324000 53 36 29
0.340833 0.957858 3.357000 51 36 30
0.337482 0.954261 3.324000 50 39 29
0.328040 0.933218 3.231000 45 37 28
0.328040 0.938874 3.231000 41 36 25
0.331188 0.953592 3.262000 33 27 22
0.247122 0.920315 2.434000 66 56 59
0.245396 0.918118 2.417000 68 53 63
0.242045 0.909756 2.384000 70 51 67
0.240319 0.907412 2.367000 68 52 72
0.240319 0.911555 2.367000 65 53 67
0.238695 0.909509 2.351000 65 53 63
0.375937 -1.287108 3.640000 72 50 37
0.372013 -1.267366 3.602000 73 49 34
0.375937 -1.274364 3.640000 74 52 39
0.368191 -1.241866 3.565000 75 54 44
0.368191 -1.235625 3.565000 76 54 47
0.368191 -1.229385 3.565000 77 56 50
0.364370 -1.210450 3.528000 78 56 48
0.364370 -1.204274 3.528000 78 58 45
0.364370 -1.179571 3.528000 84 59 55
0.368191 -1.160739 3.565000 92 70 60
0.368191 -1.104574 3.565000 130 96 75
0.368191 -1.098334 3.565000 134 97 77
0.372013 -1.103428 3.602000 138 102 79
0.368191 -1.085853 3.565000 143 107 82
0.368191 -1.079612 3.565000 147 119 84
0.364370 -1.062231 3.528000 152 125 90
0.368191 -1.067131 3.565000 164 134 96
0.368191 -1.060891 3.565000 177 140 93
0.364370 -1.043704 3.528000 193 156 91
0.368191 -1.048409 3.565000 209 173 115
0.368191 -1.042169 3.565000 227 197 139
0.368191 -1.035928 3.565000 246 212 158
0.372013 -1.040375 3.602000 250 222 178
0.372013 -1.034069 3.602000 254 239 204
0.372013 -1.027764 3.602000 254 254 230
0.375937 -1.032235 3.640000 254 254 242
0.360755 -0.898831 3.493000 254 254 254
0.357140 -0.883771 3.458000 254 254 254
0.360755 -0.886602 3.493000 254 254 254
0.360755 -0.880488 3.493000 254 254 254
0.360755 -0.874373 3.493000 254 254 254
0.360755 -0.868259 3.493000 254 254 254
0.360755 -0.862144 3.493000 254 254 254
0.360755 -0.856030 3.493000 254 254 254
0.360755 -0.849915 3.493000 254 254 254
0.360755 -0.843801 3.493000 254 254 254
0.360755 -0.837686 3.493000 254 254 254
0.364370 -0.839904 3.528000 254 254 254
0.364370 -0.833728 3.528000 254 254 254
0.364370 -0.827552 3.528000 254 254 254
0.364370 -0.821377 3.528000 254 254 254
0.368191 -0.823750 3.565000 254 254 254
0.364370 -0.809025 3.528000 254 254 254
0.364370 -0.802849 3.528000 254 254 254
0.364370 -0.796674 3.528000 254 254 254
0.360755 -0.782656 3.493000 254 254 254
0.360755 -0.776541 3.493000 254 254 254
0.363337 -0.775941 3.518000 254 254 254
0.357347 -0.714694 3.460000 254 254 254
0.353526 -0.701059 3.423000 254 254 254
0.353526 -0.695068 3.423000 254 254 254
0.353526 -0.689076 3.423000 254 254 254
0.353526 -0.683084 3.423000 254 254 254
0.353526 -0.677092 3.423000 254 254 254
0.357140 -0.677962 3.458000 254 254 254
0.357140 -0.671908 3.458000 254 254 254
0.357140 -0.665855 3.458000 254 254 254
0.357140 -0.659802 3.458000 254 254 254
0.360755 -0.660366 3.493000 254 254 254
0.360755 -0.654251 3.493000 254 254 254
0.360755 -0.648137 3.493000 254 254 254
0.360755 -0.642022 3.493000 254 254 254
0.360755 -0.635908 3.493000 254 254 254
0.360755 -0.629793 3.493000 254 254 254
0.360755 -0.623679 3.493000 254 254 254
0.360755 -0.617564 3.493000 254 254 254
0.360755 -0.611450 3.493000 254 254 254
0.355385 -0.560183 3.441000 254 254 254
0.355385 -0.554159 3.441000 254 254 254
0.350118 -0.540012 3.390000 254 254 254
0.350118 -0.534077 3.390000 254 254 254
0.353526 -0.533284 3.423000 254 254 254
0.353526 -0.527293 3.423000 254 251 250
0.350118 -0.516275 3.390000 251 245 246
0.357140 -0.520578 3.458000 248 234 232
0.364370 -0.524940 3.528000 232 204 219
0.364370 -0.518764 3.528000 216 203 207
0.368191 -0.517964 3.565000 208 187 195
0.360755 -0.501389 3.493000 201 185 187
0.364370 -0.500237 3.528000 189 168 178
0.364370 -0.494061 3.528000 178 162 160
0.360755 -0.483045 3.493000 165 155 143
0.357140 -0.472152 3.458000 153 140 133
0.357140 -0.466099 3.458000 139 133 123
0.357140 -0.460045 3.458000 125 109 102
0.360755 -0.458587 3.493000 111 99 81
0.357140 -0.447939 3.458000 98 87 82
0.357140 -0.441886 3.458000 95 80 83
0.357140 -0.435832 3.458000 93 78 78
0.357140 -0.429779 3.458000 91 76 73
0.357140 -0.423726 3.458000 89 73 69
0.353526 -0.413445 3.423000 86 71 66
0.353526 -0.407453 3.423000 84 70 65
0.353526 -0.401461 3.423000 83 68 65
0.350118 -0.391657 3.390000 83 65 60
0.350118 -0.385723 3.390000 80 64 56
0.350118 -0.379789 3.390000 78 63 56
0.350118 -0.373854 3.390000 77 60 57
0.350118 -0.367920 3.390000 76 60 56
0.353526 -0.365510 3.423000 76 59 56
0.353526 -0.359518 3.423000 77 58 57
0.353526 -0.353526 3.423000 75 58 58
0.353526 -0.347534 3.423000 74 58 55
0.353526 -0.341542 3.423000 71 57 53
0.353526 -0.335550 3.423000 69 57 51
0.357140 -0.332928 3.458000 70 57 49
0.357140 -0.326874 3.458000 72 57 48
0.353526 -0.317574 3.423000 72 58 47
0.357140 -0.314768 3.458000 72 58 48
0.357140 -0.308715 3.458000 71 55 50
0.353526 -0.299598 3.423000 70 55 51
0.357140 -0.296608 3.458000 70 56 53
0.357140 -0.290555 3.458000 71 56 52
0.353526 -0.281622 3.423000 71 57 51
0.353526 -0.275630 3.423000 72 57 52
0.357140 -0.272395 3.458000 72 59 54
0.353526 -0.263646 3.423000 73 58 54
0.353526 -0.257654 3.423000 73 58 54
0.353526 -0.251662 3.423000 74 59 54
0.350118 -0.243302 3.390000 73 61 54
0.350118 -0.237368 3.390000 73 59 51
0.350118 -0.231434 3.390000 75 61 48
0.350118 -0.225499 3.390000 77 61 52
0.350118 -0.219565 3.390000 77 61 56
0.350118 -0.213631 3.390000 78 62 55
0.353526 -0.209719 3.423000 79 65 55
0.353526 -0.203727 3.423000 81 64 55
0.357140 -0.199756 3.458000 82 65 56
0.357140 -0.193703 3.458000 83 65 57
0.360755 -0.189549 3.493000 83 67 58
0.360755 -0.183435 3.493000 84 69 60
0.357140 -0.175544 3.458000 83 71 61
0.357140 -0.169490 3.458000 83 72 61
0.357140 -0.163437 3.458000 85 74 62
0.357140 -0.157384 3.458000 87 75 64
0.357140 -0.151331 3.458000 87 77 66
0.353526 -0.143807 3.423000 88 78 70
0.353526 -0.137815 3.423000 90 81 74
0.350118 -0.130552 3.390000 92 81 74
0.353526 -0.125831 3.423000 94 84 73
0.353526 -0.119839 3.423000 96 84 77
0.350118 -0.112750 3.390000 98 86 80
0.350118 -0.106815 3.390000 100 86 82
0.350118 -0.100881 3.390000 101 89 84
0.350118 -0.094947 3.390000 103 91 85
0.350118 -0.089013 3.390000 106 94 86
0.350118 -0.083079 3.390000 109 95 88
0.350118 -0.077144 3.390000 113 99 89
0.350118 -0.071210 3.390000 117 100 92
0.350118 -0.065276 3.390000 120 103 95
0.350118 -0.059342 3.390000 123 105 98
0.350118 -0.053408 3.390000 125 109 102
0.346709 -0.047011 3.357000 128 112 102
0.346709 -0.041135 3.357000 132 117 103
0.346709 -0.035259 3.357000 136 119 108
0.346709 -0.029382 3.357000 140 126 114
0.346709 -0.023506 3.357000 144 127 117
0.346709 -0.017629 3.357000 148 134 120
0.346709 -0.011753 3.357000 153 135 124
0.346709 -0.005876 3.357000 156 142 128
0.346709 -0.000000 3.357000 159 143 134
0.346709 0.005877 3.357000 162 149 141
0.346709 0.011753 3.357000 166 148 141
0.346709 0.017629 3.357000 169 155 142
0.346709 0.023506 3.357000 173 154 144
0.350118 0.029671 3.390000 176 161 147
0.350118 0.035605 3.390000 180 155 148
0.350118 0.041539 3.390000 175 159 150
0.350118 0.047474 3.390000 171 155 150
0.350118 0.053408 3.390000 171 158 150
0.350118 0.059342 3.390000 172 155 151
0.346709 0.064641 3.357000 174 156 151
0.343301 0.069824 3.324000 176 157 151
0.343301 0.075643 3.324000 177 162 152
0.343301 0.081461 3.324000 179 161 154
0.343301 0.087280 3.324000 180 161 156
0.343301 0.093099 3.324000 181 164 157
0.343301 0.098917 3.324000 183 171 159
0.343301 0.104736 3.324000 185 166 157
0.343301 0.110555 3.324000 183 167 155
0.346709 0.117529 3.357000 181 166 157
0.346709 0.123405 3.357000 183 168 160
0.346709 0.129281 3.357000 185 165 158
0.346709 0.135158 3.357000 181 166 156
0.346709 0.141034 3.357000 177 162 154
0.346709 0.146911 3.357000 176 163 152
0.346709 0.152787 3.357000 176 159 152
0.346709 0.158664 3.357000 174 158 153
0.346709 0.164540 3.357000 173 157 153
0.346709 0.170417 3.357000 170 158 154
0.346709 0.176293 3.357000 168 153 150
0.346709 0.182169 3.357000 166 149 146
0.346709 0.188046 3.357000 164 147 143
0.346709 0.193922 3.357000 162 146 141
0.346709 0.199799 3.357000 161 145 140
0.350118 0.207697 3.390000 159 144 140
0.346709 0.211552 3.357000 158 142 137
0.346709 0.217428 3.357000 155 140 135
0.346709 0.223304 3.357000 153 135 132
0.346709 0.229181 3.357000 149 133 129
0.346709 0.235057 3.357000 146 132 126
0.343301 0.238565 3.324000 143 133 124
0.340099 0.242105 3.293000 140 128 123
0.340099 0.247869 3.293000 136 124 123
0.343301 0.256021 3.324000 133 122 120
0.343301 0.261840 3.324000 131 118 117
0.343301 0.267659 3.324000 130 115 111
0.343301 0.273477 3.324000 127 114 105
0.343301 0.279296 3.324000 125 111 103
0.343301 0.285115 3.324000 123 108 102
0.343301 0.290933 3.324000 121 106 102
0.343301 0.296752 3.324000 118 103 102
0.343301 0.302570 3.324000 116 100 98
0.343301 0.308389 3.324000 113 97 94
0.343301 0.314208 3.324000 111 95 91
0.343301 0.320027 3.324000 109 93 87
0.343301 0.325845 3.324000 107 92 86
0.343301 0.331664 3.324000 104 90 85
0.343301 0.337482 3.324000 101 88 83
0.343301 0.343301 3.324000 100 88 82
0.343301 0.349120 3.324000 99 87 82
0.343301 0.354938 3.324000 97 86 82
0.343301 0.360757 3.324000 96 84 79
0.343301 0.366576 3.324000 94 83 76
0.343301 0.372395 3.324000 93 81 76
0.343301 0.378213 3.324000 93 81 76
0.343301 0.384032 3.324000 93 80 73
0.340099 0.386215 3.293000 91 79 71
0.340099 0.391979 3.293000 90 78 65
0.340099 0.397743 3.293000 89 78 60
0.340099 0.403508 3.293000 88 76 61
0.340099 0.409272 3.293000 87 74 63
0.340099 0.415037 3.293000 87 73 62
0.340099 0.420801 3.293000 86 71 62
0.340099 0.426565 3.293000 85 70 62
0.340099 0.432330 3.293000 83 71 63
0.340099 0.438094 3.293000 82 69 61
0.340099 0.443859 3.293000 81 68 60
0.340099 0.449623 3.293000 81 65 57
0.340099 0.455387 3.293000 80 65 54
0.340099 0.461152 3.293000 79 63 55
0.340099 0.466916 3.293000 80 62 55
0.340099 0.472681 3.293000 81 61 53
0.336898 0.473941 3.262000 79 61 51
0.336898 0.479651 3.262000 78 58 51
0.336898 0.485361 3.262000 75 57 52
0.336898 0.491071 3.262000 73 57 52
0.336898 0.496782 3.262000 73 55 53
0.336898 0.502492 3.262000 73 53 51
0.336898 0.508202 3.262000 73 54 50
0.336898 0.513912 3.262000 73 54 47
0.336898 0.519622 3.262000 70 53 44
0.336898 0.525332 3.262000 68 53 45
0.336898 0.531042 3.262000 67 53 45
0.336898 0.536752 3.262000 67 53 43
0.336898 0.542463 3.262000 66 53 41
0.336898 0.548173 3.262000 65 52 39
0.336898 0.553883 3.262000 65 52 37
0.336898 0.559593 3.262000 65 50 40
0.336898 0.565303 3.262000 64 50 44
0.336898 0.571013 3.262000 64 49 40
0.336898 0.576723 3.262000 63 49 36
0.336898 0.582434 3.262000 63 48 35
0.336898 0.588144 3.262000 62 49 33
0.336898 0.593854 3.262000 61 47 37
0.336898 0.599564 3.262000 60 46 40
0.336898 0.605274 3.262000 60 45 42
0.336898 0.610984 3.262000 60 46 43
0.336898 0.616694 3.262000 60 45 40
0.333696 0.616490 3.231000 59 46 36
0.333696 0.622145 3.231000 59 44 36
0.333696 0.627801 3.231000 59 41 35
0.336898 0.639535 3.262000 59 43 34
0.333696 0.639113 3.231000 58 45 33
0.333696 0.644769 3.231000 58 43 31
0.333696 0.650425 3.231000 58 44 29
0.336898 0.662375 3.262000 58 43 28
0.333696 0.661736 3.231000 56 42 28
0.333696 0.667392 3.231000 55 41 30
0.333696 0.673048 3.231000 55 39 33
0.333696 0.678704 3.231000 55 39 32
0.333696 0.684360 3.231000 55 40 31
0.336898 0.696636 3.262000 55 39 30
0.333696 0.695672 3.231000 55 41 29
0.333696 0.701328 3.231000 55 41 30
0.333696 0.706983 3.231000 53 41 30
0.336898 0.719477 3.262000 51 42 31
0.336898 0.725187 3.262000 52 40 32
0.336898 0.730897 3.262000 54 39 30
0.336898 0.736607 3.262000 54 39 29
0.333696 0.735263 3.231000 55 40 31
0.333696 0.740919 3.231000 55 41 33
0.333696 0.746574 3.231000 55 40 30
0.333696 0.752230 3.231000 55 41 27
0.330598 0.750849 3.201000 55 40 30
0.333696 0.763542 3.231000 55 40 33
0.333696 0.769198 3.231000 55 40 35
0.333696 0.774854 3.231000 55 40 36
0.333696 0.780510 3.231000 55 39 34
0.333696 0.786166 3.231000 54 39 32
0.333696 0.791821 3.231000 54 39 30
0.333696 0.797477 3.231000 54 39 29
0.333696 0.803133 3.231000 55 40 34
0.333696 0.808789 3.231000 54 42 39
0.333696 0.814445 3.231000 54 40 33
0.333696 0.820101 3.231000 53 40 27
0.333696 0.825757 3.231000 52 40 29
0.333696 0.831412 3.231000 51 41 32
0.333696 0.837068 3.231000 51 40 36
0.336898 0.850810 3.262000 51 41 41
0.336898 0.856520 3.262000 51 40 39
0.346709 0.887341 3.357000 52 38 37
0.343301 0.884437 3.324000 54 38 34
0.343301 0.890255 3.324000 54 39 31
0.340099 0.887717 3.293000 54 38 31
0.340099 0.893482 3.293000 53 36 32
0.340099 0.899246 3.293000 52 37 33
0.340099 0.905010 3.293000 52 37 35
0.333283 0.892521 3.227000 53 37 32
0.338344 0.934746 3.276000 52 38 34
0.333903 0.928136 3.233000 52 38 31
0.333696 0.933218 3.231000 47 39 28
0.324607 0.913303 3.143000 43 37 28
0.324607 0.918804 3.143000 36 32 28
0.324607 0.924306 3.143000 30 25 25
0.321716 0.921525 3.115000 28 18 23
0.327603 0.943940 3.172000 27 19 18
0.327603 0.949493 3.172000 32 18 13
0.251382 0.920315 2.434000 65 54 58
0.249627 0.918118 2.417000 67 52 60
0.247871 0.915862 2.400000 69 52 62
0.246218 0.913929 2.384000 67 51 65
0.244463 0.911555 2.367000 65 51 63
0.242810 0.909509 2.351000 64 53 61
0.382309 -1.293479 3.640000 73 50 44
0.374432 -1.260588 3.565000 74 53 42
0.374432 -1.254347 3.565000 75 51 40
0.370546 -1.235153 3.528000 76 52 41
0.370546 -1.228977 3.528000 77 53 43
0.370546 -1.222801 3.528000 77 54 46
0.370546 -1.216626 3.528000 78 56 50
0.366870 -1.198442 3.493000 80 57 48
0.366870 -1.192327 3.493000 80 60 46
0.366870 -1.180098 3.493000 82 61 52
0.366870 -1.173983 3.493000 84 62 55
0.366870 -1.167869 3.493000 86 62 58
0.366870 -1.161754 3.493000 87 65 57
0.366870 -1.155640 3.493000 88 67 56
0.370546 -1.161044 3.528000 89 67 59
0.370546 -1.154868 3.528000 92 70 62
0.370546 -1.148692 3.528000 94 72 63
0.370546 -1.142516 3.528000 96 73 65
0.370546 -1.136341 3.528000 98 75 65
0.366870 -1.106724 3.493000 107 82 63
0.366870 -1.100610 3.493000 111 86 67
0.370546 -1.099286 3.528000 121 89 74
0.370546 -1.093110 3.528000 124 91 77
0.370546 -1.086935 3.528000 128 93 77
0.370546 -1.080759 3.528000 131 96 77
0.370546 -1.074583 3.528000 135 96 77
0.370546 -1.068407 3.528000 140 104 78
0.370546 -1.062231 3.528000 145 109 87
0.374432 -1.067131 3.565000 152 117 96
0.370546 -1.049880 3.528000 158 121 93
0.366870 -1.033350 3.493000 178 139 90
0.370546 -1.037528 3.528000 199 151 112
0.370546 -1.031353 3.528000 217 183 134
0.370546 -1.025177 3.528000 235 200 157
0.370546 -1.019001 3.528000 244 215 181
0.374432 -1.023447 3.565000 253 229 206
0.378318 -1.027764 3.602000 253 245 232
0.382309 -1.032235 3.640000 254 254 243
0.363194 -0.901931 3.458000 254 254 254
0.359518 -0.886810 3.423000 254 254 254
0.363194 -0.889825 3.458000 254 254 254
