ply
format ascii 1.0
element vertex 1255
property float x
property float y
property float z
property uchar red
property uchar green
property uchar blue
end_header
-0.728532 0.636386 1.645000 192 181 198
-0.728532 0.639265 1.645000 194 181 195
-0.725432 0.639412 1.638000 198 181 191
-0.721889 0.639143 1.630000 203 185 194
-0.718346 0.638845 1.622000 199 192 198
-0.715246 0.638915 1.615000 195 183 198
-0.711703 0.638563 1.607000 195 181 199
-0.708602 0.638582 1.600000 196 183 200
-0.701959 0.635370 1.585000 194 187 201
-0.698859 0.635327 1.578000 193 185 199
-0.692216 0.632023 1.563000 189 187 197
-0.689116 0.631917 1.556000 186 185 197
-0.682916 0.628930 1.542000 189 185 198
-0.677158 0.626305 1.529000 193 185 200
-0.674058 0.626101 1.522000 195 186 203
-0.670958 0.625874 1.515000 197 181 201
-0.668301 0.626037 1.509000 194 183 200
-0.665200 0.625762 1.502000 192 183 199
-0.665200 0.628391 1.502000 192 182 199
-1.361756 -0.199940 3.087000 92 36 38
-1.361756 -0.194537 3.087000 91 30 38
-1.374108 -0.190848 3.115000 116 74 38
-1.374108 -0.185395 3.115000 141 125 85
-1.374108 -0.179943 3.115000 117 125 133
-1.374108 -0.174490 3.115000 94 89 75
-1.374108 -0.169037 3.115000 77 29 18
-1.374108 -0.163584 3.115000 59 12 26
-1.361756 -0.156710 3.087000 58 35 34
-1.361756 -0.151306 3.087000 57 43 31
-1.374108 0.005453 3.115000 86 36 24
-1.374108 0.010906 3.115000 95 49 26
-1.374108 0.016358 3.115000 96 51 28
-1.374108 0.021811 3.115000 96 53 33
-1.386459 0.027509 3.143000 97 50 38
-1.386459 0.033011 3.143000 98 50 22
-1.399252 0.038868 3.172000 100 51 7
-1.412045 0.044827 3.201000 102 51 17
-1.412045 0.050430 3.201000 97 52 28
-1.412045 0.056034 3.201000 91 51 35
-1.412045 0.061637 3.201000 96 50 42
-1.412045 0.067240 3.201000 101 51 29
-1.399252 0.072184 3.172000 94 52 17
-1.399252 0.077736 3.172000 88 54 17
-1.386459 0.082527 3.143000 91 52 18
-1.386459 0.088029 3.143000 95 52 21
-1.386459 0.093531 3.143000 93 52 25
-1.399252 0.099947 3.172000 92 53 21
-1.399252 0.105499 3.172000 93 51 17
-1.399252 0.111052 3.172000 94 51 22
-1.399252 0.116604 3.172000 92 48 27
-1.386459 0.121040 3.143000 91 46 23
-1.386459 0.126542 3.143000 91 49 19
-1.399252 0.133262 3.172000 92 48 22
-1.399252 0.138815 3.172000 91 47 25
-1.386459 0.143047 3.143000 90 49 25
-1.386459 0.148549 3.143000 95 49 26
-1.386459 0.154051 3.143000 100 46 26
-1.386459 0.159553 3.143000 94 47 26
-1.386459 0.165055 3.143000 89 47 28
-1.374108 0.169037 3.115000 88 57 30
-1.374108 0.174490 3.115000 88 65 42
-1.374108 0.179943 3.115000 89 62 54
-1.386459 0.187062 3.143000 90 60 58
-1.386459 0.192564 3.143000 88 60 62
-1.386459 0.198066 3.143000 85 61 60
-1.386459 0.203567 3.143000 78 58 58
-1.452628 0.219047 3.293000 72 56 58
-1.452628 0.224812 3.293000 74 56 58
-1.466303 0.232747 3.324000 77 55 56
-1.466303 0.238565 3.324000 78 54 54
-1.480860 0.246810 3.357000 79 56 52
-1.480860 0.252686 3.357000 79 56 50
-1.480860 0.258563 3.357000 78 58 49
-1.466303 0.261840 3.324000 74 55 49
-1.466303 0.267659 3.324000 71 55 49
-1.466303 0.273477 3.324000 74 57 50
-1.466303 0.279296 3.324000 77 58 50
-1.466303 0.285115 3.324000 78 55 50
-1.480860 0.293821 3.357000 80 53 52
-1.480860 0.299698 3.357000 81 54 54
-1.480860 0.305574 3.357000 82 56 52
-1.480860 0.311451 3.357000 81 53 50
-1.495417 0.320447 3.390000 80 51 56
-1.480860 0.323204 3.357000 78 52 62
-1.480860 0.329080 3.357000 77 54 54
-1.480860 0.334957 3.357000 73 55 47
-1.495417 0.344183 3.390000 68 58 45
-1.495417 0.350118 3.390000 75 52 43
-1.495417 0.356052 3.390000 83 48 46
-1.480860 0.358462 3.357000 82 51 49
-1.480860 0.364339 3.357000 82 55 47
-1.480860 0.370215 3.357000 81 53 45
-1.480860 0.376092 3.357000 80 52 49
-1.480860 0.381968 3.357000 80 54 54
-1.480860 0.387844 3.357000 79 56 56
-1.480860 0.393721 3.357000 82 56 58
-1.480860 0.399597 3.357000 85 56 53
-1.495417 0.409460 3.390000 82 54 49
-1.495417 0.415394 3.390000 80 53 47
-1.495417 0.421328 3.390000 76 53 45
-1.495417 0.427262 3.390000 73 54 39
-1.480860 0.428979 3.357000 77 53 34
-1.480860 0.434856 3.357000 81 51 39
-1.480860 0.440732 3.357000 82 48 45
-1.466303 0.442218 3.324000 84 46 43
-1.466303 0.448037 3.324000 80 49 41
-1.466303 0.453856 3.324000 77 50 38
-1.480860 0.464238 3.357000 77 50 35
-1.480860 0.470114 3.357000 78 50 39
-1.480860 0.475991 3.357000 79 48 43
-1.480860 0.481867 3.357000 80 49 46
-1.480860 0.487744 3.357000 78 47 50
-1.480860 0.493620 3.357000 76 46 46
-1.480860 0.499497 3.357000 75 44 42
-1.480860 0.505373 3.357000 74 44 41
-1.480860 0.511249 3.357000 74 45 40
-1.480860 0.517126 3.357000 74 49 36
-1.480860 0.523002 3.357000 72 47 33
-1.466303 0.523680 3.324000 71 46 32
-1.480860 0.534755 3.357000 74 45 32
-1.480860 0.540632 3.357000 77 46 34
-1.495417 0.551880 3.390000 69 43 37
-1.495417 0.557815 3.390000 61 40 38
-1.495417 0.563749 3.390000 64 41 40
-1.495417 0.569683 3.390000 67 44 41
-1.480860 0.570014 3.357000 63 42 43
-1.495417 0.581551 3.390000 58 40 36
-1.480860 0.581766 3.357000 59 40 30
-1.466303 0.581866 3.324000 60 39 25
-1.466303 0.587685 3.324000 61 38 21
-1.466303 0.593504 3.324000 62 38 24
-1.480860 0.605272 3.357000 59 36 27
-1.480860 0.611149 3.357000 56 36 26
-1.480860 0.617025 3.357000 56 36 25
-1.480860 0.622901 3.357000 57 36 24
-1.495417 0.634959 3.390000 59 34 23
-1.495417 0.640893 3.390000 61 35 22
-1.495417 0.646827 3.390000 58 32 21
-1.480860 0.646407 3.357000 55 30 23
-1.495417 0.658696 3.390000 59 26 26
-1.495417 0.664630 3.390000 64 27 31
-1.480860 0.664037 3.357000 57 29 36
-1.480860 0.669913 3.357000 51 30 27
-1.480860 0.675789 3.357000 51 30 18
-1.480860 0.681666 3.357000 50 31 22
-1.466303 0.680784 3.324000 50 27 26
-1.466303 0.686602 3.324000 51 26 20
-1.466303 0.692421 3.324000 50 23 14
-1.466303 0.698240 3.324000 50 25 18
-1.480860 0.711048 3.357000 48 19 22
-1.480860 0.716924 3.357000 46 15 17
-1.480860 0.722801 3.357000 44 16 12
-1.480860 0.728677 3.357000 43 17 19
-1.480860 0.734554 3.357000 41 15 26
-1.480860 0.740430 3.357000 40 16 17
-1.480860 0.746306 3.357000 39 14 9
-1.480860 0.752183 3.357000 38 14 9
-1.480860 0.758059 3.357000 33 12 9
-1.480860 0.763936 3.357000 29 11 5
-1.495417 0.795182 3.390000 20 11 11
-1.073701 0.690236 2.434000 134 120 132
-1.073701 0.694497 2.434000 136 121 132
-1.073701 0.698758 2.434000 138 121 134
-1.073701 0.703018 2.434000 140 124 136
-1.073701 0.707279 2.434000 143 126 139
-1.066202 0.706570 2.417000 146 129 142
-1.058703 0.705802 2.400000 149 133 147
-1.044145 0.700240 2.367000 150 133 153
-1.016354 0.685636 2.304000 152 131 155
-1.009737 0.685179 2.289000 153 141 158
-0.996504 0.680153 2.259000 155 145 159
-0.996504 0.684108 2.259000 157 144 161
-0.989887 0.683493 2.244000 160 146 160
-0.983711 0.683133 2.230000 163 148 160
-0.983711 0.687036 2.230000 166 148 161
-0.977094 0.686292 2.215000 170 151 162
-0.977094 0.690170 2.215000 175 155 166
-0.970918 0.689660 2.201000 172 156 170
-0.940922 0.672087 2.133000 170 157 172
-0.940922 0.675821 2.133000 168 154 174
-0.935187 0.675413 2.120000 167 153 173
-0.924159 0.671116 2.095000 170 156 173
-0.918424 0.670596 2.082000 173 160 175
-0.902103 0.662258 2.045000 175 161 178
-0.896809 0.661931 2.033000 178 163 179
-0.902103 0.669418 2.045000 178 163 180
-0.891516 0.665099 2.021000 179 163 181
-0.886222 0.664667 2.009000 177 163 182
-0.886222 0.668183 2.009000 175 164 189
-0.886222 0.671700 2.009000 179 164 197
-0.881370 0.671520 1.998000 183 164 188
-0.871224 0.667247 1.975000 180 166 179
-0.856226 0.659158 1.941000 177 169 182
-0.851814 0.659142 1.931000 179 168 186
-0.846962 0.658748 1.920000 181 168 189
-0.842110 0.658316 1.909000 185 166 193
-0.832846 0.654379 1.888000 189 163 193
-0.828435 0.654201 1.878000 188 172 193
-0.828435 0.657488 1.878000 186 176 196
-0.824023 0.657257 1.868000 184 178 200
-0.824023 0.660527 1.868000 181 179 198
-0.815201 0.656690 1.848000 183 177 196
-0.810790 0.656354 1.838000 185 176 194
-0.806378 0.655982 1.828000 185 175 193
-0.802408 0.655937 1.819000 185 177 193
-0.794027 0.652236 1.800000 186 176 193
-0.789616 0.651746 1.790000 188 175 194
-0.785645 0.651587 1.781000 188 177 195
-0.781675 0.651396 1.772000 187 181 195
-0.777705 0.651174 1.763000 187 179 195
-0.765795 0.644240 1.736000 188 177 196
-0.758296 0.640940 1.719000 190 177 198
-0.754767 0.640953 1.711000 193 179 202
-0.747268 0.637550 1.694000 192 179 207
-0.739768 0.634087 1.677000 192 182 203
-0.736239 0.633984 1.669000 191 185 200
-0.736239 0.636906 1.669000 189 188 199
-0.729181 0.633693 1.653000 190 184 199
-0.729181 0.636587 1.653000 190 180 199
-0.729181 0.639481 1.653000 192 182 199
-0.725652 0.639265 1.645000 194 180 197
-0.722565 0.639412 1.638000 197 180 196
-0.722565 0.642280 1.638000 200 182 196
-0.719036 0.641996 1.630000 197 184 197
-0.712419 0.638915 1.615000 194 182 198
-0.708890 0.638563 1.607000 194 182 199
-0.705802 0.638582 1.600000 193 183 202
-0.699185 0.635370 1.585000 193 183 205
-0.696097 0.635327 1.578000 193 182 201
-0.689480 0.632023 1.563000 191 183 197
-0.686392 0.631917 1.556000 189 185 198
-0.680216 0.628930 1.542000 192 183 199
-0.674482 0.626305 1.529000 195 183 203
-0.671394 0.626101 1.522000 196 185 208
-0.671394 0.628766 1.522000 197 183 203
-0.668306 0.628526 1.515000 196 183 199
-0.665659 0.628678 1.509000 194 183 199
-0.662571 0.628391 1.502000 194 184 200
-1.368655 -0.201754 3.115000 93 42 29
-1.356352 -0.194537 3.087000 90 41 27
-1.356352 -0.189133 3.087000 113 52 26
-1.356352 -0.183729 3.087000 137 98 70
-1.368655 -0.179943 3.115000 131 148 114
-1.368655 -0.174490 3.115000 125 89 85
-1.356352 -0.167518 3.087000 90 1 56
-1.356352 -0.162114 3.087000 56 14 37
-1.356352 -0.156710 3.087000 53 42 17
-1.356352 -0.151306 3.087000 51 37 17
-1.368655 0.005453 3.115000 81 38 12
-1.368655 0.010906 3.115000 98 47 20
-1.380957 0.016506 3.143000 102 52 29
-1.380957 0.022007 3.143000 106 50 30
-1.380957 0.027509 3.143000 102 48 31
-1.393699 0.033316 3.172000 98 49 23
-1.393699 0.038868 3.172000 97 50 15
-1.406441 0.044827 3.201000 96 50 20
-1.406441 0.050430 3.201000 94 53 26
-1.406441 0.056034 3.201000 93 50 31
-1.406441 0.061637 3.201000 93 50 36
-1.406441 0.067240 3.201000 94 52 29
-1.406441 0.072844 3.201000 88 54 21
-1.393699 0.077736 3.172000 82 53 21
-1.393699 0.083289 3.172000 89 54 20
-1.380957 0.088029 3.143000 97 52 22
-1.393699 0.094394 3.172000 95 51 25
-1.393699 0.099947 3.172000 93 51 23
-1.406441 0.106464 3.201000 94 47 22
-1.406441 0.112067 3.201000 96 47 27
-1.406441 0.117671 3.201000 94 46 32
-1.393699 0.122157 3.172000 93 47 22
-1.393699 0.127710 3.172000 92 50 13
-1.406441 0.134480 3.201000 91 49 17
-1.393699 0.138815 3.172000 88 48 22
-1.393699 0.144367 3.172000 85 51 24
-1.380957 0.148549 3.143000 95 53 27
-1.380957 0.154051 3.143000 106 49 30
-1.380957 0.159553 3.143000 95 47 34
-1.380957 0.165055 3.143000 85 49 34
-1.380957 0.170557 3.143000 87 57 35
-1.380957 0.176058 3.143000 89 62 46
-1.380957 0.181560 3.143000 90 62 58
-1.380957 0.187062 3.143000 92 60 63
-1.380957 0.192564 3.143000 89 58 69
-1.380957 0.198066 3.143000 86 59 64
-1.393699 0.205446 3.172000 83 60 60
-1.446864 0.219047 3.293000 80 60 59
-1.446864 0.224812 3.293000 79 59 58
-1.460484 0.232747 3.324000 78 56 56
-1.460484 0.238565 3.324000 79 52 55
-1.474984 0.246810 3.357000 81 55 53
-1.474984 0.252686 3.357000 81 59 51
-1.474984 0.258563 3.357000 81 58 49
-1.474984 0.264439 3.357000 79 59 48
-1.460484 0.267659 3.324000 78 57 49
-1.460484 0.273477 3.324000 78 59 50
-1.460484 0.279296 3.324000 79 58 54
-1.474984 0.287945 3.357000 80 56 58
-1.474984 0.293821 3.357000 82 54 57
-1.489483 0.302644 3.390000 84 53 56
-1.489483 0.308578 3.390000 86 55 54
-1.503983 0.317574 3.423000 83 56 52
-1.503983 0.323566 3.423000 81 55 53
-1.503983 0.329558 3.423000 80 53 55
-1.489483 0.332315 3.390000 79 55 50
-1.489483 0.338249 3.390000 78 58 46
-1.489483 0.344183 3.390000 77 57 43
-1.489483 0.350118 3.390000 77 53 41
-1.489483 0.356052 3.390000 78 50 46
-1.489483 0.361986 3.390000 79 51 50
-1.489483 0.367920 3.390000 81 53 48
-1.489483 0.373854 3.390000 81 54 47
-1.489483 0.379789 3.390000 81 54 49
-1.489483 0.385723 3.390000 82 56 51
-1.489483 0.391657 3.390000 83 55 52
-1.503983 0.401461 3.423000 87 56 52
-1.503983 0.407454 3.423000 91 55 49
-1.503983 0.413445 3.423000 87 53 46
-1.503983 0.419437 3.423000 83 54 48
-1.503983 0.425429 3.423000 83 55 50
-1.489483 0.427262 3.390000 84 56 45
-1.489483 0.433196 3.390000 83 55 40
-1.489483 0.439131 3.390000 83 51 42
-1.474984 0.440732 3.357000 86 48 44
-1.474984 0.446609 3.357000 89 48 42
-1.489483 0.456933 3.390000 83 49 40
-1.489483 0.462867 3.390000 78 50 39
-1.489483 0.468802 3.390000 78 51 39
-1.489483 0.474736 3.390000 78 49 39
-1.489483 0.480670 3.390000 80 49 40
-1.489483 0.486604 3.390000 83 49 42
-1.489483 0.492538 3.390000 79 47 45
-1.489483 0.498472 3.390000 76 46 42
-1.489483 0.504407 3.390000 75 44 40
-1.474984 0.505373 3.357000 74 45 40
-1.474984 0.511249 3.357000 73 45 39
-1.474984 0.517126 3.357000 72 47 39
-1.474984 0.523002 3.357000 70 48 38
-1.474984 0.528879 3.357000 68 45 35
-1.489483 0.540012 3.390000 70 45 31
-1.489483 0.545946 3.390000 72 45 28
-1.503983 0.557253 3.423000 71 45 24
-1.503983 0.563245 3.423000 71 42 30
-1.503983 0.569236 3.423000 69 43 37
-1.489483 0.569683 3.390000 68 43 40
-1.489483 0.575617 3.390000 65 43 44
-1.489483 0.581551 3.390000 63 42 38
-1.489483 0.587485 3.390000 61 43 31
-1.474984 0.587643 3.357000 60 39 27
-1.474984 0.593519 3.357000 59 36 23
-1.474984 0.599396 3.357000 59 36 25
-1.474984 0.605272 3.357000 58 38 28
-1.474984 0.611149 3.357000 58 36 28
-1.474984 0.617025 3.357000 57 36 27
-1.474984 0.622901 3.357000 56 34 26
-1.489483 0.634959 3.390000 56 34 25
-1.489483 0.640893 3.390000 56 34 23
-1.489483 0.646827 3.390000 56 34 21
-1.474984 0.646407 3.357000 56 29 22
-1.489483 0.658696 3.390000 63 19 23
-1.489483 0.664630 3.390000 70 25 25
-1.474984 0.664037 3.357000 61 29 28
-1.474984 0.669913 3.357000 53 29 22
-1.474984 0.675789 3.357000 51 28 16
-1.474984 0.681666 3.357000 50 27 17
-1.474984 0.687542 3.357000 51 26 19
-1.474984 0.693419 3.357000 53 22 16
-1.474984 0.699295 3.357000 51 19 13
-1.474984 0.705172 3.357000 49 22 15
-1.474984 0.711048 3.357000 46 19 18
-1.474984 0.716924 3.357000 44 17 14
-1.474984 0.722801 3.357000 43 17 9
-1.474984 0.728677 3.357000 43 16 12
-1.474984 0.734554 3.357000 40 15 14
-1.474984 0.740430 3.357000 38 15 10
-1.474984 0.746306 3.357000 37 15 6
-1.474984 0.752183 3.357000 37 15 7
-1.474984 0.758059 3.357000 32 14 8
-1.474984 0.763936 3.357000 28 9 6
-1.069440 0.690236 2.434000 136 119 134
-1.069440 0.694497 2.434000 138 121 135
-1.061971 0.693877 2.417000 140 122 136
-1.061971 0.698108 2.417000 141 126 137
-1.061971 0.702339 2.417000 142 126 141
-1.054501 0.701601 2.400000 146 128 144
-1.047471 0.701096 2.384000 151 133 149
-1.032972 0.695507 2.351000 152 138 154
-1.012321 0.685636 2.304000 154 139 156
-1.005731 0.685179 2.289000 154 145 157
-0.992549 0.680153 2.259000 155 144 161
-0.992549 0.684108 2.259000 158 142 165
-0.985959 0.683493 2.244000 161 145 163
-0.979807 0.683133 2.230000 165 149 161
-0.979807 0.687036 2.230000 169 151 163
-0.973217 0.686292 2.215000 175 155 164
-0.967066 0.685808 2.201000 181 155 167
-0.967066 0.689660 2.201000 176 156 169
-0.937188 0.672087 2.133000 172 155 171
-0.937188 0.675821 2.133000 172 154 173
-0.925764 0.671271 2.107000 172 155 173
-0.914780 0.666951 2.082000 173 159 174
-0.909068 0.666408 2.069000 175 159 176
-0.898523 0.662258 2.045000 179 160 179
-0.893250 0.661931 2.033000 183 161 180
-0.898523 0.669418 2.045000 181 163 182
-0.887978 0.665099 2.021000 179 163 182
-0.882706 0.664667 2.009000 176 163 182
-0.882706 0.668183 2.009000 174 164 187
-0.872600 0.664010 1.986000 180 164 192
-0.872600 0.667487 1.986000 186 165 187
-0.867767 0.667247 1.975000 181 168 182
-0.857661 0.662893 1.952000 176 168 184
-0.852828 0.662556 1.941000 178 167 186
-0.848434 0.662522 1.931000 180 170 189
-0.838768 0.658316 1.909000 182 171 192
-0.834374 0.658192 1.899000 185 170 192
-0.825147 0.654201 1.878000 185 175 192
-0.825147 0.657488 1.878000 186 176 195
-0.820754 0.657257 1.868000 185 177 198
-0.820754 0.660527 1.868000 185 178 197
-0.816360 0.660243 1.858000 185 179 196
-0.807572 0.656354 1.838000 186 176 193
-0.799224 0.652753 1.819000 186 176 190
-0.794830 0.652331 1.809000 187 176 191
-0.790876 0.652236 1.800000 188 177 192
-0.786482 0.651746 1.790000 189 176 193
-0.778574 0.648294 1.772000 188 177 194
-0.774619 0.648088 1.763000 188 179 193
-0.766710 0.644525 1.745000 188 182 192
-0.762756 0.644240 1.736000 189 177 194
-0.759241 0.644296 1.728000 192 175 197
-0.755287 0.643950 1.719000 196 178 200
-0.751772 0.643948 1.711000 195 178 202
-0.744302 0.640515 1.694000 194 181 200
-0.736833 0.637023 1.677000 190 192 199
-0.733318 0.636906 1.669000 187 187 200
-0.729803 0.636760 1.661000 189 189 201
-0.726288 0.636587 1.653000 191 184 200
-0.726288 0.639481 1.653000 192 188 200
-0.722773 0.639265 1.645000 194 183 198
-0.719697 0.639412 1.638000 195 180 197
-0.716182 0.639143 1.630000 197 181 197
-0.716182 0.641996 1.630000 195 183 197
-0.712667 0.641684 1.622000 194 183 197
-0.706077 0.638563 1.607000 192 182 198
-0.699486 0.635390 1.592000 191 182 200
-0.696410 0.635370 1.585000 192 183 202
-0.690259 0.632508 1.571000 193 182 198
-0.686744 0.632023 1.563000 192 181 195
-0.680593 0.629074 1.549000 192 183 197
-0.677517 0.628930 1.542000 194 181 199
-0.671805 0.626305 1.529000 197 182 201
-0.668730 0.626101 1.522000 197 188 203
-0.668730 0.628766 1.522000 198 185 200
-0.665654 0.628526 1.515000 197 183 198
-0.665654 0.631178 1.515000 197 184 198
-0.663018 0.631320 1.509000 197 191 198
-1.350949 -0.194537 3.087000 86 40 17
-1.350949 -0.189133 3.087000 109 47 15
-1.363202 -0.185395 3.115000 133 68 55
-1.363202 -0.179943 3.115000 131 116 95
-1.363202 -0.174490 3.115000 129 120 95
-1.350949 -0.167518 3.087000 98 32 95
-1.350949 -0.162114 3.087000 68 1 48
-1.350949 -0.156710 3.087000 73 15 1
-1.350949 -0.151306 3.087000 78 16 2
-1.350949 -0.145902 3.087000 84 26 4
-1.363202 0.010906 3.115000 98 49 15
-1.375456 0.016506 3.143000 100 51 30
-1.375456 0.022007 3.143000 101 50 27
-1.375456 0.027509 3.143000 99 48 25
-1.388147 0.033316 3.172000 97 50 24
-1.388147 0.038868 3.172000 94 49 24
-1.400838 0.044827 3.201000 92 49 24
-1.400838 0.050430 3.201000 92 49 24
-1.400838 0.056034 3.201000 92 48 27
-1.400838 0.061637 3.201000 93 50 31
-1.400838 0.067240 3.201000 93 53 28
-1.400838 0.072844 3.201000 89 51 26
-1.400838 0.078447 3.201000 84 50 24
-1.388147 0.083289 3.172000 89 51 23
-1.388147 0.088841 3.172000 94 51 24
-1.388147 0.094394 3.172000 92 52 25
-1.400838 0.100860 3.201000 91 54 26
-1.400838 0.106464 3.201000 92 49 27
-1.400838 0.112067 3.201000 93 45 32
-1.400838 0.117671 3.201000 91 44 38
-1.400838 0.123274 3.201000 90 46 22
-1.400838 0.128877 3.201000 90 49 7
-1.400838 0.134480 3.201000 91 50 13
-1.400838 0.140084 3.201000 89 50 19
-1.388147 0.144367 3.172000 87 54 23
-1.375456 0.148549 3.143000 93 53 28
-1.375456 0.154051 3.143000 99 51 35
-1.375456 0.159553 3.143000 93 48 43
-1.375456 0.165055 3.143000 88 46 41
-1.375456 0.170557 3.143000 88 56 40
-1.375456 0.176058 3.143000 88 64 51
-1.375456 0.181560 3.143000 89 64 62
-1.375456 0.187062 3.143000 89 63 69
-1.375456 0.192564 3.143000 87 60 76
-1.375456 0.198066 3.143000 86 60 69
-1.388147 0.205446 3.172000 84 61 62
-1.441099 0.219047 3.293000 82 65 60
-1.454666 0.226928 3.324000 81 61 58
-1.454666 0.232747 3.324000 81 60 57
-1.454666 0.238565 3.324000 82 56 57
-1.469107 0.246810 3.357000 83 56 55
-1.469107 0.252686 3.357000 83 58 53
-1.469107 0.258563 3.357000 84 58 50
-1.469107 0.264439 3.357000 84 57 47
-1.469107 0.270316 3.357000 84 58 48
-1.469107 0.276192 3.357000 83 59 50
-1.454666 0.279296 3.324000 81 60 58
-1.469107 0.287945 3.357000 81 57 67
-1.469107 0.293821 3.357000 80 55 63
-1.483549 0.302644 3.390000 79 54 59
-1.483549 0.308578 3.390000 77 56 57
-1.497990 0.317574 3.423000 78 56 55
-1.497990 0.323566 3.423000 80 60 51
-1.497990 0.329558 3.423000 79 56 48
-1.497990 0.335550 3.423000 78 56 46
-1.483549 0.338249 3.390000 78 58 45
-1.483549 0.344183 3.390000 78 59 42
-1.483549 0.350118 3.390000 77 53 40
-1.497990 0.359518 3.423000 77 50 46
-1.483549 0.361986 3.390000 78 52 52
-1.483549 0.367920 3.390000 80 54 50
-1.483549 0.373854 3.390000 79 53 49
-1.497990 0.383486 3.423000 78 56 49
-1.483549 0.385723 3.390000 80 54 49
-1.497990 0.395470 3.423000 83 54 48
-1.513307 0.405566 3.458000 84 55 47
-1.513307 0.411620 3.458000 86 56 45
-1.513307 0.417673 3.458000 84 55 44
-1.513307 0.423726 3.458000 82 55 49
-1.513307 0.429779 3.458000 82 57 55
-1.497990 0.431421 3.423000 82 60 51
-1.513307 0.441886 3.458000 82 56 47
-1.497990 0.443405 3.423000 81 52 45
-1.469107 0.440732 3.357000 83 50 44
-1.483549 0.450999 3.390000 85 51 41
-1.483549 0.456933 3.390000 81 50 39
-1.497990 0.467373 3.423000 77 50 41
-1.497990 0.473365 3.423000 77 49 43
-1.497990 0.479357 3.423000 77 49 40
-1.497990 0.485349 3.423000 78 49 38
-1.497990 0.491341 3.423000 79 51 39
-1.497990 0.497333 3.423000 76 49 40
-1.497990 0.503325 3.423000 74 49 39
-1.497990 0.509317 3.423000 72 47 39
-1.483549 0.510341 3.390000 71 47 39
-1.483549 0.516275 3.390000 71 46 39
-1.483549 0.522209 3.390000 71 46 41
-1.483549 0.528144 3.390000 70 45 44
-1.483549 0.534078 3.390000 70 44 37
-1.483549 0.540012 3.390000 70 44 31
-1.497990 0.551261 3.423000 70 47 21
-1.497990 0.557253 3.423000 69 44 12
-1.497990 0.563245 3.423000 68 40 23
-1.497990 0.569236 3.423000 68 42 34
-1.497990 0.575228 3.423000 69 42 40
-1.497990 0.581220 3.423000 70 41 46
-1.497990 0.587212 3.423000 72 42 39
-1.497990 0.593204 3.423000 67 40 33
-1.469107 0.587643 3.357000 62 39 29
-1.469107 0.593519 3.357000 61 36 25
-1.497990 0.611180 3.423000 60 34 27
-1.483549 0.611222 3.390000 58 35 30
-1.483549 0.617156 3.390000 57 34 30
-1.483549 0.623091 3.390000 57 33 30
-1.497990 0.635148 3.423000 58 31 29
-1.497990 0.641140 3.423000 56 33 28
-1.497990 0.647132 3.423000 55 35 24
-1.497990 0.653124 3.423000 55 33 21
-1.483549 0.652762 3.390000 55 33 21
-1.483549 0.658696 3.390000 58 28 21
-1.483549 0.664630 3.390000 62 26 20
-1.469107 0.664037 3.357000 57 28 20
-1.469107 0.669913 3.357000 52 29 17
-1.469107 0.675789 3.357000 52 27 14
-1.469107 0.681666 3.357000 52 26 13
-1.469107 0.687542 3.357000 54 24 13
-1.469107 0.693419 3.357000 57 20 12
-1.469107 0.699295 3.357000 53 22 12
-1.469107 0.705172 3.357000 49 25 13
-1.469107 0.711048 3.357000 44 20 15
-1.469107 0.716924 3.357000 39 19 11
-1.483549 0.729906 3.390000 40 17 7
-1.469107 0.728677 3.357000 42 15 5
-1.469107 0.734554 3.357000 41 14 3
-1.469107 0.740430 3.357000 39 16 3
-1.469107 0.746306 3.357000 36 16 4
-1.469107 0.752183 3.357000 34 19 5
-1.469107 0.758059 3.357000 27 13 7
-1.065179 0.690236 2.434000 137 120 136
-1.065179 0.694497 2.434000 138 121 138
-1.057740 0.693877 2.417000 140 122 138
-1.057740 0.698108 2.417000 141 125 139
-1.050300 0.697399 2.400000 143 126 143
-1.043298 0.696923 2.384000 148 129 147
-1.043298 0.701096 2.384000 154 133 151
-1.021854 0.690774 2.335000 154 138 156
-1.008288 0.685636 2.304000 155 142 156
-1.001724 0.685179 2.289000 155 144 157
-0.988595 0.680153 2.259000 156 144 163
-0.988595 0.684108 2.259000 158 143 170
-0.988595 0.688062 2.259000 161 145 166
-0.975904 0.683133 2.230000 165 148 163
-0.975904 0.687036 2.230000 168 152 165
-0.969339 0.686292 2.215000 171 154 167
-0.963213 0.685808 2.201000 174 155 168
-0.963213 0.689660 2.201000 172 155 169
-0.927765 0.667991 2.120000 171 156 170
-0.933454 0.675821 2.133000 172 154 172
-0.927765 0.675413 2.120000 173 154 174
-0.916824 0.671116 2.095000 174 157 176
-0.905446 0.666408 2.069000 175 160 178
-0.900195 0.666144 2.057000 178 161 180
-0.889692 0.661931 2.033000 180 161 182
-0.894943 0.669418 2.045000 179 162 184
-0.884440 0.665099 2.021000 179 165 183
-0.879189 0.664667 2.009000 177 165 182
-0.874375 0.664525 1.998000 176 166 184
-0.869123 0.664010 1.986000 180 165 187
-0.869123 0.667487 1.986000 183 167 186
-0.864310 0.667247 1.975000 181 168 185
-0.854244 0.662893 1.952000 179 169 185
-0.849430 0.662556 1.941000 179 170 186
-0.835426 0.654974 1.909000 180 176 188
-0.831050 0.654867 1.899000 182 173 191
-0.826236 0.654379 1.888000 184 172 191
-0.821860 0.654201 1.878000 186 175 191
-0.821860 0.657488 1.878000 187 178 193
-0.817484 0.657257 1.868000 186 178 196
-0.817484 0.660527 1.868000 186 180 196
-0.808731 0.656690 1.848000 186 178 196
-0.808731 0.659925 1.848000 186 176 192
-0.796040 0.652753 1.819000 187 176 188
-0.791664 0.652331 1.809000 188 176 189
-0.787725 0.652236 1.800000 190 177 191
-0.779410 0.648469 1.781000 193 177 192
-0.779410 0.651587 1.781000 189 178 193
-0.771533 0.648088 1.763000 185 179 191
-0.763656 0.644525 1.745000 187 179 189
-0.756216 0.641271 1.728000 189 176 193
-0.752277 0.640940 1.719000 193 177 197
-0.752277 0.643950 1.719000 196 180 197
-0.744838 0.640561 1.702000 196 177 198
-0.737836 0.637490 1.686000 196 174 198
-0.733897 0.637023 1.677000 195 183 198
-0.733897 0.639958 1.677000 194 179 200
-0.726895 0.636760 1.661000 194 181 203
-0.726895 0.639668 1.661000 194 179 202
-0.723394 0.639481 1.653000 195 181 201
-0.719893 0.639265 1.645000 197 184 200
-0.716830 0.639412 1.638000 197 182 199
-0.713329 0.639143 1.630000 196 182 198
-0.709828 0.638845 1.622000 194 183 197
-0.706764 0.638915 1.615000 193 187 197
-0.703263 0.638563 1.607000 192 183 198
-0.696699 0.635390 1.592000 191 182 198
-0.696699 0.638176 1.592000 192 183 199
-0.687509 0.632508 1.571000 193 184 196
-0.680945 0.629193 1.556000 193 184 194
-0.677881 0.629074 1.549000 193 187 196
-0.674818 0.628930 1.542000 195 181 199
-0.669129 0.626305 1.529000 198 177 198
-0.666065 0.626101 1.522000 198 186 198
-0.663002 0.625874 1.515000 199 188 198
-0.660376 0.626037 1.509000 198 183 198
-0.660376 0.628678 1.509000 198 182 197
-0.657313 0.628391 1.502000 198 186 197
-1.345545 -0.194537 3.087000 82 40 28
-1.357749 -0.190848 3.115000 105 29 30
-1.357749 -0.185395 3.115000 129 69 47
-1.357749 -0.179943 3.115000 131 129 64
-1.357749 -0.174490 3.115000 134 103 87
-1.357749 -0.169037 3.115000 107 9 111
-1.357749 -0.163584 3.115000 80 44 84
-1.369954 -0.159553 3.143000 92 1 57
-1.369954 -0.154051 3.143000 105 49 62
-1.382594 -0.149920 3.172000 116 1 67
-1.369954 0.016506 3.143000 98 54 30
-1.369954 0.022007 3.143000 97 50 28
-1.382594 0.027763 3.172000 96 47 26
-1.382594 0.033316 3.172000 96 48 26
-1.395234 0.039223 3.201000 92 48 26
-1.395234 0.044827 3.201000 88 48 26
-1.395234 0.050430 3.201000 90 47 27
-1.395234 0.056034 3.201000 92 49 29
-1.395234 0.061637 3.201000 92 52 32
-1.395234 0.067240 3.201000 93 51 30
-1.395234 0.072844 3.201000 90 50 28
-1.395234 0.078447 3.201000 87 51 27
-1.395234 0.084050 3.201000 89 51 27
-1.395234 0.089654 3.201000 91 52 27
-1.395234 0.095257 3.201000 90 54 27
-1.395234 0.100860 3.201000 89 53 27
-1.395234 0.106464 3.201000 90 50 26
-1.395234 0.112067 3.201000 91 46 29
-1.395234 0.117671 3.201000 89 42 33
-1.395234 0.123274 3.201000 87 46 25
-1.395234 0.128877 3.201000 89 51 17
-1.395234 0.134480 3.201000 92 50 21
-1.395234 0.140084 3.201000 91 51 25
-1.382594 0.144367 3.172000 90 52 27
-1.382594 0.149920 3.172000 91 54 29
-1.369954 0.154051 3.143000 93 50 35
-1.382594 0.161025 3.172000 92 48 41
-1.382594 0.166578 3.172000 91 50 40
-1.369954 0.170557 3.143000 89 59 40
-1.369954 0.176058 3.143000 88 63 51
-1.369954 0.181560 3.143000 87 67 61
-1.369954 0.187062 3.143000 87 63 66
-1.382594 0.194341 3.172000 86 60 71
-1.382594 0.199893 3.172000 86 60 67
-1.382594 0.205446 3.172000 85 60 63
-1.448847 0.221109 3.324000 85 63 60
-1.448847 0.226928 3.324000 84 63 58
-1.477615 0.237368 3.390000 84 59 57
-1.463231 0.240934 3.357000 85 56 56
-1.477615 0.249236 3.390000 86 57 55
-1.477615 0.255170 3.390000 86 60 53
-1.463231 0.258563 3.357000 87 57 51
-1.463231 0.264439 3.357000 89 54 49
-1.463231 0.270316 3.357000 91 56 48
-1.463231 0.276192 3.357000 87 61 47
-1.463231 0.282069 3.357000 84 60 54
-1.463231 0.287945 3.357000 81 58 60
-1.477615 0.296710 3.390000 79 56 59
-1.491999 0.305590 3.423000 74 54 57
-1.491999 0.311582 3.423000 69 54 59
-1.507254 0.320821 3.458000 74 55 60
-1.491999 0.323566 3.423000 79 56 55
-1.491999 0.329558 3.423000 78 55 51
-1.491999 0.335550 3.423000 78 57 49
-1.491999 0.341542 3.423000 78 60 48
-1.491999 0.347534 3.423000 79 57 46
-1.491999 0.353526 3.423000 78 52 44
-1.491999 0.359518 3.423000 77 52 51
-1.477615 0.361986 3.390000 78 54 57
-1.491999 0.371502 3.423000 79 52 54
-1.491999 0.377494 3.423000 77 51 51
-1.491999 0.383486 3.423000 75 53 47
-1.491999 0.389478 3.423000 79 51 43
-1.507254 0.399513 3.458000 83 52 45
-1.507254 0.405566 3.458000 82 55 47
-1.507254 0.411620 3.458000 82 56 46
-1.507254 0.417673 3.458000 82 58 45
-1.507254 0.423726 3.458000 82 56 47
-1.507254 0.429779 3.458000 81 59 49
-1.507254 0.435833 3.458000 81 58 48
-1.507254 0.441886 3.458000 80 57 46
-1.507254 0.447939 3.458000 80 53 44
-1.491999 0.449397 3.423000 80 50 43
-1.507254 0.460046 3.458000 81 50 42
-1.507254 0.466099 3.458000 79 53 42
-1.507254 0.472152 3.458000 77 50 45
-1.507254 0.478205 3.458000 77 49 49
-1.507254 0.484258 3.458000 77 49 44
-1.507254 0.490312 3.458000 76 47 40
-1.507254 0.496365 3.458000 76 49 38
-1.507254 0.502418 3.458000 74 50 36
-1.507254 0.508471 3.458000 72 48 36
-1.491999 0.509317 3.423000 70 49 36
-1.491999 0.515309 3.423000 68 46 33
-1.491999 0.521301 3.423000 69 47 29
-1.491999 0.527293 3.423000 70 44 35
-1.491999 0.533285 3.423000 71 42 41
-1.491999 0.539277 3.423000 72 42 38
-1.491999 0.545269 3.423000 70 42 34
-1.491999 0.551261 3.423000 69 44 27
-1.507254 0.562950 3.458000 67 45 20
-1.507254 0.569004 3.458000 65 42 27
-1.491999 0.569236 3.423000 67 43 34
-1.491999 0.575228 3.423000 70 42 38
-1.477615 0.575617 3.390000 75 40 42
-1.477615 0.581551 3.390000 81 40 37
-1.491999 0.593204 3.423000 73 39 33
-1.477615 0.593420 3.390000 65 37 30
-1.477615 0.599354 3.390000 63 35 27
-1.491999 0.611180 3.423000 61 34 26
-1.491999 0.617172 3.423000 58 35 26
-1.491999 0.623164 3.423000 56 34 27
-1.491999 0.629156 3.423000 58 31 29
-1.491999 0.635148 3.423000 60 31 33
-1.507254 0.647696 3.458000 57 32 36
-1.491999 0.647132 3.423000 54 32 28
-1.491999 0.653124 3.423000 54 32 21
-1.477615 0.652762 3.390000 54 33 19
-1.491999 0.665108 3.423000 54 34 17
-1.477615 0.664630 3.390000 55 31 19
-1.477615 0.670564 3.390000 53 30 20
-1.477615 0.676498 3.390000 51 28 17
-1.463231 0.675789 3.357000 52 27 15
-1.477615 0.688367 3.390000 54 26 14
-1.477615 0.694301 3.390000 57 26 13
-1.463231 0.693419 3.357000 61 24 12
-1.477615 0.706169 3.390000 55 24 12
-1.463231 0.705172 3.357000 49 22 14
-1.463231 0.711048 3.357000 41 19 17
-1.463231 0.716924 3.357000 34 18 13
-1.463231 0.722801 3.357000 38 17 9
-1.463231 0.728677 3.357000 42 14 7
-1.463231 0.734554 3.357000 41 12 5
-1.463231 0.740430 3.357000 41 13 5
-1.463231 0.746306 3.357000 36 14 5
-1.463231 0.752183 3.357000 31 15 5
-1.463231 0.758059 3.357000 23 14 6
-1.068329 0.695057 2.451000 139 121 138
-1.060919 0.694497 2.434000 139 121 140
-1.060919 0.698758 2.434000 140 122 140
-1.046099 0.693198 2.400000 142 126 140
-1.046099 0.697399 2.400000 144 128 144
-1.039125 0.696923 2.384000 150 132 149
-1.031715 0.696097 2.367000 157 136 152
-1.017767 0.690774 2.335000 157 141 155
-1.011229 0.690397 2.320000 157 142 152
-1.004255 0.689669 2.304000 157 145 149
-0.991179 0.684670 2.274000 157 144 158
-0.991179 0.688650 2.274000 159 142 167
-0.984641 0.688062 2.259000 162 144 165
-0.978103 0.687422 2.244000 165 148 164
-0.972000 0.687036 2.230000 168 151 166
-0.965462 0.686292 2.215000 168 154 168
-0.959360 0.685808 2.201000 168 155 169
-0.924054 0.664280 2.120000 169 155 171
-0.924054 0.667991 2.120000 170 155 172
-0.929720 0.675821 2.133000 172 154 174
-0.918388 0.671271 2.107000 174 155 175
-0.907491 0.666951 2.082000 175 158 177
-0.901824 0.666408 2.069000 176 161 179
-0.891364 0.662258 2.045000 177 163 181
-0.886133 0.661931 2.033000 178 162 185
-0.886133 0.665489 2.033000 178 162 189
-0.870877 0.657530 1.998000 179 164 184
-0.865647 0.657057 1.986000 179 167 179
-0.865647 0.660534 1.986000 179 166 183
-0.860852 0.660333 1.975000 180 165 187
-0.860852 0.663790 1.975000 181 166 187
-0.860852 0.667247 1.975000 181 168 187
-0.856058 0.666969 1.964000 182 168 187
-0.850827 0.666310 1.952000 181 169 187
-0.836879 0.658748 1.920000 180 172 189
-0.827726 0.654867 1.899000 182 174 191
-0.822931 0.654379 1.888000 184 173 190
-0.818573 0.654201 1.878000 186 177 189
-0.814214 0.653987 1.868000 189 178 192
-0.814214 0.657257 1.868000 188 180 195
-0.809855 0.656991 1.858000 187 180 196
-0.805496 0.656690 1.848000 187 178 197
-0.805496 0.659925 1.848000 187 177 195
-0.796779 0.655982 1.828000 188 178 192
-0.788497 0.652331 1.809000 189 178 192
-0.784574 0.652236 1.800000 193 180 192
-0.780216 0.651746 1.790000 198 179 194
-0.776293 0.651587 1.781000 190 179 196
-0.768447 0.648088 1.763000 182 180 194
-0.760601 0.644525 1.745000 186 179 192
-0.753191 0.641271 1.728000 190 178 194
-0.749268 0.640940 1.719000 193 178 196
-0.745781 0.640953 1.711000 197 179 195
-0.741858 0.640561 1.702000 198 178 194
-0.738372 0.640515 1.694000 199 179 196
-0.730962 0.637023 1.677000 200 188 198
-0.730962 0.639958 1.677000 201 179 199
-0.727475 0.639827 1.669000 199 178 201
-0.723988 0.639668 1.661000 197 178 201
-0.720501 0.639481 1.653000 199 176 201
-0.717014 0.639265 1.645000 201 179 200
-0.713963 0.639412 1.638000 198 183 200
-0.710476 0.639143 1.630000 196 182 200
-0.706989 0.638845 1.622000 194 183 200
-0.703937 0.638915 1.615000 192 184 198
-0.700450 0.638563 1.607000 192 183 195
-0.697399 0.638582 1.600000 192 183 197
-0.690861 0.635370 1.585000 193 186 199
-0.684759 0.632508 1.571000 194 185 200
-0.678221 0.629193 1.556000 194 187 201
-0.675170 0.629074 1.549000 194 184 200
-0.672119 0.628930 1.542000 196 179 199
-0.669503 0.629172 1.536000 199 180 198
-0.663401 0.626101 1.522000 199 192 197
-0.660350 0.625874 1.515000 200 185 197
-0.657735 0.626037 1.509000 199 182 197
-0.657735 0.628678 1.509000 199 185 197
-0.654684 0.628391 1.502000 199 190 198
-1.352296 -0.190848 3.115000 101 44 45
-1.352296 -0.185395 3.115000 114 52 39
-1.352296 -0.179943 3.115000 128 105 34
-1.352296 -0.174490 3.115000 141 154 80
-1.352296 -0.169037 3.115000 137 118 127
-1.364452 -0.165055 3.143000 133 165 120
-1.364452 -0.159553 3.143000 139 129 114
-1.364452 -0.154051 3.143000 146 179 122
-1.377041 -0.149920 3.172000 158 143 131
-1.389631 -0.145687 3.201000 170 198 145
-1.389631 -0.140084 3.201000 176 157 159
-1.389631 -0.134480 3.201000 183 220 170
-1.352296 0.016358 3.115000 98 53 31
-1.364452 0.022007 3.143000 97 50 29
-1.377041 0.027763 3.172000 96 48 27
-1.377041 0.033316 3.172000 96 50 27
-1.377041 0.038868 3.172000 93 48 28
-1.389631 0.044827 3.201000 91 49 29
-1.389631 0.050430 3.201000 92 50 30
-1.389631 0.056034 3.201000 93 52 31
-1.389631 0.061637 3.201000 95 51 33
-1.389631 0.067240 3.201000 97 52 31
-1.389631 0.072844 3.201000 91 51 30
-1.389631 0.078447 3.201000 84 54 30
-1.389631 0.084050 3.201000 87 51 31
-1.389631 0.089654 3.201000 90 54 30
-1.389631 0.095257 3.201000 88 53 30
-1.389631 0.100860 3.201000 86 54 28
-1.389631 0.106464 3.201000 88 50 26
-1.389631 0.112067 3.201000 91 47 27
-1.389631 0.117671 3.201000 91 44 28
-1.389631 0.123274 3.201000 91 46 27
-1.389631 0.128877 3.201000 91 49 27
-1.389631 0.134480 3.201000 91 49 29
-1.389631 0.140084 3.201000 90 49 32
-1.377041 0.144367 3.172000 90 50 31
-1.377041 0.149920 3.172000 92 50 30
-1.377041 0.155472 3.172000 94 50 34
-1.377041 0.161025 3.172000 92 49 39
-1.389631 0.168101 3.201000 91 50 40
-1.377041 0.172130 3.172000 90 57 41
-1.377041 0.177683 3.172000 89 64 51
-1.377041 0.183235 3.172000 87 65 61
-1.389631 0.190514 3.201000 86 63 64
-1.402655 0.197955 3.231000 86 61 67
-1.402655 0.203611 3.231000 86 60 66
-1.402655 0.209267 3.231000 86 63 65
-1.471680 0.225500 3.390000 86 66 61
-1.486006 0.233687 3.423000 85 62 58
-1.486006 0.239679 3.423000 85 58 57
-1.486006 0.245670 3.423000 86 57 56
-1.486006 0.251662 3.423000 87 57 55
-1.486006 0.257654 3.423000 86 57 54
-1.471680 0.261105 3.390000 85 56 52
-1.457354 0.264439 3.357000 86 52 51
-1.457354 0.270316 3.357000 87 52 48
-1.471680 0.278907 3.390000 85 58 45
-1.457354 0.282069 3.357000 83 61 49
-1.457354 0.287945 3.357000 81 60 54
-1.471680 0.296710 3.390000 80 60 55
-1.486006 0.305590 3.423000 81 55 56
-1.486006 0.311582 3.423000 82 53 61
-1.501201 0.320821 3.458000 81 55 66
-1.501201 0.326874 3.458000 79 56 60
-1.486006 0.329558 3.423000 79 57 54
-1.501201 0.338981 3.458000 80 59 52
-1.486006 0.341542 3.423000 79 58 51
-1.486006 0.347534 3.423000 79 58 50
-1.486006 0.353526 3.423000 78 54 49
-1.486006 0.359518 3.423000 78 54 56
-1.486006 0.365510 3.423000 80 52 63
-1.501201 0.375300 3.458000 83 51 58
-1.501201 0.381354 3.458000 80 52 53
-1.501201 0.387407 3.458000 77 55 45
-1.501201 0.393460 3.458000 80 51 37
-1.501201 0.399513 3.458000 82 51 42
-1.501201 0.405566 3.458000 81 54 47
-1.501201 0.411620 3.458000 80 56 47
-1.501201 0.417673 3.458000 80 56 47
-1.501201 0.423726 3.458000 81 55 45
-1.516395 0.434129 3.493000 80 57 44
-1.501201 0.435833 3.458000 80 58 45
-1.501201 0.441886 3.458000 80 55 46
-1.501201 0.447939 3.458000 80 54 44
-1.516395 0.458587 3.493000 81 51 42
-1.516395 0.464702 3.493000 83 49 43
-1.501201 0.466099 3.458000 80 50 45
-1.501201 0.472152 3.458000 76 49 50
-1.501201 0.478205 3.458000 76 50 55
-1.501201 0.484258 3.458000 76 53 48
-1.501201 0.490312 3.458000 77 49 42
-1.501201 0.496365 3.458000 78 50 37
-1.501201 0.502418 3.458000 74 49 32
-1.501201 0.508471 3.458000 69 47 33
-1.501201 0.514525 3.458000 68 45 34
-1.486006 0.515309 3.423000 67 42 27
-1.486006 0.521301 3.423000 70 43 20
-1.486006 0.527293 3.423000 72 44 29
-1.486006 0.533285 3.423000 76 40 39
-1.486006 0.539277 3.423000 79 40 38
-1.501201 0.550844 3.458000 75 43 38
-1.486006 0.551261 3.423000 71 44 33
-1.501201 0.562950 3.458000 68 44 28
-1.501201 0.569004 3.458000 66 42 31
-1.501201 0.575057 3.458000 63 43 34
-1.486006 0.575228 3.423000 61 43 36
-1.486006 0.581220 3.423000 68 41 39
-1.486006 0.587212 3.423000 75 42 36
-1.486006 0.593204 3.423000 68 38 33
-1.471680 0.593420 3.390000 62 36 31
-1.471680 0.599354 3.390000 60 33 30
-1.501201 0.617429 3.458000 58 34 26
-1.486006 0.617172 3.423000 56 35 22
-1.486006 0.623164 3.423000 54 36 25
-1.501201 0.635589 3.458000 55 33 29
-1.501201 0.641642 3.458000 57 32 37
-1.501201 0.647696 3.458000 54 30 45
-1.486006 0.647132 3.423000 51 30 33
-1.486006 0.653124 3.423000 53 32 21
-1.471680 0.652762 3.390000 54 34 17
-1.486006 0.665108 3.423000 54 34 14
-1.471680 0.664630 3.390000 54 34 17
-1.471680 0.670564 3.390000 53 28 21
-1.471680 0.676498 3.390000 52 26 18
-1.471680 0.682433 3.390000 52 27 16
-1.471680 0.688367 3.390000 52 27 15
-1.471680 0.694301 3.390000 50 25 14
-1.471680 0.700235 3.390000 49 29 13
-1.471680 0.706169 3.390000 48 24 12
-1.457354 0.705172 3.357000 47 21 15
-1.457354 0.711048 3.357000 43 18 19
-1.457354 0.716924 3.357000 39 17 15
-1.457354 0.722801 3.357000 41 15 11
-1.457354 0.728677 3.357000 43 12 9
-1.457354 0.734554 3.357000 42 11 8
-1.457354 0.740430 3.357000 41 12 7
-1.457354 0.746306 3.357000 36 13 7
-1.457354 0.752183 3.357000 31 13 6
-1.457354 0.758059 3.357000 26 11 5
-1.071852 0.700162 2.469000 139 123 139
-1.071852 0.704484 2.469000 140 122 142
-1.064038 0.703638 2.451000 141 121 142
-1.049278 0.698108 2.417000 144 125 142
-1.041898 0.697399 2.400000 147 130 146
-1.034952 0.696923 2.384000 155 134 151
-1.027571 0.696097 2.367000 162 138 153
-1.013680 0.690774 2.335000 160 139 155
-1.007168 0.690397 2.320000 158 140 148
-1.000222 0.689669 2.304000 158 144 142
-0.993710 0.689186 2.289000 159 147 153
-0.993710 0.693193 2.289000 160 145 165
-0.987198 0.692631 2.274000 162 144 165
-0.974174 0.687422 2.244000 164 148 165
-0.968096 0.687036 2.230000 166 152 167
-0.961585 0.686292 2.215000 167 154 170
-0.955507 0.685808 2.201000 167 156 171
-0.932064 0.672740 2.147000 168 155 173
-0.932064 0.676498 2.147000 169 155 174
-0.925987 0.675821 2.133000 172 154 176
-0.914699 0.671271 2.107000 175 154 177
-0.909490 0.671116 2.095000 176 160 179
-0.898203 0.666408 2.069000 178 163 181
-0.882574 0.658372 2.033000 177 163 183
-0.877365 0.658024 2.021000 177 164 189
-0.882574 0.665489 2.033000 177 163 195
-0.869550 0.659175 2.003000 178 165 186
-0.862170 0.657057 1.986000 178 166 177
-0.862170 0.660534 1.986000 178 166 182
-0.857395 0.660333 1.975000 179 166 187
-0.857395 0.663790 1.975000 181 166 188
-0.857395 0.667247 1.975000 182 167 190
-0.852620 0.666969 1.964000 183 167 189
-0.847410 0.666310 1.952000 182 169 189
-0.828743 0.654974 1.909000 181 171 190
-0.824401 0.654867 1.899000 183 172 191
-0.819626 0.654379 1.888000 184 172 189
-0.815285 0.654201 1.878000 186 176 187
-0.810944 0.653987 1.868000 187 179 191
-0.810944 0.657257 1.868000 187 180 195
-0.806602 0.656991 1.858000 187 182 197
-0.802261 0.656690 1.848000 187 180 199
-0.797920 0.656354 1.838000 186 178 198
-0.793579 0.655982 1.828000 185 177 197
-0.789672 0.655937 1.819000 184 178 195
-0.785330 0.655498 1.809000 188 179 194
-0.777082 0.651746 1.790000 192 181 197
-0.773175 0.651587 1.781000 188 181 200
-0.761454 0.644779 1.754000 185 183 197
-0.757546 0.644525 1.745000 187 181 195
-0.750166 0.641271 1.728000 190 181 195
-0.746259 0.640940 1.719000 192 180 196
-0.742786 0.640953 1.711000 195 180 193
-0.735406 0.637550 1.694000 196 178 190
-0.731933 0.637490 1.686000 197 178 194
-0.728026 0.637023 1.677000 197 179 198
-0.724553 0.636906 1.669000 197 173 199
-0.721080 0.636760 1.661000 196 178 200
-0.721080 0.639668 1.661000 195 181 200
-0.717607 0.639481 1.653000 196 178 201
-0.711095 0.636545 1.638000 198 173 201
-0.711095 0.639412 1.638000 196 177 201
-0.707622 0.639143 1.630000 195 182 202
-0.704149 0.638845 1.622000 192 182 204
-0.697637 0.635750 1.607000 189 183 198
-0.694598 0.635782 1.600000 189 182 193
-0.694598 0.638582 1.600000 190 183 196
-0.685048 0.632564 1.578000 192 185 199
-0.678536 0.629287 1.563000 195 186 203
-0.678536 0.632023 1.563000 195 184 208
-0.669419 0.626231 1.542000 195 183 203
-0.669419 0.628930 1.542000 196 179 199
-0.669419 0.631630 1.542000 197 175 197
-0.660737 0.626101 1.522000 198 181 196
-0.657698 0.625874 1.515000 199 180 196
-0.655093 0.626037 1.509000 198 183 197
-0.652054 0.625762 1.502000 197 188 198
-0.652054 0.628391 1.502000 197 188 199
-1.346844 -0.190848 3.115000 97 50 28
-1.346844 -0.185395 3.115000 100 58 33
-1.346844 -0.179943 3.115000 124 87 39
-1.346844 -0.174490 3.115000 149 125 81
-1.346844 -0.169037 3.115000 167 146 123
-1.358950 -0.165055 3.143000 186 150 117
-1.358950 -0.159553 3.143000 187 173 111
-1.358950 -0.154051 3.143000 188 164 112
-1.371489 -0.149920 3.172000 200 197 114
-1.384028 -0.145687 3.201000 212 180 120
-1.384028 -0.140084 3.201000 216 210 126
-1.384028 -0.134480 3.201000 220 185 132
-1.384028 0.022414 3.201000 98 50 33
-1.384028 0.028017 3.201000 97 46 33
-1.384028 0.033620 3.201000 96 48 32
-1.384028 0.039223 3.201000 95 47 32
-1.384028 0.044827 3.201000 95 49 30
-1.384028 0.050430 3.201000 94 53 28
-1.384028 0.056034 3.201000 94 52 28
-1.384028 0.061637 3.201000 98 51 29
-1.371489 0.066631 3.172000 102 50 25
-1.384028 0.072844 3.201000 92 51 21
-1.384028 0.078447 3.201000 82 50 23
-1.384028 0.084050 3.201000 86 47 26
-1.384028 0.089654 3.201000 90 50 27
-1.384028 0.095257 3.201000 87 51 28
-1.384028 0.100860 3.201000 84 50 27
-1.396999 0.107462 3.231000 87 50 26
-1.396999 0.113117 3.231000 91 45 24
-1.396999 0.118773 3.231000 93 42 23
-1.396999 0.124429 3.231000 95 47 29
-1.396999 0.130085 3.231000 92 50 36
-1.396999 0.135741 3.231000 90 49 34
-1.384028 0.140084 3.201000 90 49 32
-1.384028 0.145687 3.201000 90 49 34
-1.371489 0.149920 3.172000 92 47 35
-1.384028 0.156894 3.201000 95 48 36
-1.384028 0.162497 3.201000 93 51 38
-1.384028 0.168101 3.201000 92 52 39
-1.384028 0.173704 3.201000 91 58 41
-1.384028 0.179307 3.201000 90 63 50
-1.384028 0.184911 3.201000 88 66 59
-1.410403 0.194145 3.262000 86 64 64
-1.410403 0.199855 3.262000 86 63 69
-1.423806 0.207518 3.293000 87 62 67
-1.437210 0.215291 3.324000 87 66 66
-1.451478 0.223304 3.357000 87 65 62
-1.465746 0.231434 3.390000 86 63 58
-1.480015 0.239679 3.423000 86 61 57
-1.480015 0.245670 3.423000 87 60 56
-1.465746 0.249236 3.390000 88 58 56
-1.480015 0.257654 3.423000 85 58 56
-1.465746 0.261105 3.390000 83 54 54
-1.465746 0.267039 3.390000 83 49 53
-1.480015 0.275630 3.423000 83 52 48
-1.480015 0.281622 3.423000 82 59 43
-1.465746 0.284841 3.390000 82 60 47
-1.480015 0.293606 3.423000 82 64 52
-1.480015 0.299598 3.423000 82 59 52
-1.495148 0.308715 3.458000 89 54 53
-1.495148 0.314768 3.458000 96 55 57
-1.495148 0.320821 3.458000 88 58 60
-1.495148 0.326874 3.458000 80 57 56
-1.480015 0.329558 3.423000 81 59 51
-1.480015 0.335550 3.423000 82 59 52
-1.480015 0.341542 3.423000 81 56 53
-1.480015 0.347534 3.423000 80 55 52
-1.480015 0.353526 3.423000 79 54 51
-1.480015 0.359518 3.423000 79 52 54
-1.480015 0.365510 3.423000 83 51 58
-1.495148 0.375300 3.458000 87 49 55
-1.495148 0.381354 3.458000 83 51 52
-1.495148 0.387407 3.458000 80 50 48
-1.495148 0.393460 3.458000 81 48 45
-1.495148 0.399513 3.458000 82 50 45
-1.495148 0.405566 3.458000 80 55 45
-1.495148 0.411620 3.458000 79 56 46
-1.495148 0.417673 3.458000 79 58 48
-1.495148 0.423726 3.458000 80 56 49
-1.510281 0.434129 3.493000 79 56 50
-1.510281 0.440244 3.493000 79 55 47
-1.510281 0.446359 3.493000 79 53 45
-1.510281 0.452473 3.493000 80 52 42
-1.510281 0.458587 3.493000 83 53 40
-1.510281 0.464702 3.493000 86 50 42
-1.510281 0.470816 3.493000 81 49 45
-1.510281 0.476931 3.493000 76 49 47
-1.510281 0.483045 3.493000 76 49 49
-1.510281 0.489160 3.493000 76 49 45
-1.510281 0.495274 3.493000 78 46 41
-1.510281 0.501389 3.493000 81 47 35
-1.495148 0.502418 3.458000 74 49 30
-1.495148 0.508471 3.458000 67 46 33
-1.495148 0.514525 3.458000 67 45 37
-1.495148 0.520578 3.458000 67 43 33
-1.495148 0.526631 3.458000 71 42 30
-1.495148 0.532684 3.458000 75 40 36
-1.495148 0.538737 3.458000 81 35 41
-1.495148 0.544791 3.458000 87 40 38
-1.495148 0.550844 3.458000 80 47 36
-1.495148 0.556897 3.458000 74 45 33
-1.510281 0.568648 3.493000 70 45 31
-1.510281 0.574763 3.493000 67 44 28
-1.495148 0.575057 3.458000 60 45 26
-1.480015 0.575228 3.423000 53 42 30
-1.480015 0.581220 3.423000 61 41 34
-1.480015 0.587212 3.423000 69 38 34
-1.480015 0.593204 3.423000 64 36 33
-1.480015 0.599196 3.423000 59 34 32
-1.480015 0.605188 3.423000 57 30 32
-1.495148 0.617429 3.458000 56 33 28
-1.495148 0.623483 3.458000 54 36 24
-1.495148 0.629536 3.458000 52 34 25
-1.495148 0.635589 3.458000 53 36 26
-1.495148 0.641642 3.458000 55 32 30
-1.495148 0.647696 3.458000 52 29 35
-1.495148 0.653749 3.458000 49 31 28
-1.480015 0.653124 3.423000 52 34 21
-1.480015 0.659116 3.423000 55 33 15
-1.480015 0.665108 3.423000 54 34 10
-1.480015 0.671100 3.423000 54 30 15
-1.465746 0.670564 3.390000 54 23 19
-1.465746 0.676498 3.390000 54 24 18
-1.465746 0.682433 3.390000 52 29 16
-1.480015 0.695068 3.423000 50 25 18
-1.465746 0.694301 3.390000 44 21 19
-1.465746 0.700235 3.390000 38 24 18
-1.480015 0.713044 3.423000 42 23 16
-1.465746 0.712104 3.390000 46 20 20
-1.451478 0.711048 3.357000 45 17 23
-1.451478 0.716924 3.357000 45 16 17
-1.451478 0.722801 3.357000 45 17 12
-1.451478 0.728677 3.357000 45 13 11
-1.451478 0.734554 3.357000 43 10 11
-1.451478 0.740430 3.357000 41 11 10
-1.451478 0.746306 3.357000 36 13 10
-1.451478 0.752183 3.357000 31 11 9
-1.451478 0.758059 3.357000 30 10 8
-1.067530 0.700162 2.469000 140 124 139
-1.067530 0.704484 2.469000 141 124 142
-1.059748 0.703638 2.451000 143 123 144
-1.045047 0.698108 2.417000 147 126 145
-1.037696 0.697399 2.400000 151 130 149
-1.030779 0.696923 2.384000 159 136 152
-1.023428 0.696097 2.367000 168 137 154
-1.009592 0.690774 2.335000 164 139 156
-1.003107 0.690397 2.320000 160 142 153
-0.996189 0.689669 2.304000 160 145 150
-0.989703 0.689186 2.289000 161 147 160
-0.989703 0.693193 2.289000 161 148 170
-0.989703 0.697200 2.289000 162 147 168
