ply
format ascii 1.0
element vertex 1296
property float x
property float y
property float z
property uchar red
property uchar green
property uchar blue
end_header
0.022923 0.939835 2.619000 80 67 77
0.022748 0.937207 2.599000 78 66 78
0.022581 0.934872 2.580000 80 68 80
0.022406 0.932106 2.560000 82 67 77
0.022406 0.936588 2.560000 83 67 75
0.022249 0.934452 2.542000 85 65 76
0.022083 0.931884 2.523000 82 64 76
0.021925 0.929621 2.505000 80 65 78
0.021610 0.920583 2.469000 81 65 81
0.021304 0.911794 2.434000 83 66 80
0.021006 0.903258 2.400000 80 67 80
0.020866 0.901410 2.384000 78 67 79
0.020437 0.886970 2.335000 78 69 77
0.020437 0.891057 2.335000 79 67 78
0.020306 0.889394 2.320000 78 66 80
0.020034 0.881517 2.289000 78 66 75
0.019903 0.879721 2.274000 79 66 71
0.032612 1.027273 3.105000 79 66 72
0.032423 1.026721 3.087000 81 66 75
0.032129 1.022763 3.059000 80 68 79
0.032129 1.028118 3.059000 79 69 83
0.031856 1.024689 3.033000 79 67 88
0.031572 1.020829 3.006000 80 67 85
0.031036 1.008682 2.955000 79 66 82
0.030511 0.996700 2.905000 78 67 79
0.030007 0.985232 2.857000 77 67 76
0.029766 0.982262 2.834000 76 69 78
0.029282 0.971199 2.788000 78 69 80
0.029041 0.968027 2.765000 80 69 80
0.028810 0.965126 2.743000 79 69 81
0.028589 0.962502 2.722000 78 69 80
0.028148 0.952342 2.680000 79 69 80
0.027717 0.942392 2.639000 81 71 79
0.027507 0.939835 2.619000 78 67 79
0.027297 0.937207 2.599000 76 64 80
0.027098 0.934872 2.580000 78 65 82
0.026888 0.932106 2.560000 81 67 76
0.026888 0.936588 2.560000 82 66 71
0.026699 0.934452 2.542000 82 64 73
0.026499 0.931884 2.523000 81 64 76
0.026310 0.929621 2.505000 80 65 77
0.025932 0.920583 2.469000 80 66 79
0.025564 0.911794 2.434000 81 65 80
0.025386 0.909656 2.417000 79 66 82
0.025039 0.901410 2.384000 78 67 79
0.024693 0.893048 2.351000 79 68 77
0.024525 0.891057 2.335000 80 67 78
0.024367 0.889394 2.320000 79 66 79
0.024041 0.881517 2.289000 79 65 72
0.023884 0.879721 2.274000 79 65 66
0.037937 1.024295 3.096000 78 69 75
0.037826 1.026721 3.087000 80 69 76
0.037483 1.022763 3.059000 79 72 77
0.037165 1.019379 3.033000 79 70 80
0.036834 1.015567 3.006000 79 71 82
0.036515 1.011999 2.980000 80 69 81
0.035903 1.000148 2.930000 79 66 81
0.035596 0.996700 2.905000 78 67 80
0.035302 0.993509 2.881000 76 67 79
0.035008 0.990233 2.857000 74 68 79
0.034432 0.978862 2.810000 77 69 79
0.033881 0.968027 2.765000 80 69 80
0.033611 0.965126 2.743000 78 70 80
0.033354 0.962502 2.722000 77 69 81
0.032839 0.952342 2.680000 78 69 81
0.032337 0.942392 2.639000 80 69 81
0.032092 0.939835 2.619000 77 67 81
0.031847 0.937207 2.599000 74 66 82
0.031614 0.934872 2.580000 77 64 83
0.031614 0.939389 2.580000 81 66 79
0.031369 0.936588 2.560000 80 66 75
0.031148 0.934452 2.542000 80 66 76
0.030916 0.931884 2.523000 80 64 77
0.030474 0.922941 2.487000 80 66 75
0.030254 0.920583 2.469000 80 70 73
0.029825 0.911794 2.434000 80 67 77
0.029617 0.909656 2.417000 79 67 80
0.029212 0.901410 2.384000 78 69 79
0.028808 0.893048 2.351000 80 69 78
0.028612 0.891057 2.335000 82 68 79
0.028428 0.889394 2.320000 81 67 80
0.028232 0.887294 2.304000 80 66 76
0.027864 0.879721 2.274000 79 67 73
0.043230 1.021317 3.087000 80 68 78
0.043230 1.026721 3.087000 82 69 77
0.042838 1.022763 3.059000 82 70 76
0.042474 1.019379 3.033000 81 71 76
0.042096 1.015567 3.006000 82 72 77
0.041382 1.003509 2.955000 83 74 78
0.041032 1.000148 2.930000 81 70 80
0.040682 0.996700 2.905000 79 71 81
0.040345 0.993509 2.881000 77 70 83
0.040009 0.990233 2.857000 75 69 81
0.039351 0.978862 2.810000 77 69 79
0.038721 0.968027 2.765000 80 69 79
0.038413 0.965126 2.743000 79 69 80
0.038119 0.962502 2.722000 79 68 81
0.037531 0.952342 2.680000 79 70 83
0.036957 0.942392 2.639000 80 71 83
0.036676 0.939835 2.619000 78 70 83
0.036396 0.937207 2.599000 77 71 84
0.036130 0.934872 2.580000 78 69 85
0.036130 0.939389 2.580000 80 68 82
0.035850 0.936588 2.560000 80 68 80
0.035598 0.934452 2.542000 81 70 79
0.035332 0.931884 2.523000 82 67 78
0.034828 0.922941 2.487000 83 66 73
0.034324 0.913871 2.451000 82 69 68
0.034086 0.911794 2.434000 81 69 73
0.033610 0.903258 2.400000 80 70 79
0.033386 0.901410 2.384000 79 74 79
0.032923 0.893048 2.351000 81 71 79
0.032699 0.891057 2.335000 83 69 80
0.032489 0.889394 2.320000 82 68 82
0.032265 0.887294 2.304000 80 68 81
0.032055 0.885524 2.289000 79 67 80
0.048634 1.021317 3.087000 82 68 76
0.048634 1.026721 3.087000 85 68 76
0.048193 1.022763 3.059000 84 71 76
0.047358 1.010305 3.006000 84 71 77
0.046948 1.006783 2.980000 85 72 78
0.046555 1.003509 2.955000 86 73 79
0.046161 1.000148 2.930000 83 71 80
0.045767 0.996700 2.905000 80 72 80
0.045767 1.001785 2.905000 78 73 81
0.045011 0.990233 2.857000 77 71 81
0.044648 0.987223 2.834000 78 70 80
0.043561 0.968027 2.765000 80 70 80
0.043215 0.965126 2.743000 80 70 80
0.042884 0.962502 2.722000 81 70 79
0.042222 0.952342 2.680000 80 72 79
0.041576 0.942392 2.639000 80 73 81
0.041261 0.939835 2.619000 80 72 83
0.040946 0.937207 2.599000 80 72 83
0.040647 0.934872 2.580000 79 74 83
0.040647 0.939389 2.580000 79 72 81
0.040332 0.936588 2.560000 81 71 79
0.040048 0.934452 2.542000 83 71 79
0.039749 0.931884 2.523000 85 70 79
0.038898 0.916261 2.469000 87 70 76
0.038346 0.907533 2.434000 84 72 73
0.038079 0.905425 2.417000 82 72 77
0.037811 0.903258 2.400000 81 73 82
0.037559 0.901410 2.384000 80 73 81
0.037039 0.893048 2.351000 82 72 81
0.036787 0.891057 2.335000 85 69 81
0.036550 0.889394 2.320000 83 68 81
0.036062 0.881517 2.289000 81 68 78
0.035826 0.879721 2.274000 80 67 75
0.054038 1.021317 3.087000 80 66 75
0.054038 1.026721 3.087000 82 67 75
0.053548 1.022763 3.059000 82 70 76
0.052165 1.001566 2.980000 82 71 77
0.051727 0.998337 2.955000 82 72 79
0.051290 0.995019 2.930000 83 76 79
0.050852 0.991615 2.905000 82 73 80
0.050852 0.996700 2.905000 81 73 80
0.050432 0.993509 2.881000 80 72 80
0.050012 0.990233 2.857000 79 72 81
0.049609 0.987223 2.834000 80 72 82
0.048401 0.968027 2.765000 81 73 81
0.048016 0.965126 2.743000 83 72 80
0.047649 0.962502 2.722000 84 73 77
0.046913 0.952342 2.680000 82 74 75
0.046196 0.942392 2.639000 81 77 79
0.045846 0.939835 2.619000 80 75 83
0.045495 0.937207 2.599000 80 74 82
0.045163 0.934872 2.580000 80 75 81
0.044813 0.932106 2.560000 80 76 80
0.044813 0.936588 2.560000 81 74 79
0.044498 0.934452 2.542000 83 74 80
0.044165 0.931884 2.523000 84 73 81
0.043535 0.922941 2.487000 85 72 79
0.042905 0.913871 2.451000 83 73 78
0.042607 0.911794 2.434000 81 74 82
0.042012 0.903258 2.400000 80 74 86
0.041732 0.901410 2.384000 79 74 84
0.041154 0.893048 2.351000 80 72 83
0.041154 0.897163 2.351000 82 69 82
0.040874 0.895145 2.335000 81 69 81
0.040332 0.887294 2.304000 80 71 75
0.040069 0.885524 2.289000 80 70 70
0.059981 1.030581 3.115000 78 65 72
0.059981 1.036034 3.115000 80 67 74
0.059442 1.032125 3.087000 80 71 76
0.056419 0.984761 2.930000 80 71 77
0.056419 0.989890 2.930000 80 71 79
0.056419 0.995019 2.930000 81 73 79
0.055937 0.991615 2.905000 82 74 80
0.055937 0.996700 2.905000 83 73 80
0.055475 0.993509 2.881000 82 73 80
0.055475 0.998552 2.881000 81 73 80
0.054570 0.987223 2.834000 82 74 81
0.053241 0.968027 2.765000 83 73 81
0.052818 0.965126 2.743000 85 72 81
0.052818 0.969928 2.743000 88 73 78
0.052009 0.959805 2.701000 85 76 74
0.051200 0.949534 2.659000 82 77 78
0.050430 0.939835 2.619000 81 77 81
0.050045 0.937207 2.599000 81 76 81
0.049679 0.934872 2.580000 81 77 80
0.049294 0.932106 2.560000 82 77 80
0.048948 0.930002 2.542000 82 78 80
0.048582 0.927468 2.523000 83 76 81
0.048235 0.925236 2.505000 83 76 83
0.047888 0.922941 2.487000 83 74 82
0.047195 0.913871 2.451000 82 76 82
0.046541 0.905425 2.417000 81 76 85
0.046213 0.903258 2.400000 79 76 88
0.045905 0.901410 2.384000 78 75 86
0.045270 0.893048 2.351000 79 74 85
0.044962 0.891057 2.335000 80 70 83
0.044673 0.889394 2.320000 79 69 81
0.044365 0.887294 2.304000 79 72 77
0.043787 0.879721 2.274000 80 73 74
0.065434 1.030581 3.115000 77 64 69
0.065434 1.036034 3.115000 79 67 72
0.064845 1.032125 3.087000 79 70 76
0.062073 0.993164 2.955000 80 71 77
0.061548 0.989890 2.930000 81 71 79
0.061548 0.995019 2.930000 82 74 79
0.061022 0.991615 2.905000 83 74 80
0.060518 0.988465 2.881000 85 74 80
0.060518 0.993509 2.881000 84 73 81
0.060014 0.990233 2.857000 83 74 80
0.059531 0.987223 2.834000 83 74 80
0.058565 0.976079 2.788000 83 75 81
0.058082 0.972867 2.765000 84 74 83
0.057619 0.969928 2.743000 86 73 78
0.056737 0.959805 2.701000 85 76 74
0.056296 0.957034 2.680000 83 80 77
0.055435 0.947012 2.639000 83 79 80
0.054595 0.937207 2.599000 82 79 80
0.054195 0.934872 2.580000 83 78 80
0.053775 0.932106 2.560000 83 78 80
0.053397 0.930002 2.542000 84 78 81
0.052620 0.920851 2.505000 85 79 83
0.052242 0.918587 2.487000 84 76 86
0.052242 0.922941 2.487000 84 74 86
0.051486 0.913871 2.451000 83 76 86
0.050771 0.905425 2.417000 83 79 88
0.050414 0.903258 2.400000 82 78 91
0.050078 0.901410 2.384000 81 76 89
0.049385 0.893048 2.351000 81 74 87
0.049049 0.891057 2.335000 80 69 84
0.048734 0.889394 2.320000 80 72 81
0.048398 0.887294 2.304000 81 76 80
0.047768 0.879721 2.274000 81 75 79
0.071524 1.039845 3.143000 76 64 68
0.071524 1.045346 3.143000 78 68 72
0.067245 0.987991 2.955000 79 72 76
0.067245 0.993164 2.955000 80 69 75
0.066677 0.989890 2.930000 82 71 75
0.066677 0.995019 2.930000 84 72 78
0.066108 0.991615 2.905000 85 74 81
0.065561 0.988465 2.881000 87 72 83
0.065561 0.993509 2.881000 86 71 85
0.065561 0.998552 2.881000 85 72 83
0.065015 0.995235 2.857000 84 74 82
0.063445 0.976079 2.788000 83 74 82
0.062421 0.965126 2.743000 84 76 82
0.062421 0.969928 2.743000 85 76 80
0.061465 0.959805 2.701000 85 78 78
0.061465 0.964533 2.701000 85 79 80
0.060510 0.954189 2.659000 84 82 82
0.059144 0.937207 2.599000 84 80 82
0.058257 0.927625 2.560000 84 79 83
0.057847 0.925553 2.542000 85 78 82
0.057415 0.923051 2.523000 86 79 81
0.057005 0.920851 2.505000 87 79 83
0.056595 0.918587 2.487000 86 77 85
0.056595 0.922941 2.487000 85 76 86
0.056186 0.920583 2.469000 85 77 88
0.055389 0.911794 2.434000 85 79 88
0.054616 0.903258 2.400000 85 81 88
0.053865 0.894982 2.367000 85 79 88
0.053501 0.893048 2.351000 83 77 88
0.052795 0.885333 2.320000 81 75 85
0.052795 0.889394 2.320000 82 76 83
0.052431 0.887294 2.304000 83 76 83
0.051748 0.879721 2.274000 83 77 83
0.077025 1.039845 3.143000 76 62 68
0.077025 1.045346 3.143000 79 69 72
0.071805 0.989890 2.930000 82 68 72
0.071805 0.995019 2.930000 82 69 77
0.071193 0.991615 2.905000 83 70 82
0.070605 0.988465 2.881000 83 69 85
0.070605 0.993509 2.881000 82 69 89
0.070605 0.998552 2.881000 81 70 86
0.070016 0.995235 2.857000 82 71 84
0.068326 0.976079 2.788000 83 72 83
0.067223 0.965126 2.743000 84 75 82
0.066708 0.962502 2.722000 85 78 82
0.066193 0.959805 2.701000 86 77 83
0.065679 0.957034 2.680000 88 78 83
0.064674 0.947012 2.639000 87 80 84
0.063694 0.937207 2.599000 86 80 85
0.062738 0.927625 2.560000 86 79 87
0.062297 0.925553 2.542000 87 77 84
0.061831 0.923051 2.523000 87 79 81
0.061390 0.920851 2.505000 87 82 82
0.061390 0.925236 2.505000 87 79 84
0.060949 0.922941 2.487000 87 77 87
0.060508 0.920583 2.469000 87 78 90
0.060067 0.918162 2.451000 87 79 88
0.058817 0.903258 2.400000 87 81 86
0.058008 0.894982 2.367000 87 84 88
0.057224 0.886970 2.335000 85 80 90
0.056856 0.885333 2.320000 83 79 87
0.056464 0.883261 2.304000 83 76 85
0.056097 0.881517 2.289000 84 76 86
0.055729 0.879721 2.274000 84 77 87
0.076934 0.989890 2.930000 83 68 73
0.076934 0.995019 2.930000 81 70 75
0.076278 0.991615 2.905000 80 70 78
0.075648 0.988465 2.881000 80 69 80
0.075648 0.993509 2.881000 78 68 83
0.075648 0.998552 2.881000 77 69 81
0.075018 0.995235 2.857000 80 71 80
0.073784 0.983781 2.810000 83 72 81
0.072602 0.972867 2.765000 84 76 82
0.071473 0.962502 2.722000 86 76 83
0.070370 0.952342 2.680000 88 77 85
0.069819 0.949534 2.659000 91 78 84
0.069294 0.947012 2.639000 89 80 83
0.068243 0.937207 2.599000 88 80 85
0.067219 0.927625 2.560000 88 80 87
0.066248 0.918635 2.523000 89 79 88
0.066248 0.923051 2.523000 88 81 90
0.065775 0.920851 2.505000 88 82 86
0.065775 0.925236 2.505000 88 82 83
0.065302 0.922941 2.487000 89 80 85
0.064830 0.920583 2.469000 89 80 87
0.064357 0.918162 2.451000 90 81 87
0.063464 0.909656 2.417000 89 83 87
0.062598 0.901410 2.384000 89 84 89
0.061731 0.893048 2.351000 87 83 90
0.060917 0.885333 2.320000 85 79 88
0.060497 0.883261 2.304000 85 74 87
0.060103 0.881517 2.289000 85 76 87
0.059316 0.873918 2.259000 86 77 87
0.080019 0.985232 2.857000 79 69 77
0.080691 0.998552 2.881000 77 69 76
0.080691 1.003595 2.881000 80 69 76
0.079375 0.992184 2.834000 83 69 79
0.078086 0.980959 2.788000 84 72 82
0.076826 0.969928 2.743000 85 76 85
0.074473 0.944880 2.659000 87 76 88
0.073913 0.942392 2.639000 89 77 85
0.073353 0.939835 2.619000 89 79 83
0.072261 0.930356 2.580000 88 81 85
0.071701 0.927625 2.560000 89 80 87
0.070664 0.918635 2.523000 89 79 93
0.070664 0.923051 2.523000 90 80 100
0.070160 0.920851 2.505000 91 83 91
0.069656 0.918587 2.487000 90 82 82
0.069656 0.922941 2.487000 89 81 83
0.069152 0.920583 2.469000 90 82 84
0.068648 0.918162 2.451000 91 84 86
0.067695 0.909656 2.417000 91 84 89
0.066771 0.901410 2.384000 91 86 90
0.065399 0.886970 2.335000 89 83 91
0.064979 0.885333 2.320000 87 81 90
0.064530 0.883261 2.304000 86 78 89
0.064110 0.881517 2.289000 86 78 88
0.063270 0.873918 2.259000 88 77 87
0.085020 0.985232 2.857000 79 70 72
0.085734 0.998552 2.881000 78 69 73
0.085020 0.995235 2.857000 80 68 75
0.084336 0.992184 2.834000 83 68 77
0.083621 0.988700 2.810000 83 69 79
0.082967 0.985840 2.788000 84 74 82
0.079128 0.944880 2.659000 86 77 86
0.078533 0.942392 2.639000 88 78 85
0.077937 0.939835 2.619000 88 80 84
0.076777 0.930356 2.580000 89 81 85
0.076182 0.927625 2.560000 89 81 87
0.075081 0.918635 2.523000 90 79 91
0.075081 0.923051 2.523000 92 79 95
0.074545 0.920851 2.505000 95 80 89
0.074009 0.918587 2.487000 92 82 83
0.074009 0.922941 2.487000 90 82 83
0.073474 0.920583 2.469000 91 85 84
0.072938 0.918162 2.451000 92 84 87
0.071926 0.909656 2.417000 93 86 91
0.070944 0.901410 2.384000 94 85 91
0.069962 0.893048 2.351000 91 84 92
0.069040 0.885333 2.320000 89 81 90
0.068564 0.883261 2.304000 88 79 89
0.068117 0.881517 2.289000 87 78 88
0.067224 0.873918 2.259000 90 78 87
0.090021 0.985232 2.857000 79 68 68
0.090021 0.990233 2.857000 79 70 71
0.090021 0.995235 2.857000 80 69 74
0.089296 0.992184 2.834000 82 69 75
0.087847 0.980959 2.788000 83 72 77
0.085767 0.962502 2.722000 85 77 80
0.083782 0.944880 2.659000 86 78 84
0.083152 0.942392 2.639000 87 80 85
0.082522 0.939835 2.619000 87 81 86
0.081892 0.937207 2.599000 88 82 86
0.080663 0.927625 2.560000 89 80 87
0.079497 0.918635 2.523000 90 80 89
0.079497 0.923051 2.523000 91 79 91
0.078930 0.920851 2.505000 92 79 88
0.078363 0.918587 2.487000 90 81 85
0.077796 0.916261 2.469000 88 82 84
0.077229 0.913871 2.451000 90 83 84
0.076693 0.911794 2.434000 93 83 89
0.075622 0.903258 2.400000 96 84 94
0.075117 0.901410 2.384000 99 86 93
0.074078 0.893048 2.351000 94 83 93
0.073101 0.885333 2.320000 90 82 91
0.072597 0.883261 2.304000 89 81 89
0.072124 0.881517 2.289000 89 80 88
0.071651 0.879721 2.274000 90 78 87
0.089834 0.955077 2.701000 86 74 81
0.087772 0.937773 2.639000 86 78 86
0.087772 0.942392 2.639000 86 79 86
0.087107 0.939835 2.619000 87 82 86
0.085809 0.930356 2.580000 88 80 87
0.085144 0.927625 2.560000 89 80 87
0.083914 0.918635 2.523000 90 79 88
0.083914 0.923051 2.523000 90 78 89
0.083315 0.920851 2.505000 90 79 88
0.083315 0.925236 2.505000 88 82 87
0.082716 0.922941 2.487000 86 82 88
0.081519 0.913871 2.451000 90 83 89
0.081519 0.918162 2.451000 94 83 94
0.080388 0.909656 2.417000 99 84 99
0.079291 0.901410 2.384000 104 83 96
0.078193 0.893048 2.351000 97 81 93
0.077162 0.885333 2.320000 91 81 90
0.076630 0.883261 2.304000 91 83 88
0.076131 0.881517 2.289000 91 81 89
0.075632 0.879721 2.274000 90 79 91
0.092391 0.937773 2.639000 84 72 88
0.092391 0.942392 2.639000 87 77 87
0.091691 0.939835 2.619000 87 79 87
0.090991 0.937207 2.599000 87 79 87
0.089626 0.927625 2.560000 88 79 88
0.088330 0.918635 2.523000 89 79 88
0.088330 0.923051 2.523000 89 78 88
0.087700 0.920851 2.505000 89 79 88
0.087070 0.918587 2.487000 89 80 89
0.086440 0.916261 2.469000 88 81 91
0.085810 0.913871 2.451000 91 82 94
0.085214 0.911794 2.434000 94 83 99
0.084024 0.903258 2.400000 97 84 104
0.082869 0.894982 2.367000 100 84 98
0.082309 0.893048 2.351000 95 83 93
0.081223 0.885333 2.320000 91 81 90
0.081223 0.889394 2.320000 92 83 88
0.080138 0.881517 2.289000 93 85 91
0.079613 0.879721 2.274000 92 82 95
0.096276 0.935250 2.619000 88 73 82
0.096276 0.939835 2.619000 87 78 82
0.094842 0.930356 2.580000 86 72 80
0.093445 0.921103 2.542000 87 79 79
0.092747 0.918635 2.523000 89 75 79
0.092747 0.923051 2.523000 89 78 80
0.092085 0.920851 2.505000 89 77 84
0.091423 0.918587 2.487000 90 79 87
0.090762 0.916261 2.469000 91 80 88
0.090100 0.913871 2.451000 93 82 90
0.089475 0.911794 2.434000 95 84 93
0.088225 0.903258 2.400000 96 86 97
0.087012 0.894982 2.367000 97 85 95
0.086424 0.893048 2.351000 94 86 94
0.085836 0.891057 2.335000 91 83 92
0.085284 0.889394 2.320000 93 84 91
0.084696 0.887294 2.304000 95 86 93
0.084145 0.885524 2.289000 94 86 96
0.099358 0.930356 2.580000 82 54 73
0.097895 0.921103 2.542000 78 50 70
0.097163 0.918635 2.523000 74 67 71
0.097163 0.923051 2.523000 81 69 73
0.096470 0.920851 2.505000 89 74 79
0.095777 0.918587 2.487000 90 78 86
0.095084 0.916261 2.469000 92 80 86
0.094390 0.913871 2.451000 93 84 86
0.093736 0.911794 2.434000 95 86 88
0.092426 0.903258 2.400000 95 85 90
0.091155 0.894982 2.367000 96 85 92
0.089923 0.886970 2.335000 95 83 95
0.089345 0.885333 2.320000 94 82 94
0.089345 0.889394 2.320000 96 86 94
0.088729 0.887294 2.304000 98 91 95
0.088152 0.885524 2.289000 99 91 97
0.100855 0.916466 2.505000 74 59 57
0.100855 0.920851 2.505000 89 66 66
0.100130 0.918587 2.487000 91 82 76
0.100130 0.922941 2.487000 93 75 83
0.098681 0.913871 2.451000 94 88 91
0.094655 0.888932 2.351000 95 85 89
0.093407 0.881272 2.320000 96 81 90
0.093407 0.885333 2.320000 97 84 92
0.093407 0.889394 2.320000 99 89 94
0.092762 0.887294 2.304000 102 91 97
0.092159 0.885524 2.289000 104 96 100
0.105240 0.916466 2.505000 93 74 42
0.104484 0.927294 2.487000 83 55 96
0.097468 0.881272 2.320000 97 88 85
0.097468 0.885333 2.320000 96 87 89
0.096796 0.883261 2.304000 100 88 94
0.096796 0.887294 2.304000 103 90 98
0.096165 0.885524 2.289000 107 100 103
0.102185 0.891057 2.335000 96 82 90
0.101529 0.889394 2.320000 100 88 94
0.100829 0.887294 2.304000 105 92 97
0.100172 0.885524 2.289000 110 103 101
0.104862 0.887294 2.304000 102 89 97
0.104179 0.885524 2.289000 109 100 99
0.278330 0.855863 3.975000 79 61 59
0.278330 0.862822 3.975000 80 60 55
0.278330 0.869780 3.975000 80 61 52
0.278330 0.883696 3.975000 81 62 54
0.285288 0.744532 3.975000 86 66 51
0.278828 0.802482 3.885000 80 61 49
0.282058 0.818657 3.930000 80 62 47
0.282058 0.832415 3.930000 80 58 49
0.282058 0.839295 3.930000 79 60 52
0.282058 0.846174 3.930000 79 60 55
0.282058 0.853054 3.930000 79 60 52
0.282058 0.859933 3.930000 79 63 49
0.282058 0.866813 3.930000 79 62 51
0.282058 0.873692 3.930000 79 62 53
0.285288 0.890655 3.975000 79 61 55
0.285288 0.897613 3.975000 79 60 58
0.285288 0.904571 3.975000 79 59 56
0.285288 0.911529 3.975000 80 59 54
0.282058 0.914969 3.930000 81 61 58
0.278828 0.931695 3.885000 81 60 50
0.285288 0.960237 3.975000 81 59 52
0.285288 0.967195 3.975000 80 59 55
0.292246 0.709740 3.975000 86 68 52
0.292246 0.716699 3.975000 86 69 49
0.292246 0.723657 3.975000 86 69 51
0.292246 0.730615 3.975000 86 67 53
0.292246 0.737573 3.975000 87 67 51
0.288937 0.736103 3.930000 86 66 49
0.288937 0.742982 3.930000 85 67 51
0.288937 0.749862 3.930000 85 65 54
0.288937 0.756741 3.930000 85 66 58
0.282468 0.780149 3.842000 82 62 53
0.282468 0.786874 3.842000 81 60 53
0.285629 0.802482 3.885000 80 60 51
0.285629 0.809283 3.885000 80 58 49
0.285629 0.816083 3.885000 81 55 49
0.288937 0.832415 3.930000 79 56 49
0.288937 0.839295 3.930000 78 59 50
0.288937 0.846174 3.930000 78 59 52
0.288937 0.853054 3.930000 78 59 49
0.288937 0.859933 3.930000 78 60 47
0.288937 0.866813 3.930000 78 62 50
0.288937 0.873692 3.930000 78 61 53
0.288937 0.880572 3.930000 79 62 53
0.285629 0.877289 3.885000 79 61 53
0.285629 0.884090 3.885000 79 62 53
0.285629 0.890891 3.885000 79 58 54
0.285629 0.897692 3.885000 80 57 54
0.282468 0.894481 3.842000 80 58 54
0.282468 0.901207 3.842000 81 59 52
0.285629 0.918094 3.885000 81 59 50
0.285629 0.924894 3.885000 81 58 50
0.285629 0.931695 3.885000 80 58 51
0.285629 0.938496 3.885000 80 59 53
0.292246 0.967195 3.975000 79 59 56
0.292246 0.974153 3.975000 79 58 55
0.292246 0.981112 3.975000 77 59 55
0.292246 1.001987 3.975000 77 59 47
0.292246 1.008945 3.975000 77 57 44
0.292246 1.022861 3.975000 76 55 49
0.292246 1.029819 3.975000 75 56 49
0.299204 0.250497 3.975000 160 140 130
0.299204 0.257455 3.975000 153 141 128
0.299204 0.264413 3.975000 147 133 125
0.295817 0.268299 3.930000 144 130 121
0.299204 0.347912 3.975000 121 101 94
0.299204 0.354870 3.975000 118 103 89
0.299204 0.361828 3.975000 116 100 87
0.299204 0.368787 3.975000 113 100 85
0.299204 0.375745 3.975000 111 98 85
0.299204 0.382703 3.975000 109 98 85
0.299204 0.389661 3.975000 108 95 85
0.299204 0.396620 3.975000 108 94 85
0.299204 0.403578 3.975000 108 92 85
0.299204 0.410536 3.975000 106 91 86
0.299204 0.417494 3.975000 105 90 83
0.299204 0.424453 3.975000 103 89 80
0.299204 0.431411 3.975000 102 88 79
0.299204 0.438369 3.975000 102 88 78
0.299204 0.445327 3.975000 102 86 78
0.299204 0.452286 3.975000 104 85 79
0.299204 0.473160 3.975000 101 82 79
0.299204 0.535784 3.975000 97 79 70
0.299204 0.542743 3.975000 96 77 70
0.299204 0.549701 3.975000 96 77 71
0.299204 0.556659 3.975000 96 77 67
0.299204 0.563617 3.975000 94 79 63
0.299204 0.640158 3.975000 90 71 58
0.299204 0.647116 3.975000 89 73 54
0.299204 0.654075 3.975000 89 72 57
0.299204 0.667991 3.975000 88 69 59
0.295817 0.667308 3.930000 87 69 59
0.295817 0.674188 3.930000 87 69 56
0.299204 0.688866 3.975000 87 69 54
0.299204 0.695824 3.975000 87 69 58
0.295817 0.694826 3.930000 86 69 61
0.292430 0.693671 3.885000 86 68 55
0.292430 0.700472 3.885000 86 68 49
0.292430 0.707272 3.885000 86 67 52
0.295817 0.722344 3.930000 87 64 56
0.295817 0.729223 3.930000 88 65 56
0.292430 0.727674 3.885000 85 67 57
0.292430 0.734475 3.885000 83 67 55
0.292430 0.741276 3.885000 83 67 54
0.292430 0.748076 3.885000 84 66 54
0.286032 0.745013 3.800000 83 64 51
0.289193 0.759973 3.842000 82 64 48
0.289193 0.766698 3.842000 81 63 50
0.286032 0.764969 3.800000 81 64 51
0.289193 0.780149 3.842000 82 62 50
0.289193 0.786874 3.842000 81 60 50
0.289193 0.793600 3.842000 80 58 49
0.292430 0.809283 3.885000 80 56 49
0.289193 0.807051 3.842000 81 55 52
0.292430 0.822884 3.885000 79 55 55
0.292430 0.829685 3.885000 78 57 52
0.292430 0.836485 3.885000 78 59 48
0.292430 0.843286 3.885000 78 58 47
0.292430 0.850087 3.885000 78 57 46
0.292430 0.856888 3.885000 78 59 47
0.292430 0.863688 3.885000 78 58 49
0.292430 0.870489 3.885000 79 60 50
0.289193 0.867579 3.842000 79 61 51
0.289193 0.874305 3.842000 80 58 50
0.289193 0.881030 3.842000 79 57 49
0.289193 0.887756 3.842000 79 56 51
0.289193 0.894481 3.842000 79 56 54
0.289193 0.901207 3.842000 80 57 53
0.289193 0.907932 3.842000 80 59 53
0.289193 0.914657 3.842000 80 58 52
0.289193 0.921383 3.842000 80 58 50
0.289193 0.928108 3.842000 80 59 51
0.292430 0.945297 3.885000 79 60 53
0.292430 0.952097 3.885000 79 58 53
0.295817 0.970005 3.930000 77 56 53
0.295817 0.976884 3.930000 76 57 51
0.295817 0.983764 3.930000 76 58 49
0.295817 0.990643 3.930000 77 58 47
0.299204 1.008945 3.975000 77 58 46
0.299204 1.015903 3.975000 77 55 47
0.295817 1.011281 3.930000 76 56 48
0.295817 1.018161 3.930000 75 55 51
0.258563 -1.093016 3.357000 212 211 212
0.258563 -1.010746 3.357000 216 226 225
0.258563 -1.004869 3.357000 215 199 223
0.242080 -0.577691 3.143000 98 64 97
0.242080 -0.572189 3.143000 108 91 95
0.242080 -0.566688 3.143000 107 93 94
0.248858 -0.576898 3.231000 107 92 92
0.248858 -0.571242 3.231000 105 88 90
0.248858 -0.565587 3.231000 104 86 90
0.306162 0.027833 3.975000 209 169 189
0.306162 0.034791 3.975000 208 180 188
0.306162 0.062624 3.975000 205 174 188
0.306162 0.153081 3.975000 189 153 174
0.306162 0.222664 3.975000 157 141 145
0.306162 0.229622 3.975000 153 135 138
0.306162 0.236580 3.975000 150 137 134
0.306162 0.243538 3.975000 146 131 131
0.302696 0.247661 3.930000 142 133 127
0.302696 0.254540 3.930000 141 127 124
0.302696 0.261420 3.930000 140 128 120
0.302696 0.268299 3.930000 138 122 117
0.302696 0.275179 3.930000 136 124 114
0.302696 0.282058 3.930000 132 115 112
0.302696 0.288938 3.930000 129 111 112
0.306162 0.299204 3.975000 128 109 113
0.306162 0.306163 3.975000 127 110 109
0.306162 0.313121 3.975000 124 106 105
0.306162 0.333995 3.975000 122 105 97
0.306162 0.340954 3.975000 119 98 96
0.302696 0.343973 3.930000 116 97 92
0.302696 0.350853 3.930000 114 96 89
0.302696 0.357732 3.930000 112 98 86
0.302696 0.364612 3.930000 110 96 84
0.302696 0.371491 3.930000 107 96 82
0.302696 0.378371 3.930000 105 94 81
0.302696 0.385250 3.930000 103 94 82
0.302696 0.392130 3.930000 101 91 84
0.302696 0.399009 3.930000 98 90 83
0.302696 0.405889 3.930000 99 89 83
0.302696 0.412768 3.930000 100 90 82
0.306162 0.424453 3.975000 97 87 81
0.302696 0.426527 3.930000 94 87 79
0.302696 0.433406 3.930000 96 85 78
0.302696 0.440286 3.930000 98 85 78
0.302696 0.447165 3.930000 99 83 78
0.302696 0.454045 3.930000 101 83 78
0.302696 0.460924 3.930000 97 81 78
0.299230 0.462447 3.885000 94 82 76
0.302696 0.474683 3.930000 95 81 75
0.302696 0.481563 3.930000 97 80 73
0.306162 0.494035 3.975000 95 79 71
0.306162 0.500993 3.975000 94 80 71
0.302696 0.502201 3.930000 95 79 71
0.302696 0.509081 3.930000 96 79 69
0.302696 0.515960 3.930000 95 79 67
0.302696 0.522839 3.930000 95 81 65
0.302696 0.529719 3.930000 93 78 64
0.299230 0.530454 3.885000 91 77 65
0.299230 0.537255 3.885000 92 76 67
0.299230 0.544055 3.885000 94 76 64
0.302696 0.557237 3.930000 92 77 61
0.302696 0.564116 3.930000 90 78 61
0.306162 0.577534 3.975000 91 76 61
0.306162 0.584492 3.975000 92 75 59
0.306162 0.591450 3.975000 92 73 58
0.306162 0.598408 3.975000 91 74 57
0.306162 0.605367 3.975000 91 75 56
0.306162 0.612325 3.975000 91 78 58
0.306162 0.619283 3.975000 91 72 60
0.302696 0.619152 3.930000 90 70 60
0.302696 0.626031 3.930000 89 68 61
0.299230 0.625664 3.885000 89 68 56
0.302696 0.639790 3.930000 88 71 51
0.302696 0.646670 3.930000 87 75 52
0.302696 0.653549 3.930000 87 70 53
0.302696 0.660429 3.930000 87 66 54
0.299230 0.659667 3.885000 86 66 55
0.299230 0.666468 3.885000 86 69 55
0.299230 0.673269 3.885000 86 67 55
0.302696 0.687947 3.930000 86 66 61
0.299230 0.686870 3.885000 86 66 67
0.295919 0.685993 3.842000 86 68 58
0.295919 0.692719 3.842000 85 67 50
0.295919 0.699444 3.842000 85 67 54
0.295919 0.706169 3.842000 85 63 59
0.295919 0.712895 3.842000 86 63 62
0.295919 0.719620 3.842000 84 66 66
0.295919 0.726346 3.842000 82 67 60
0.295919 0.733071 3.842000 82 67 54
0.295919 0.739796 3.842000 83 67 50
0.292684 0.738361 3.800000 82 64 47
0.292684 0.745013 3.800000 81 64 46
0.292684 0.751665 3.800000 80 63 45
0.292684 0.758317 3.800000 80 63 47
0.292684 0.764969 3.800000 80 62 49
0.292684 0.771621 3.800000 80 62 48
0.292684 0.778273 3.800000 79 60 47
0.295919 0.793600 3.842000 79 59 48
0.295919 0.800325 3.842000 79 57 50
0.292684 0.798228 3.800000 79 56 56
0.295919 0.813776 3.842000 78 56 62
0.295919 0.820502 3.842000 77 57 53
0.295919 0.827227 3.842000 77 58 45
0.295919 0.833952 3.842000 77 59 45
0.295919 0.840678 3.842000 77 58 45
0.295919 0.847403 3.842000 77 59 45
0.295919 0.854129 3.842000 77 59 45
0.295919 0.860854 3.842000 78 59 47
0.292684 0.858095 3.800000 80 58 50
0.292684 0.864747 3.800000 83 55 47
0.292684 0.871399 3.800000 81 56 45
0.292684 0.878051 3.800000 79 57 49
0.292684 0.884703 3.800000 80 56 54
0.292684 0.891355 3.800000 81 55 55
0.292684 0.898007 3.800000 79 57 57
0.292684 0.904659 3.800000 78 58 53
0.292684 0.911311 3.800000 78 58 50
0.292684 0.917962 3.800000 79 59 50
0.295919 0.934834 3.842000 77 59 50
0.295919 0.941559 3.842000 76 58 51
0.295919 0.948285 3.842000 76 56 52
0.299230 0.965698 3.885000 76 56 50
0.295919 0.961735 3.842000 76 57 49
0.295919 0.968461 3.842000 77 58 48
0.299230 0.986101 3.885000 77 56 48
0.306162 1.015903 3.975000 77 53 47
0.302696 1.011281 3.930000 76 54 47
0.296227 0.996399 3.846000 76 55 53
0.264439 -1.093016 3.357000 252 227 233
0.264439 -1.087139 3.357000 253 224 234
0.264439 -1.081263 3.357000 254 230 235
0.267039 -1.085958 3.390000 254 230 236
0.267039 -1.080024 3.390000 254 236 237
0.267039 -1.074089 3.390000 254 245 238
0.264439 -1.016622 3.357000 254 252 241
0.264439 -1.010746 3.357000 254 246 239
0.264439 -1.004869 3.357000 254 253 238
0.264439 -0.998993 3.357000 254 242 238
0.264439 -0.951981 3.357000 254 235 238
0.264439 -0.946105 3.357000 254 235 238
0.264439 -0.940229 3.357000 254 234 237
0.264439 -0.934352 3.357000 252 229 237
0.264439 -0.916723 3.357000 250 227 239
0.256956 -0.799418 3.262000 243 222 234
0.256956 -0.793708 3.262000 241 209 233
0.256956 -0.787998 3.262000 240 216 234
0.254514 -0.774854 3.231000 240 195 235
0.254514 -0.729607 3.231000 225 162 225
0.254514 -0.723951 3.231000 224 186 226
0.254514 -0.718295 3.231000 220 151 227
0.256956 -0.719477 3.262000 216 175 226
0.256956 -0.713766 3.262000 213 126 226
0.256956 -0.708056 3.262000 210 160 226
0.245376 -0.572545 3.115000 88 1 128
0.245376 -0.567092 3.115000 111 64 110
0.245376 -0.561639 3.115000 111 102 91
0.254514 -0.576898 3.231000 111 93 93
0.254514 -0.571242 3.231000 109 89 95
0.254514 -0.565587 3.231000 108 88 94
0.313121 -0.333995 3.975000 95 80 74
0.313121 -0.327037 3.975000 98 81 72
0.313121 -0.320079 3.975000 101 82 74
0.313121 -0.208747 3.975000 119 97 92
0.313121 -0.201789 3.975000 121 97 95
0.313121 -0.194831 3.975000 124 101 92
0.313121 -0.187872 3.975000 124 101 90
0.313121 -0.180914 3.975000 125 101 98
0.313121 -0.173956 3.975000 123 97 107
0.313121 -0.166998 3.975000 121 107 109
0.313121 -0.160039 3.975000 127 104 111
0.309576 -0.151348 3.930000 134 110 116
0.309576 -0.144469 3.930000 130 106 121
0.309576 -0.137589 3.930000 126 113 127
0.309576 -0.130710 3.930000 129 110 133
0.309576 -0.123830 3.930000 133 121 135
0.309576 -0.116951 3.930000 133 116 138
0.309576 -0.110071 3.930000 134 123 133
0.309576 -0.103192 3.930000 134 106 129
0.313121 -0.097415 3.975000 135 115 137
0.309576 -0.089433 3.930000 137 93 146
0.309576 -0.082554 3.930000 140 115 153
0.313121 -0.076541 3.975000 140 96 160
0.309576 -0.068795 3.930000 141 123 162
0.309576 -0.061915 3.930000 152 105 164
0.309576 -0.055036 3.930000 163 134 172
0.309576 -0.048156 3.930000 166 119 180
0.313121 -0.041749 3.975000 169 148 188
0.309576 -0.034397 3.930000 172 130 197
0.309576 -0.027518 3.930000 176 152 197
0.313121 -0.020875 3.975000 177 120 198
0.313121 -0.013916 3.975000 178 156 195
0.313121 0.013917 3.975000 181 160 189
0.313121 0.020875 3.975000 182 156 190
0.313121 0.027833 3.975000 183 165 188
0.313121 0.034791 3.975000 182 157 187
0.309576 0.041277 3.930000 181 160 187
0.309576 0.048156 3.930000 179 152 188
0.309576 0.055036 3.930000 177 157 190
0.309576 0.061915 3.930000 176 145 193
0.309576 0.068795 3.930000 175 156 193
0.313121 0.076541 3.975000 177 144 193
0.313121 0.083499 3.975000 179 161 194
0.313121 0.090457 3.975000 178 132 194
0.313121 0.097415 3.975000 177 159 195
0.313121 0.104374 3.975000 176 134 195
0.313121 0.111332 3.975000 176 158 192
0.313121 0.118290 3.975000 174 131 189
0.313121 0.125248 3.975000 172 153 186
0.313121 0.132207 3.975000 168 122 184
0.309576 0.137589 3.930000 165 145 182
0.309576 0.144469 3.930000 163 116 181
0.309576 0.151348 3.930000 162 141 177
0.313121 0.160040 3.975000 158 110 173
0.313121 0.166998 3.975000 155 140 168
0.313121 0.173956 3.975000 153 120 163
0.313121 0.180914 3.975000 152 140 165
0.313121 0.187873 3.975000 149 131 167
0.313121 0.194831 3.975000 147 137 165
0.313121 0.201789 3.975000 142 122 162
0.313121 0.208747 3.975000 138 128 155
0.309576 0.213264 3.930000 136 120 148
0.309576 0.220143 3.930000 135 129 142
0.309576 0.227022 3.930000 133 117 137
0.309576 0.233902 3.930000 132 122 136
0.309576 0.240781 3.930000 128 110 136
0.306031 0.244825 3.885000 125 116 132
0.306031 0.251626 3.885000 129 107 129
0.306031 0.258426 3.885000 134 112 126
0.306031 0.265227 3.885000 132 106 122
0.302644 0.269017 3.842000 131 113 120
0.306031 0.278828 3.885000 127 104 117
0.306031 0.285629 3.885000 123 104 115
0.306031 0.292430 3.885000 122 100 112
0.309576 0.302697 3.930000 122 102 110
0.309576 0.309576 3.930000 120 96 108
0.309576 0.316456 3.930000 118 99 104
0.313121 0.327037 3.975000 117 98 99
0.309576 0.330214 3.930000 117 96 98
0.309576 0.337094 3.930000 114 89 98
0.306031 0.340035 3.885000 112 92 95
0.306031 0.346835 3.885000 110 88 92
0.306031 0.353636 3.885000 109 92 87
0.306031 0.360437 3.885000 106 93 83
0.306031 0.367237 3.885000 104 92 81
0.306031 0.374038 3.885000 101 90 80
0.306031 0.380839 3.885000 99 88 81
0.309576 0.392130 3.930000 94 86 83
0.309576 0.399009 3.930000 89 86 83
0.309576 0.405889 3.930000 92 86 83
0.309576 0.412768 3.930000 95 86 81
0.309576 0.419647 3.930000 90 85 80
0.306031 0.421643 3.885000 86 83 79
0.306031 0.428444 3.885000 90 80 77
0.306031 0.435245 3.885000 94 81 75
0.306031 0.442045 3.885000 95 80 74
0.306031 0.448846 3.885000 96 79 73
0.302644 0.450603 3.842000 92 79 72
0.302644 0.457329 3.842000 88 79 71
0.302644 0.464054 3.842000 91 80 70
0.306031 0.476049 3.885000 94 78 68
0.306031 0.482849 3.885000 91 77 67
0.309576 0.495322 3.930000 89 76 67
0.302644 0.490956 3.842000 91 75 66
0.302644 0.497681 3.842000 93 75 65
0.302644 0.504407 3.842000 93 77 63
0.302644 0.511132 3.842000 93 77 55
0.302644 0.517858 3.842000 89 76 47
0.302644 0.524583 3.842000 86 73 56
0.302644 0.531309 3.842000 89 74 65
0.302644 0.538034 3.842000 92 74 62
0.302644 0.544759 3.842000 89 77 59
0.306031 0.557657 3.885000 87 74 59
0.306031 0.564458 3.885000 89 74 58
0.306031 0.571258 3.885000 91 71 56
0.306031 0.578059 3.885000 90 70 54
0.309576 0.591634 3.930000 90 71 54
0.306031 0.591660 3.885000 89 74 55
0.306031 0.598461 3.885000 89 71 56
0.306031 0.605262 3.885000 89 67 57
0.306031 0.612063 3.885000 89 66 55
0.306031 0.618863 3.885000 88 65 54
0.306031 0.625664 3.885000 88 66 51
0.306031 0.632465 3.885000 87 69 49
0.306031 0.639265 3.885000 86 69 49
0.306031 0.646066 3.885000 86 71 49
0.306031 0.652867 3.885000 87 64 45
0.302644 0.652366 3.842000 86 62 42
0.302644 0.659091 3.842000 85 63 47
0.302644 0.665817 3.842000 85 65 51
0.302644 0.672542 3.842000 85 64 55
0.302644 0.679268 3.842000 85 63 59
0.302644 0.685993 3.842000 86 64 54
0.299336 0.685146 3.800000 85 65 48
0.299336 0.691798 3.800000 84 62 50
0.299336 0.698450 3.800000 84 58 53
0.299336 0.705102 3.800000 85 62 49
0.299336 0.711754 3.800000 83 68 45
0.299336 0.718405 3.800000 82 66 47
0.299336 0.725057 3.800000 82 67 50
0.299336 0.731709 3.800000 82 63 48
0.296106 0.730395 3.759000 80 62 47
0.296106 0.736975 3.759000 79 61 45
0.296106 0.743555 3.759000 79 63 44
0.296106 0.750135 3.759000 79 61 42
0.296106 0.756715 3.759000 78 62 40
0.299336 0.771621 3.800000 78 59 43
0.299336 0.778273 3.800000 78 60 47
0.299336 0.784925 3.800000 78 57 47
0.299336 0.791576 3.800000 78 57 46
0.299336 0.798228 3.800000 78 55 43
0.299336 0.804880 3.800000 77 56 39
0.299336 0.811532 3.800000 76 55 42
0.299336 0.818184 3.800000 76 57 45
0.299336 0.824836 3.800000 77 57 45
0.299336 0.831488 3.800000 77 59 46
0.299336 0.838140 3.800000 77 58 41
0.299336 0.844791 3.800000 77 60 37
0.299336 0.851443 3.800000 77 57 42
0.299336 0.858095 3.800000 81 57 46
0.299336 0.864747 3.800000 86 55 41
0.296106 0.861997 3.759000 82 55 37
0.299336 0.878051 3.800000 79 55 43
0.296106 0.875157 3.759000 81 56 50
0.296106 0.881737 3.759000 83 55 51
0.296106 0.888318 3.759000 79 56 52
0.296106 0.894898 3.759000 76 56 44
0.296106 0.901478 3.759000 77 58 37
0.296106 0.908058 3.759000 78 58 42
0.299336 0.924614 3.800000 76 60 47
0.299336 0.931266 3.800000 74 57 48
0.299336 0.937918 3.800000 75 56 50
0.299336 0.944570 3.800000 76 55 47
0.299336 0.951222 3.800000 76 57 44
0.296106 0.947539 3.759000 77 56 46
0.306031 0.986101 3.885000 77 55 49
0.289804 0.940253 3.679000 77 54 47
0.289804 0.946693 3.679000 77 55 45
0.296342 0.974637 3.762000 78 53 44
0.270316 -1.098892 3.357000 252 246 254
0.272973 -1.103760 3.390000 253 254 254
0.272973 -1.097826 3.390000 253 246 254
0.270316 -1.081263 3.357000 254 254 254
0.270316 -1.075386 3.357000 254 248 254
0.272973 -1.080024 3.390000 254 254 254
0.272973 -1.074089 3.390000 254 251 254
0.272973 -1.068155 3.390000 254 254 254
0.270316 -1.016622 3.357000 254 253 254
0.270316 -1.010746 3.357000 254 254 254
0.267658 -0.994991 3.324000 254 253 254
0.270316 -0.998993 3.357000 254 254 254
0.270316 -0.993116 3.357000 254 251 254
0.270316 -0.987240 3.357000 254 254 254
0.270316 -0.981364 3.357000 254 251 254
0.270316 -0.975487 3.357000 254 254 254
0.270316 -0.969611 3.357000 254 251 254
0.270316 -0.963734 3.357000 254 254 254
0.270316 -0.957858 3.357000 254 249 254
0.270316 -0.951981 3.357000 254 254 254
0.270316 -0.946105 3.357000 254 249 254
0.270316 -0.940229 3.357000 254 254 254
0.270316 -0.934352 3.357000 253 247 254
0.270316 -0.928476 3.357000 252 254 254
0.270316 -0.922599 3.357000 252 245 254
0.270316 -0.916723 3.357000 252 254 254
0.270316 -0.910846 3.357000 251 244 254
0.272973 -0.872327 3.390000 251 245 254
0.265162 -0.830073 3.293000 251 254 254
0.262666 -0.816549 3.262000 251 244 254
0.262666 -0.810839 3.262000 251 254 254
0.262666 -0.805129 3.262000 249 245 254
0.262666 -0.799418 3.262000 248 254 254
0.262666 -0.793708 3.262000 247 242 254
0.262666 -0.787998 3.262000 247 254 254
0.262666 -0.782288 3.262000 247 239 254
0.262666 -0.776578 3.262000 247 254 254
0.262666 -0.770868 3.262000 246 238 254
0.260170 -0.757886 3.231000 245 254 254
0.260170 -0.752230 3.231000 244 238 254
0.260170 -0.746574 3.231000 242 254 254
0.260170 -0.740919 3.231000 241 234 254
0.260170 -0.735263 3.231000 240 254 254
0.260170 -0.729607 3.231000 239 231 254
0.260170 -0.723951 3.231000 239 254 254
0.260170 -0.718295 3.231000 237 228 254
0.262666 -0.719477 3.262000 235 254 254
0.262666 -0.713766 3.262000 233 222 254
0.262666 -0.708056 3.262000 232 254 254
0.262666 -0.702346 3.262000 226 216 254
0.262666 -0.696636 3.262000 220 254 254
0.262666 -0.690926 3.262000 219 203 254
0.262666 -0.685216 3.262000 218 254 254
0.260170 -0.673048 3.231000 210 190 254
0.260170 -0.667392 3.231000 202 254 254
0.260170 -0.599522 3.231000 148 139 207
0.260170 -0.593866 3.231000 117 51 160
0.262666 -0.593854 3.262000 86 64 124
0.262666 -0.588143 3.262000 98 64 89
0.260170 -0.576898 3.231000 111 90 95
0.260170 -0.571242 3.231000 110 90 101
0.312832 -0.680069 3.885000 110 88 98
0.320079 -0.681907 3.975000 106 88 92
0.316455 -0.667308 3.930000 105 86 89
0.316455 -0.660429 3.930000 104 86 86
0.312832 -0.646066 3.885000 105 84 84
0.312832 -0.639265 3.885000 106 83 83
0.320079 -0.591450 3.975000 99 80 75
0.320079 -0.584492 3.975000 99 80 72
0.320079 -0.577534 3.975000 97 80 69
0.320079 -0.570575 3.975000 95 81 72
0.320079 -0.563617 3.975000 96 78 76
0.320079 -0.556659 3.975000 97 77 72
0.320079 -0.494035 3.975000 93 76 63
0.320079 -0.459244 3.975000 94 78 65
0.320079 -0.452285 3.975000 93 78 63
0.320079 -0.445327 3.975000 93 78 65
0.320079 -0.438369 3.975000 93 77 67
0.320079 -0.431411 3.975000 94 78 67
0.320079 -0.424452 3.975000 94 78 68
0.320079 -0.417494 3.975000 95 78 70
0.320079 -0.410536 3.975000 94 78 73
0.320079 -0.403578 3.975000 94 78 72
0.320079 -0.354870 3.975000 98 80 65
0.320079 -0.347912 3.975000 99 81 69
0.316455 -0.337094 3.930000 98 81 74
0.316455 -0.330214 3.930000 97 82 69
0.312832 -0.319632 3.885000 99 82 65
0.316455 -0.316455 3.930000 101 83 68
0.320079 -0.313121 3.975000 102 85 71
0.320079 -0.306162 3.975000 104 87 74
0.320079 -0.299204 3.975000 104 86 78
0.320079 -0.292246 3.975000 104 88 78
0.320079 -0.285288 3.975000 103 88 79
0.320079 -0.278329 3.975000 103 88 81
0.320079 -0.271371 3.975000 106 89 83
0.320079 -0.264413 3.975000 109 91 83
0.320079 -0.257455 3.975000 110 91 84
0.320079 -0.250497 3.975000 112 93 87
0.316455 -0.240781 3.930000 113 92 91
0.316455 -0.233902 3.930000 115 92 91
0.320079 -0.229622 3.975000 115 95 92
0.320079 -0.222663 3.975000 115 98 90
0.320079 -0.215705 3.975000 118 100 89
0.316455 -0.206384 3.930000 122 105 91
0.316455 -0.199504 3.930000 124 103 93
0.316455 -0.192625 3.930000 126 103 96
0.316455 -0.185745 3.930000 127 106 99
0.316455 -0.178866 3.930000 129 110 102
0.312832 -0.170017 3.885000 129 112 105
0.316455 -0.165107 3.930000 130 121 106
0.312832 -0.156416 3.885000 134 118 108
0.312832 -0.149615 3.885000 139 122 113
0.312832 -0.142815 3.885000 140 119 118
0.312832 -0.136014 3.885000 142 123 125
0.312832 -0.129213 3.885000 145 126 132
0.312832 -0.122412 3.885000 149 133 136
0.312832 -0.115612 3.885000 151 135 140
0.312832 -0.108811 3.885000 153 145 130
0.312832 -0.102010 3.885000 159 142 120
0.312832 -0.095210 3.885000 165 157 126
0.312832 -0.088409 3.885000 167 148 132
0.312832 -0.081608 3.885000 169 165 143
0.312832 -0.074808 3.885000 173 154 155
0.309369 -0.067254 3.842000 176 169 159
0.312832 -0.061206 3.885000 185 162 163
0.312832 -0.054405 3.885000 193 180 174
0.312832 -0.047605 3.885000 199 179 185
0.316455 -0.041277 3.930000 205 201 196
0.312832 -0.034003 3.885000 207 194 207
0.312832 -0.027203 3.885000 209 216 203
0.316455 -0.020638 3.930000 209 194 200
0.316455 -0.013759 3.930000 209 211 201
0.316455 -0.006879 3.930000 210 199 202
0.320079 -0.000000 3.975000 211 213 199
0.316455 0.006880 3.930000 208 187 197
0.316455 0.013759 3.930000 206 187 193
0.316455 0.020638 3.930000 205 183 190
0.316455 0.027518 3.930000 204 178 188
0.316455 0.034397 3.930000 203 175 187
0.316455 0.041277 3.930000 201 175 190
0.312832 0.047605 3.885000 201 177 194
0.312832 0.054406 3.885000 202 173 196
0.312832 0.061206 3.885000 203 176 199
0.312832 0.068007 3.885000 205 184 203
0.312832 0.074808 3.885000 209 188 208
0.312832 0.081608 3.885000 212 211 204
0.312832 0.088409 3.885000 212 194 201
0.312832 0.095210 3.885000 212 214 201
0.312832 0.102010 3.885000 210 195 202
0.309369 0.107607 3.842000 208 203 200
0.312832 0.115612 3.885000 206 189 198
0.309369 0.121058 3.842000 203 197 196
0.309369 0.127783 3.842000 201 183 194
0.309369 0.134508 3.842000 198 194 187
0.309369 0.141234 3.842000 196 178 180
0.309369 0.147959 3.842000 194 188 180
0.312832 0.156416 3.885000 190 170 180
0.309369 0.161410 3.842000 186 178 170
0.312832 0.170017 3.885000 182 163 160
0.312832 0.176818 3.885000 179 161 163
0.312832 0.183619 3.885000 174 156 166
0.312832 0.190419 3.885000 169 148 163
0.312832 0.197220 3.885000 165 144 160
0.309369 0.201763 3.842000 161 135 152
0.305987 0.206209 3.800000 158 137 144
0.302686 0.210564 3.759000 155 138 140
0.302686 0.217144 3.759000 151 133 136
0.305987 0.226165 3.800000 148 127 138
0.309369 0.235390 3.842000 144 125 141
0.309369 0.242115 3.842000 141 117 138
0.309369 0.248841 3.842000 140 118 135
0.309369 0.255566 3.842000 139 110 131
0.305987 0.259424 3.800000 136 115 128
0.305987 0.266076 3.800000 134 118 125
0.305987 0.272728 3.800000 130 112 123
0.305987 0.279380 3.800000 126 104 117
0.305987 0.286032 3.800000 125 107 112
0.309369 0.295919 3.842000 124 105 112
0.305987 0.299336 3.800000 122 101 112
0.309369 0.309369 3.842000 120 97 106
0.309369 0.316095 3.842000 119 98 100
0.309369 0.322820 3.842000 118 94 100
0.309369 0.329546 3.842000 116 94 100
0.309369 0.336271 3.842000 114 94 97
0.309369 0.342997 3.842000 112 92 95
0.309369 0.349722 3.842000 111 92 88
0.309369 0.356447 3.842000 108 93 82
0.309369 0.363173 3.842000 106 91 81
0.309369 0.369898 3.842000 104 90 80
0.309369 0.376624 3.842000 102 84 81
0.309369 0.383349 3.842000 99 86 82
0.309369 0.390074 3.842000 96 84 82
0.309369 0.396800 3.842000 97 85 83
0.309369 0.403526 3.842000 98 83 81
0.309369 0.410251 3.842000 95 83 80
0.305987 0.412418 3.800000 92 80 78
0.305987 0.419070 3.800000 94 81 77
0.305987 0.425722 3.800000 97 80 73
0.305987 0.432374 3.800000 97 80 70
0.305987 0.439026 3.800000 98 77 68
0.302686 0.440869 3.759000 96 78 66
0.302686 0.447449 3.759000 94 76 65
0.302686 0.454029 3.759000 94 77 65
0.302686 0.460609 3.759000 95 75 64
0.302686 0.467189 3.759000 93 76 64
0.305987 0.478937 3.800000 92 74 63
0.305987 0.485589 3.800000 93 75 62
0.305987 0.492241 3.800000 93 72 61
0.305987 0.498893 3.800000 93 75 60
0.305987 0.505545 3.800000 93 74 45
0.305987 0.512197 3.800000 91 73 30
0.305987 0.518848 3.800000 89 68 46
0.305987 0.525500 3.800000 90 71 63
0.305987 0.532152 3.800000 91 71 60
0.309369 0.544759 3.842000 89 73 58
0.309369 0.551485 3.842000 88 68 57
0.309369 0.558210 3.842000 89 71 56
0.312832 0.571258 3.885000 91 68 53
0.312832 0.578059 3.885000 90 69 50
0.312832 0.584860 3.885000 89 67 52
0.309369 0.585112 3.842000 89 69 54
0.309369 0.591837 3.842000 88 66 54
0.309369 0.598563 3.842000 87 66 54
0.309369 0.605288 3.842000 87 64 50
0.309369 0.612013 3.842000 86 64 47
0.309369 0.618739 3.842000 86 63 47
0.309369 0.625464 3.842000 84 66 48
0.309369 0.632190 3.842000 82 64 46
0.309369 0.638915 3.842000 83 64 45
0.309369 0.645641 3.842000 85 58 37
0.309369 0.652366 3.842000 84 60 30
0.305987 0.651886 3.800000 83 59 39
0.305987 0.658538 3.800000 82 62 48
0.305987 0.665190 3.800000 81 62 50
0.305987 0.671842 3.800000 82 62 52
0.305987 0.678494 3.800000 84 62 49
0.305987 0.685146 3.800000 81 61 47
0.305987 0.691798 3.800000 78 58 47
0.302686 0.690914 3.759000 80 59 47
0.305987 0.705102 3.800000 83 62 36
0.305987 0.711754 3.800000 81 63 25
0.305987 0.718405 3.800000 80 63 35
0.302686 0.717234 3.759000 77 62 46
0.302686 0.723814 3.759000 74 59 46
0.299385 0.722428 3.718000 75 58 47
0.299385 0.728936 3.718000 77 58 45
0.299385 0.735445 3.718000 74 59 43
0.299385 0.741953 3.718000 70 56 37
0.299385 0.748461 3.718000 73 57 31
0.302686 0.763295 3.759000 75 55 39
0.302686 0.769875 3.759000 71 55 48
0.302686 0.776456 3.759000 66 53 45
0.305987 0.791576 3.800000 70 54 43
0.302686 0.789616 3.759000 74 54 30
0.302686 0.796196 3.759000 73 53 17
0.302686 0.802776 3.759000 72 53 31
0.299385 0.800528 3.718000 70 53 45
0.302686 0.815936 3.759000 68 53 46
0.299385 0.813545 3.718000 70 55 47
0.299385 0.820053 3.718000 72 56 38
0.302686 0.835677 3.759000 70 56 30
0.302686 0.842257 3.759000 69 55 36
0.302686 0.848837 3.759000 73 55 43
0.302686 0.855417 3.759000 78 54 36
0.302686 0.861997 3.759000 75 54 29
0.302686 0.868577 3.759000 73 53 38
0.302686 0.875157 3.759000 72 53 47
0.302686 0.881737 3.759000 72 53 47
0.299385 0.878629 3.718000 73 53 47
0.299385 0.885137 3.718000 73 52 36
0.299385 0.891645 3.718000 72 55 25
0.299385 0.898154 3.718000 70 55 34
0.302686 0.914638 3.759000 71 55 44
0.302686 0.921218 3.759000 73 54 46
0.299385 0.917679 3.718000 72 53 48
0.299385 0.924187 3.718000 72 53 43
0.299385 0.930696 3.718000 73 54 39
0.299385 0.937204 3.718000 74 55 44
0.299385 0.943712 3.718000 72 54 50
0.296244 0.940253 3.679000 71 53 47
0.296244 0.946693 3.679000 73 53 44
0.296244 0.953133 3.679000 75 49 35
0.296244 0.959573 3.679000 75 52 26
0.299385 0.976254 3.718000 75 54 37
0.276192 -1.104769 3.357000 254 254 254
0.276192 -1.098892 3.357000 254 254 254
0.276192 -1.093016 3.357000 254 254 254
0.276192 -1.087139 3.357000 254 254 254
0.276192 -1.081263 3.357000 254 254 254
0.276192 -1.075386 3.357000 254 254 254
0.276192 -1.069510 3.357000 254 254 254
0.276192 -1.063634 3.357000 254 254 254
0.273477 -1.047359 3.324000 254 254 254
0.276192 -1.051881 3.357000 254 254 254
0.273477 -1.035722 3.324000 254 254 254
0.276192 -1.040128 3.357000 254 254 254
0.273477 -1.024085 3.324000 254 254 254
0.276192 -1.028375 3.357000 254 254 254
0.273477 -1.012447 3.324000 254 254 254
0.276192 -1.016622 3.357000 254 254 254
0.276192 -1.010746 3.357000 254 254 254
0.273477 -0.994991 3.324000 254 254 254
