ply
format ascii 1.0
element vertex 1328
property float x
property float y
property float z
property uchar red
property uchar green
property uchar blue
end_header
0.409006 0.730127 1.931000 57 46 57
0.404346 0.725150 1.909000 64 50 61
0.402228 0.724676 1.899000 72 48 58
0.399898 0.723783 1.888000 69 50 56
0.397780 0.723237 1.878000 67 50 54
0.395662 0.722656 1.868000 66 51 53
0.393544 0.722039 1.858000 65 51 53
0.761345 0.942320 3.565000 82 55 86
0.753443 0.938716 3.528000 82 54 81
0.745969 0.935518 3.493000 83 56 77
0.731019 0.922762 3.423000 84 56 78
0.723972 0.919800 3.390000 77 56 79
0.716924 0.916723 3.357000 71 56 73
0.716924 0.922599 3.357000 78 56 68
0.709877 0.919349 3.324000 85 58 76
0.703256 0.916539 3.293000 82 57 84
0.696636 0.913621 3.262000 78 59 80
0.690016 0.910595 3.231000 75 59 76
0.683609 0.907743 3.201000 72 61 79
0.665243 0.888808 3.115000 75 58 83
0.653283 0.878184 3.059000 77 51 80
0.647731 0.876029 3.033000 78 53 78
0.636412 0.865937 2.980000 79 51 80
0.625734 0.856537 2.930000 74 54 83
0.615269 0.847256 2.881000 69 57 78
0.610144 0.845199 2.857000 75 56 73
0.605232 0.843356 2.834000 81 55 70
0.600106 0.841133 2.810000 80 59 68
0.595408 0.839428 2.788000 78 62 69
0.590496 0.837343 2.765000 78 61 71
0.585798 0.835482 2.743000 78 60 80
0.581313 0.833851 2.722000 77 56 90
0.567859 0.819206 2.659000 76 55 81
0.567859 0.823861 2.659000 78 55 72
0.563587 0.822284 2.639000 81 58 71
0.563587 0.826903 2.639000 79 56 71
0.559316 0.825221 2.619000 76 57 67
0.550987 0.817449 2.580000 74 56 64
0.546716 0.815593 2.560000 72 55 71
0.546716 0.820074 2.560000 77 52 79
0.531126 0.801043 2.487000 82 51 71
0.523438 0.793738 2.451000 74 54 63
0.519807 0.792493 2.434000 67 55 60
0.516177 0.791189 2.417000 72 50 57
0.516177 0.795420 2.417000 78 49 56
0.512546 0.794027 2.400000 76 52 56
0.509129 0.792907 2.384000 75 56 59
0.505499 0.791396 2.367000 72 50 63
0.502082 0.790162 2.351000 69 46 60
0.495462 0.783804 2.320000 71 49 58
0.488841 0.777338 2.289000 72 50 61
0.482434 0.771104 2.259000 72 49 65
0.476241 0.765109 2.230000 71 48 65
0.473038 0.763840 2.215000 73 48 66
0.470048 0.762865 2.201000 76 47 60
0.467058 0.761841 2.187000 73 46 54
0.464282 0.761117 2.174000 71 46 54
0.464282 0.764923 2.174000 72 48 55
0.461292 0.763778 2.160000 74 49 53
0.455526 0.757965 2.133000 75 48 51
0.452749 0.757056 2.120000 76 47 56
0.444634 0.747131 2.082000 77 48 62
0.444634 0.750776 2.082000 78 48 57
0.439295 0.745361 2.057000 72 49 52
0.436732 0.744593 2.045000 65 49 51
0.434169 0.743782 2.033000 67 46 50
0.431607 0.742930 2.021000 68 46 54
0.431607 0.746468 2.021000 67 47 58
0.426695 0.741470 1.998000 66 47 55
0.421783 0.736392 1.975000 67 48 53
0.419434 0.735728 1.964000 68 53 53
0.416871 0.734650 1.952000 65 48 53
0.412386 0.730127 1.931000 62 44 54
0.410037 0.729329 1.920000 68 47 56
0.405552 0.724676 1.899000 75 47 56
0.403203 0.723783 1.888000 72 47 56
0.398932 0.719386 1.868000 69 49 54
0.398932 0.722656 1.868000 67 50 53
0.396796 0.722039 1.858000 65 50 55
0.752083 0.935518 3.493000 85 58 74
0.737011 0.922762 3.423000 87 56 75
0.729906 0.919800 3.390000 82 56 76
0.722801 0.916723 3.357000 78 55 64
0.715695 0.913530 3.324000 79 54 51
0.709021 0.910775 3.293000 81 57 62
0.702346 0.907911 3.262000 80 59 73
0.702346 0.913621 3.262000 80 58 74
0.695671 0.910595 3.231000 80 58 76
0.689212 0.907743 3.201000 80 60 77
0.670695 0.888808 3.115000 79 65 78
0.658638 0.878184 3.059000 79 59 77
0.653040 0.876029 3.033000 80 58 76
0.641628 0.865937 2.980000 82 56 77
0.630863 0.856537 2.930000 81 54 79
0.620312 0.847256 2.881000 80 57 73
0.615145 0.845199 2.857000 82 58 67
0.610193 0.843356 2.834000 85 57 67
0.605025 0.841133 2.810000 82 59 68
0.600288 0.839428 2.788000 80 61 69
0.595336 0.837343 2.765000 79 63 70
0.590599 0.835482 2.743000 78 59 75
0.586078 0.833851 2.722000 75 56 80
0.577035 0.825676 2.680000 73 55 74
0.572513 0.823861 2.659000 79 54 69
0.568207 0.822284 2.639000 86 57 68
0.568207 0.826903 2.639000 82 56 68
0.563901 0.825221 2.619000 79 56 64
0.555504 0.817449 2.580000 78 56 61
0.551197 0.815593 2.560000 78 55 66
0.551197 0.820074 2.560000 77 53 71
0.535480 0.801043 2.487000 77 55 65
0.527728 0.793738 2.451000 76 57 59
0.524068 0.792493 2.434000 76 54 57
0.520408 0.791189 2.417000 79 50 55
0.520408 0.795420 2.417000 83 50 54
0.516748 0.794027 2.400000 79 52 53
0.513303 0.792907 2.384000 76 52 54
0.513303 0.797080 2.384000 74 49 56
0.506197 0.790162 2.351000 72 48 56
0.499523 0.783804 2.320000 74 52 56
0.492848 0.777338 2.289000 76 51 58
0.486389 0.771104 2.259000 75 49 60
0.483159 0.769912 2.244000 75 50 65
0.476915 0.763840 2.215000 78 52 71
0.473901 0.762865 2.201000 81 47 65
0.470886 0.761841 2.187000 77 46 59
0.470886 0.765669 2.187000 74 46 57
0.468087 0.764923 2.174000 79 46 55
0.465073 0.763778 2.160000 85 47 47
0.462274 0.762940 2.147000 81 49 40
0.456460 0.757056 2.120000 78 48 51
0.448279 0.747131 2.082000 77 51 62
0.448279 0.750776 2.082000 77 49 58
0.442896 0.745361 2.057000 70 47 54
0.440312 0.744593 2.045000 63 47 53
0.437728 0.743782 2.033000 66 43 53
0.435145 0.742930 2.021000 69 46 57
0.432561 0.742035 2.009000 68 48 61
0.430192 0.741470 1.998000 67 47 58
0.427609 0.740493 1.986000 69 47 55
0.425240 0.739849 1.975000 72 49 56
0.417920 0.730510 1.941000 70 49 56
0.415767 0.730127 1.931000 68 46 55
0.411030 0.725150 1.909000 73 47 54
0.408877 0.724676 1.899000 78 45 54
0.406508 0.723783 1.888000 74 45 55
0.402202 0.719386 1.868000 71 48 54
0.402202 0.722656 1.868000 68 50 54
0.400049 0.722039 1.858000 65 48 52
0.735840 0.919800 3.390000 87 57 74
0.728677 0.916723 3.357000 82 54 54
0.721514 0.913530 3.324000 82 57 35
0.714785 0.910775 3.293000 81 60 48
0.708056 0.907911 3.262000 79 60 62
0.701327 0.904939 3.231000 76 56 69
0.701327 0.910595 3.231000 79 58 76
0.688521 0.899519 3.172000 82 58 74
0.676148 0.888808 3.115000 82 63 73
0.663993 0.878184 3.059000 82 65 73
0.658349 0.876029 3.033000 82 63 74
0.646845 0.865937 2.980000 82 64 75
0.641418 0.863846 2.955000 81 60 76
0.630565 0.854314 2.905000 79 59 69
0.625356 0.852299 2.881000 81 59 62
0.620146 0.850200 2.857000 83 59 65
0.609944 0.841133 2.810000 82 58 68
0.605169 0.839428 2.788000 81 61 69
0.600176 0.837343 2.765000 80 61 70
0.595401 0.835482 2.743000 80 60 70
0.590843 0.833851 2.722000 78 57 70
0.581726 0.825676 2.680000 76 55 68
0.577168 0.823861 2.659000 79 56 67
0.577168 0.828515 2.659000 83 60 66
0.572827 0.826903 2.639000 81 57 65
0.568485 0.825221 2.619000 78 56 62
0.555679 0.811112 2.560000 78 55 59
0.551772 0.809859 2.542000 78 56 61
0.551772 0.814308 2.542000 78 56 64
0.543740 0.806841 2.505000 78 60 60
0.532019 0.793738 2.451000 76 58 56
0.528329 0.792493 2.434000 74 56 54
0.524639 0.791189 2.417000 75 52 53
0.520949 0.789826 2.400000 76 51 51
0.517476 0.788733 2.384000 75 51 50
0.517476 0.792907 2.384000 73 53 49
0.513786 0.791396 2.367000 71 49 49
0.510313 0.790162 2.351000 69 47 51
0.503584 0.783804 2.320000 74 49 54
0.496855 0.777338 2.289000 79 53 54
0.490343 0.771104 2.259000 77 52 55
0.487087 0.769912 2.244000 76 53 65
0.484048 0.769012 2.230000 77 48 76
0.477754 0.762865 2.201000 79 44 70
0.474715 0.761841 2.187000 75 45 64
0.474715 0.765669 2.187000 72 46 59
0.471893 0.764923 2.174000 75 46 55
0.468854 0.763778 2.160000 79 46 42
0.460171 0.753345 2.120000 78 47 29
0.457350 0.752414 2.107000 77 48 46
0.454745 0.751796 2.095000 76 50 63
0.451923 0.750776 2.082000 74 51 59
0.446497 0.745361 2.057000 68 49 56
0.443892 0.744593 2.045000 62 49 56
0.441287 0.743782 2.033000 65 48 56
0.438682 0.742930 2.021000 68 48 60
0.436078 0.742035 2.009000 69 47 65
0.433690 0.741470 1.998000 70 47 61
0.431085 0.740493 1.986000 70 46 58
0.428697 0.739849 1.975000 70 47 59
0.426310 0.739166 1.964000 69 46 60
0.421317 0.733908 1.941000 68 45 56
0.416759 0.729329 1.920000 71 44 53
0.412201 0.724676 1.899000 74 44 53
0.409813 0.723783 1.888000 72 46 54
0.407642 0.723237 1.878000 69 50 54
0.405472 0.722656 1.868000 67 49 55
0.403301 0.722039 1.858000 65 47 50
0.713766 0.902201 3.262000 82 62 59
0.713766 0.907911 3.262000 77 68 69
0.706983 0.904939 3.231000 73 62 76
0.700419 0.902140 3.201000 78 62 83
0.694073 0.899519 3.172000 84 59 81
0.681601 0.888808 3.115000 84 65 79
0.669348 0.878184 3.059000 85 67 77
0.663658 0.876029 3.033000 84 68 76
0.652061 0.865937 2.980000 83 64 76
0.646591 0.863846 2.955000 81 63 77
0.635650 0.854314 2.905000 79 62 73
0.630399 0.852299 2.881000 80 61 70
0.625147 0.850200 2.857000 82 57 71
0.614863 0.841133 2.810000 82 55 72
0.610049 0.839428 2.788000 82 59 70
0.605017 0.837343 2.765000 82 63 68
0.600203 0.835482 2.743000 82 61 67
0.595608 0.833851 2.722000 80 60 66
0.586418 0.825676 2.680000 79 57 65
0.581822 0.823861 2.659000 80 58 64
0.581822 0.828515 2.659000 81 59 66
0.573070 0.820636 2.619000 79 57 68
0.564536 0.812932 2.580000 78 55 64
0.560160 0.811112 2.560000 78 55 60
0.556221 0.809859 2.542000 78 56 62
0.552064 0.808222 2.523000 79 56 64
0.548125 0.806841 2.505000 80 57 60
0.536309 0.793738 2.451000 76 60 57
0.532590 0.792493 2.434000 73 57 55
0.528870 0.791189 2.417000 71 54 54
0.528870 0.795420 2.417000 70 52 54
0.521649 0.788733 2.384000 70 49 55
0.521649 0.792907 2.384000 71 50 53
0.517929 0.791396 2.367000 69 49 52
0.514428 0.790162 2.351000 67 48 54
0.504144 0.778399 2.304000 74 47 56
0.500862 0.777338 2.289000 82 50 56
0.494297 0.771104 2.259000 79 53 56
0.491015 0.769912 2.244000 77 50 63
0.484670 0.763840 2.215000 77 45 70
0.481606 0.762865 2.201000 77 45 66
0.478543 0.761841 2.187000 74 46 62
0.478543 0.765669 2.187000 71 47 59
0.475698 0.764923 2.174000 72 49 55
0.475698 0.768729 2.174000 73 47 47
0.466727 0.757965 2.133000 75 46 39
0.463883 0.757056 2.120000 77 48 51
0.458412 0.751796 2.095000 74 50 63
0.455568 0.750776 2.082000 72 50 59
0.452723 0.749709 2.069000 67 50 56
0.444846 0.740224 2.033000 62 49 54
0.444846 0.743782 2.033000 65 53 53
0.442220 0.742930 2.021000 68 49 57
0.439594 0.742035 2.009000 71 47 61
0.437187 0.741470 1.998000 74 47 58
0.434562 0.740493 1.986000 71 46 56
0.432155 0.739849 1.975000 69 46 57
0.429748 0.739166 1.964000 69 45 59
0.424715 0.733908 1.941000 69 43 53
0.420120 0.729329 1.920000 70 41 48
0.415525 0.724676 1.899000 71 43 51
0.413118 0.723783 1.888000 69 46 53
0.408742 0.719386 1.868000 68 47 54
0.408742 0.722656 1.868000 66 50 55
0.406554 0.722039 1.858000 65 47 55
0.719477 0.902201 3.262000 82 61 70
0.712639 0.899283 3.231000 80 49 77
0.706022 0.896536 3.201000 79 63 84
0.706022 0.902140 3.201000 83 54 91
0.693230 0.891295 3.143000 87 53 88
0.687054 0.888808 3.115000 87 53 85
0.680878 0.886222 3.087000 87 71 81
0.674702 0.883539 3.059000 86 69 78
0.657278 0.865937 2.980000 85 64 78
0.651764 0.863846 2.955000 83 65 78
0.646250 0.861666 2.930000 82 65 78
0.640736 0.859399 2.905000 83 60 79
0.635442 0.857343 2.881000 84 55 77
0.625076 0.848317 2.834000 84 55 76
0.619782 0.846052 2.810000 83 57 71
0.609857 0.837343 2.765000 83 59 66
0.605004 0.835482 2.743000 83 64 64
0.595741 0.827418 2.701000 83 59 62
0.591109 0.825676 2.680000 83 56 62
0.586477 0.823861 2.659000 82 57 62
0.586477 0.828515 2.659000 82 62 67
0.577655 0.820636 2.619000 80 58 72
0.569053 0.812932 2.580000 78 55 67
0.564641 0.811112 2.560000 77 55 62
0.560671 0.809859 2.542000 76 59 63
0.556481 0.808222 2.523000 76 57 65
0.552510 0.806841 2.505000 77 55 61
0.540600 0.793738 2.451000 75 56 58
0.536850 0.792493 2.434000 74 59 57
0.533101 0.791189 2.417000 72 55 56
0.529351 0.789826 2.400000 71 55 58
0.525822 0.788733 2.384000 71 50 60
0.522073 0.787252 2.367000 71 49 58
0.518544 0.786047 2.351000 69 51 56
0.515015 0.784784 2.335000 68 52 57
0.508177 0.778399 2.304000 73 49 59
0.504869 0.777338 2.289000 78 47 58
0.498252 0.771104 2.259000 76 49 58
0.494943 0.769912 2.244000 74 51 61
0.491856 0.769012 2.230000 73 48 65
0.488547 0.767717 2.215000 73 46 63
0.482371 0.761841 2.187000 72 46 61
0.482371 0.765669 2.187000 71 49 58
0.479504 0.764923 2.174000 70 49 56
0.476416 0.763778 2.160000 70 50 52
0.467594 0.753345 2.120000 72 49 49
0.464726 0.752414 2.107000 75 50 56
0.462080 0.751796 2.095000 71 50 63
0.459212 0.750776 2.082000 68 50 59
0.456345 0.749709 2.069000 66 47 56
0.448405 0.740224 2.033000 64 45 53
0.448405 0.743782 2.033000 69 48 51
0.445758 0.742930 2.021000 73 49 54
0.440685 0.737972 1.998000 73 47 57
0.440685 0.741470 1.998000 73 49 55
0.438038 0.740493 1.986000 70 47 54
0.438038 0.743970 1.986000 67 47 56
0.435612 0.743306 1.975000 66 45 58
0.430539 0.738067 1.952000 65 41 51
0.425907 0.733507 1.931000 66 41 44
0.418849 0.724676 1.899000 68 44 48
0.416423 0.723783 1.888000 66 45 53
0.409806 0.715534 1.858000 65 44 54
0.412012 0.722656 1.868000 66 47 56
0.407600 0.718153 1.848000 67 48 61
0.725187 0.902201 3.262000 82 55 83
0.718295 0.899283 3.231000 84 6 80
0.711626 0.896536 3.201000 86 57 90
0.711626 0.902140 3.201000 88 39 100
0.705178 0.899519 3.172000 90 58 88
0.692507 0.888808 3.115000 90 25 77
0.686282 0.886222 3.087000 90 63 79
0.680057 0.883539 3.059000 89 74 80
0.668274 0.873493 3.006000 88 70 80
0.656936 0.863846 2.955000 86 68 80
0.651379 0.861666 2.930000 85 66 82
0.645821 0.859399 2.905000 86 60 84
0.640485 0.857343 2.881000 87 56 80
0.630036 0.848317 2.834000 86 55 77
0.624701 0.846052 2.810000 85 57 75
0.614697 0.837343 2.765000 84 55 74
0.614697 0.842183 2.765000 84 58 69
0.609806 0.840284 2.743000 85 58 65
0.605137 0.838616 2.722000 87 56 63
0.591132 0.823861 2.659000 85 55 62
0.591132 0.828515 2.659000 83 58 61
0.582239 0.820636 2.619000 81 58 61
0.577793 0.818919 2.599000 79 55 59
0.569123 0.811112 2.560000 76 53 58
0.565121 0.809859 2.542000 74 56 60
0.560897 0.808222 2.523000 74 59 61
0.556895 0.806841 2.505000 75 54 60
0.552894 0.805396 2.487000 75 52 59
0.544890 0.798029 2.451000 75 54 58
0.537332 0.791189 2.417000 73 55 58
0.533552 0.789826 2.400000 72 53 62
0.529995 0.788733 2.384000 71 47 66
0.526216 0.787252 2.367000 71 49 62
0.522659 0.786047 2.351000 70 55 57
0.519102 0.784784 2.335000 69 53 52
0.512210 0.778399 2.304000 71 51 47
0.505541 0.772244 2.274000 74 48 50
0.502206 0.771104 2.259000 73 45 54
0.498872 0.769912 2.244000 72 48 56
0.495759 0.769012 2.230000 70 51 59
0.492424 0.767717 2.215000 69 49 59
0.489312 0.766717 2.201000 70 46 60
0.486200 0.765669 2.187000 71 48 58
0.483310 0.764923 2.174000 69 50 56
0.480197 0.763778 2.160000 68 49 56
0.474195 0.757965 2.133000 70 51 55
0.471305 0.757056 2.120000 73 50 57
0.465747 0.751796 2.095000 69 50 60
0.462857 0.750776 2.082000 65 48 58
0.459967 0.749709 2.069000 66 46 57
0.451963 0.740224 2.033000 67 47 57
0.451963 0.743782 2.033000 73 47 58
0.449296 0.742930 2.021000 79 46 56
0.444182 0.737972 1.998000 75 46 54
0.441515 0.737017 1.986000 72 48 55
0.439069 0.736392 1.975000 68 48 56
0.439069 0.739849 1.975000 65 48 54
0.436624 0.739166 1.964000 63 49 53
0.433956 0.738067 1.952000 61 44 46
0.429287 0.733507 1.931000 63 39 39
0.422173 0.724676 1.899000 65 42 43
0.419728 0.723783 1.888000 64 47 47
0.413058 0.715534 1.858000 63 46 49
0.415282 0.722656 1.868000 66 47 51
0.408612 0.714267 1.838000 69 47 51
0.730897 0.902201 3.262000 116 138 97
0.723951 0.899283 3.231000 115 97 83
0.717229 0.896536 3.201000 115 123 96
0.717229 0.902140 3.201000 116 100 109
0.710731 0.899519 3.172000 118 118 89
0.697959 0.888808 3.115000 106 84 70
0.691686 0.886222 3.087000 95 83 76
0.679586 0.876029 3.033000 93 76 83
0.667711 0.865937 2.980000 91 75 83
0.662109 0.863846 2.955000 89 71 83
0.656508 0.861666 2.930000 88 72 86
0.650906 0.859399 2.905000 89 63 90
0.645528 0.857343 2.881000 90 56 84
0.634997 0.848317 2.834000 87 57 78
0.629620 0.846052 2.810000 84 61 80
0.619537 0.837343 2.765000 84 58 82
0.614608 0.835482 2.743000 83 57 75
0.614608 0.840284 2.743000 83 56 68
0.609902 0.838616 2.722000 83 58 65
0.600492 0.830367 2.680000 82 57 62
0.595786 0.828515 2.659000 81 60 56
0.591305 0.826903 2.639000 79 58 50
0.582342 0.818919 2.599000 78 56 52
0.569571 0.805409 2.542000 74 54 55
0.565313 0.803805 2.523000 70 54 56
0.561280 0.802456 2.505000 72 55 58
0.557247 0.801043 2.487000 75 51 59
0.557247 0.805396 2.487000 78 51 60
0.549181 0.798029 2.451000 81 51 60
0.545372 0.796754 2.434000 77 54 61
0.537754 0.789826 2.400000 74 56 67
0.534169 0.788733 2.384000 71 50 73
0.530360 0.787252 2.367000 69 45 66
0.526774 0.786047 2.351000 66 52 59
0.523189 0.784784 2.335000 63 55 47
0.516244 0.778399 2.304000 69 50 35
0.509522 0.772244 2.274000 75 49 42
0.506161 0.771104 2.259000 71 47 50
0.502800 0.769912 2.244000 67 45 52
0.499663 0.769012 2.230000 64 50 54
0.496302 0.767717 2.215000 61 54 56
0.490028 0.761841 2.187000 64 50 59
0.490028 0.765669 2.187000 67 47 58
0.487115 0.764923 2.174000 64 47 57
0.481065 0.759182 2.147000 62 47 59
0.477929 0.757965 2.133000 66 49 62
0.475016 0.757056 2.120000 70 51 59
0.472103 0.756102 2.107000 67 48 57
0.466501 0.750776 2.082000 64 47 57
0.460900 0.745361 2.057000 64 46 58
0.455522 0.740224 2.033000 65 50 61
0.452833 0.739392 2.021000 68 47 65
0.450145 0.738519 2.009000 71 45 58
0.444991 0.733540 1.986000 69 46 52
0.444991 0.737017 1.986000 68 49 55
0.442526 0.736392 1.975000 62 48 58
0.442526 0.739849 1.975000 57 49 53
0.440062 0.739166 1.964000 59 48 49
0.434908 0.733908 1.941000 62 49 41
0.430203 0.729329 1.920000 63 43 34
0.425498 0.724676 1.899000 64 41 38
0.423033 0.723783 1.888000 58 44 42
0.416311 0.715534 1.858000 53 47 44
0.416311 0.718787 1.858000 60 47 47
0.411830 0.714267 1.838000 66 47 40
0.722832 0.896536 3.201000 144 112 89
0.722832 0.902140 3.201000 145 123 97
0.716284 0.899519 3.172000 146 110 88
0.709735 0.896797 3.143000 123 113 80
0.697089 0.886222 3.087000 101 84 81
0.684895 0.876029 3.033000 97 73 83
0.672927 0.865937 2.980000 94 71 81
0.667282 0.863846 2.955000 92 69 80
0.661637 0.861666 2.930000 91 69 80
0.655991 0.859399 2.905000 92 66 80
0.650572 0.857343 2.881000 93 60 75
0.645152 0.855202 2.857000 88 59 70
0.634539 0.846052 2.810000 84 60 72
0.624377 0.837343 2.765000 83 60 75
0.619409 0.835482 2.743000 83 57 70
0.619409 0.840284 2.743000 81 53 66
0.614667 0.838616 2.722000 79 54 63
0.614667 0.843381 2.722000 79 57 61
0.609925 0.841602 2.701000 79 58 60
0.595924 0.826903 2.639000 78 59 60
0.578085 0.806631 2.560000 77 56 59
0.574021 0.805409 2.542000 72 54 58
0.569730 0.803805 2.523000 67 55 57
0.565665 0.802456 2.505000 71 56 55
0.561601 0.801043 2.487000 75 53 55
0.561601 0.805396 2.487000 81 51 55
0.557536 0.803889 2.469000 88 53 56
0.549632 0.796754 2.434000 82 56 57
0.545794 0.795420 2.417000 76 54 62
0.538342 0.788733 2.384000 71 52 67
0.534503 0.787252 2.367000 67 51 63
0.530890 0.786047 2.351000 62 54 60
0.527277 0.784784 2.335000 58 52 51
0.520277 0.778399 2.304000 67 48 42
0.513502 0.772244 2.274000 77 48 46
0.510115 0.771104 2.259000 70 49 49
0.506728 0.769912 2.244000 63 49 51
0.503566 0.769012 2.230000 58 50 53
0.493856 0.758012 2.187000 53 51 54
0.490921 0.757312 2.174000 58 53 55
0.490921 0.761117 2.174000 64 49 57
0.487759 0.759997 2.160000 60 46 58
0.484824 0.759182 2.147000 56 46 64
0.481662 0.757965 2.133000 62 47 70
0.481662 0.761699 2.133000 68 48 65
0.478727 0.760767 2.120000 66 46 61
0.473081 0.755463 2.095000 64 45 59
0.467210 0.749709 2.069000 63 44 57
0.456371 0.735854 2.021000 63 46 58
0.456371 0.739392 2.021000 63 47 59
0.453661 0.738519 2.009000 64 47 54
0.448468 0.733540 1.986000 64 47 50
0.445984 0.732935 1.975000 64 47 56
0.445984 0.736392 1.975000 57 48 62
0.445984 0.739849 1.975000 50 47 57
0.443500 0.739166 1.964000 56 46 52
0.438306 0.733908 1.941000 63 46 46
0.436048 0.733507 1.931000 63 46 40
0.428822 0.724676 1.899000 63 43 43
0.426338 0.723783 1.888000 53 43 46
0.419563 0.715534 1.858000 44 46 49
0.417305 0.714918 1.848000 54 48 52
0.415047 0.714267 1.838000 64 45 52
0.721836 0.893967 3.172000 120 92 85
0.715237 0.891295 3.143000 121 87 87
0.708865 0.888808 3.115000 109 86 90
0.702493 0.886222 3.087000 97 67 87
0.690205 0.876029 3.033000 94 66 84
0.678144 0.865937 2.980000 92 69 80
0.672455 0.863846 2.955000 91 68 77
0.666766 0.861666 2.930000 90 69 74
0.661076 0.859399 2.905000 89 65 71
0.655615 0.857343 2.881000 88 60 67
0.650153 0.855202 2.857000 86 59 63
0.639458 0.846052 2.810000 83 60 65
0.629217 0.837343 2.765000 82 59 68
0.624211 0.835482 2.743000 82 59 66
0.624211 0.840284 2.743000 79 52 65
0.619432 0.838616 2.722000 76 50 62
0.619432 0.843381 2.722000 77 54 60
0.614653 0.841602 2.701000 78 56 65
0.600544 0.826903 2.639000 77 56 71
0.591441 0.818919 2.599000 77 56 66
0.574147 0.799389 2.523000 75 55 62
0.570050 0.798071 2.505000 73 58 57
0.570050 0.802456 2.505000 73 55 53
0.565954 0.801043 2.487000 74 55 51
0.565954 0.805396 2.487000 77 53 50
0.561858 0.803889 2.469000 80 54 52
0.553893 0.796754 2.434000 77 55 54
0.546156 0.789826 2.400000 74 54 58
0.542515 0.788733 2.384000 72 52 62
0.538646 0.787252 2.367000 69 53 61
0.535005 0.786047 2.351000 67 53 61
0.531364 0.784784 2.335000 65 53 55
0.524310 0.778399 2.304000 69 49 50
0.520896 0.777338 2.289000 74 48 49
0.517483 0.776224 2.274000 69 50 49
0.510656 0.769912 2.244000 65 53 51
0.507470 0.769012 2.230000 65 50 53
0.500871 0.762865 2.201000 65 49 52
0.497685 0.761841 2.187000 67 49 52
0.494726 0.761117 2.174000 69 51 56
0.488582 0.755423 2.147000 65 48 60
0.488582 0.759182 2.147000 62 47 69
0.485396 0.757965 2.133000 68 47 79
0.485396 0.761699 2.133000 74 48 72
0.482438 0.760767 2.120000 69 47 65
0.476749 0.755463 2.095000 64 46 60
0.470832 0.749709 2.069000 63 45 56
0.459909 0.735854 2.021000 63 44 54
0.459909 0.739392 2.021000 62 47 53
0.457178 0.738519 2.009000 62 50 51
0.451944 0.733540 1.986000 63 49 49
0.449441 0.732935 1.975000 64 47 57
0.449441 0.736392 1.975000 59 47 66
0.449441 0.739849 1.975000 55 47 61
0.446938 0.739166 1.964000 58 47 56
0.441704 0.733908 1.941000 62 46 51
0.436925 0.729329 1.920000 64 45 47
0.434422 0.728492 1.909000 65 45 49
0.432146 0.728000 1.899000 63 45 51
0.429643 0.727088 1.888000 62 47 54
0.420540 0.714918 1.848000 62 46 57
0.415989 0.710381 1.828000 62 42 64
0.707897 0.880819 3.087000 95 80 82
0.701476 0.878184 3.059000 93 66 80
0.695514 0.876029 3.033000 91 58 77
0.683360 0.865937 2.980000 90 64 76
0.677627 0.863846 2.955000 89 67 74
0.671894 0.861666 2.930000 89 66 71
0.666162 0.859399 2.905000 86 66 69
0.666162 0.864484 2.905000 84 61 65
0.644377 0.841133 2.810000 83 60 61
0.644377 0.846052 2.810000 83 59 60
0.634057 0.837343 2.765000 82 58 60
0.629012 0.835482 2.743000 81 55 59
0.629012 0.840284 2.743000 77 49 57
0.624197 0.838616 2.722000 73 51 58
0.624197 0.843381 2.722000 75 55 58
0.614566 0.835059 2.680000 77 55 62
0.600577 0.820636 2.619000 77 55 67
0.591634 0.812932 2.580000 77 54 63
0.578563 0.799389 2.523000 78 53 60
0.574435 0.798071 2.505000 80 53 50
0.574435 0.802456 2.505000 76 51 41
0.570308 0.801043 2.487000 73 54 48
0.570308 0.805396 2.487000 72 55 56
0.566180 0.803889 2.469000 72 56 53
0.558154 0.796754 2.434000 72 57 50
0.550357 0.789826 2.400000 73 53 50
0.546688 0.788733 2.384000 72 50 51
0.542790 0.787252 2.367000 72 53 53
0.535452 0.780697 2.335000 72 55 56
0.532012 0.779743 2.320000 72 52 48
0.524903 0.773331 2.289000 71 49 40
0.521464 0.772244 2.274000 71 49 48
0.518024 0.771104 2.259000 69 51 55
0.514584 0.769912 2.244000 68 51 54
0.511374 0.769012 2.230000 72 51 54
0.504723 0.762865 2.201000 77 48 52
0.501513 0.761841 2.187000 75 46 50
0.498532 0.761117 2.174000 74 48 45
0.495322 0.759997 2.160000 71 49 40
0.492340 0.759182 2.147000 69 48 53
0.489130 0.757965 2.133000 74 49 65
0.489130 0.761699 2.133000 80 49 62
0.486149 0.760767 2.120000 72 50 58
0.480416 0.755463 2.095000 64 48 56
0.477435 0.754420 2.082000 63 49 55
0.466198 0.740224 2.033000 63 47 52
0.463447 0.739392 2.021000 62 47 50
0.460695 0.738519 2.009000 61 48 44
0.455421 0.733540 1.986000 62 52 38
0.452898 0.732935 1.975000 64 49 47
0.452898 0.736392 1.975000 62 47 56
0.452898 0.739849 1.975000 60 48 54
0.447624 0.734650 1.952000 61 49 52
0.442808 0.730127 1.931000 62 46 50
0.440286 0.729329 1.920000 65 44 49
0.437763 0.728492 1.909000 68 45 49
0.435470 0.728000 1.899000 74 46 50
0.428361 0.719386 1.868000 80 47 52
0.423775 0.714918 1.848000 70 50 54
0.419189 0.710381 1.828000 60 46 58
0.694584 0.868231 3.006000 88 60 71
0.688577 0.865937 2.980000 87 65 71
0.682800 0.863846 2.955000 85 65 72
0.677023 0.861666 2.930000 83 65 69
0.677023 0.866795 2.930000 79 62 67
0.671247 0.864484 2.905000 76 60 63
0.649295 0.841133 2.810000 79 59 59
0.649295 0.846052 2.810000 82 60 56
0.638897 0.837343 2.765000 82 57 53
0.633814 0.835482 2.743000 83 56 51
0.633814 0.840284 2.743000 78 51 50
0.628962 0.838616 2.722000 74 50 53
0.628962 0.843381 2.722000 76 54 57
0.624109 0.841602 2.701000 78 57 60
0.605162 0.820636 2.619000 76 55 63
0.596150 0.812932 2.580000 74 54 60
0.591529 0.811112 2.560000 75 52 58
0.582980 0.803805 2.523000 76 51 43
0.578820 0.802456 2.505000 73 52 29
0.574661 0.801043 2.487000 71 55 46
0.574661 0.805396 2.487000 70 56 63
0.570502 0.803889 2.469000 68 59 55
0.562415 0.796754 2.434000 67 55 47
0.558487 0.795420 2.417000 65 51 43
0.550861 0.788733 2.384000 67 50 40
0.546933 0.787252 2.367000 70 54 45
0.539539 0.780697 2.335000 71 53 51
0.536073 0.779743 2.320000 73 52 41
0.528910 0.773331 2.289000 71 49 31
0.525444 0.772244 2.274000 70 49 46
0.521978 0.771104 2.259000 68 49 62
0.518512 0.769912 2.244000 66 49 58
0.515277 0.769012 2.230000 70 48 55
0.511811 0.767717 2.215000 74 46 51
0.508576 0.766717 2.201000 71 46 48
0.505341 0.765669 2.187000 69 49 34
0.502337 0.764923 2.174000 67 49 21
0.499103 0.763778 2.160000 64 49 36
0.496099 0.762940 2.147000 69 49 52
0.492864 0.761699 2.133000 73 50 52
0.489860 0.760767 2.120000 67 49 52
0.484083 0.755463 2.095000 61 48 53
0.481079 0.754420 2.082000 60 48 54
0.466984 0.735854 2.021000 58 49 50
0.466984 0.739392 2.021000 60 48 47
0.464212 0.738519 2.009000 62 46 37
0.461670 0.737972 1.998000 62 49 27
0.456355 0.732935 1.975000 62 53 37
0.456355 0.736392 1.975000 62 49 47
0.453814 0.735728 1.964000 62 49 48
0.451041 0.734650 1.952000 62 48 49
0.446188 0.730127 1.931000 63 47 50
0.441105 0.725150 1.909000 64 46 51
0.441105 0.728492 1.909000 65 47 50
0.438794 0.728000 1.899000 68 44 49
0.431631 0.719386 1.868000 71 45 50
0.427010 0.714918 1.848000 65 47 51
0.422389 0.710381 1.828000 60 49 52
0.693793 0.865937 2.980000 84 60 64
0.687973 0.863846 2.955000 81 63 68
0.682152 0.861666 2.930000 78 60 66
0.687973 0.874191 2.955000 73 59 64
0.676332 0.864484 2.905000 68 57 57
0.638616 0.821077 2.743000 74 56 49
0.638616 0.825879 2.743000 81 56 52
0.638616 0.830681 2.743000 83 54 55
0.638616 0.835482 2.743000 86 53 56
0.633727 0.833851 2.722000 80 51 58
0.633727 0.838616 2.722000 75 51 57
0.628837 0.836874 2.701000 77 55 57
0.623948 0.835059 2.680000 80 55 59
0.614403 0.826903 2.639000 76 56 61
0.600667 0.812932 2.580000 72 53 60
0.596010 0.811112 2.560000 72 51 60
0.587396 0.803805 2.523000 72 51 51
0.583205 0.802456 2.505000 71 53 42
0.579015 0.801043 2.487000 70 53 50
0.579015 0.805396 2.487000 67 57 58
0.574824 0.803889 2.469000 65 55 54
0.566675 0.796754 2.434000 61 56 50
0.562717 0.795420 2.417000 58 51 47
0.558760 0.794027 2.400000 63 47 44
0.551077 0.787252 2.367000 68 50 48
0.543627 0.780697 2.335000 71 51 52
0.543627 0.784784 2.335000 74 49 44
0.532917 0.773331 2.289000 71 47 37
0.529425 0.772244 2.274000 69 48 46
0.522440 0.765984 2.244000 67 49 56
0.522440 0.769912 2.244000 65 48 53
0.519181 0.769012 2.230000 68 48 50
0.515689 0.767717 2.215000 71 46 47
0.512429 0.766717 2.201000 68 43 45
0.509170 0.765669 2.187000 65 47 40
0.506143 0.764923 2.174000 62 49 35
0.502884 0.763778 2.160000 60 49 46
0.499857 0.762940 2.147000 63 51 57
0.496598 0.761699 2.133000 67 50 55
0.496598 0.765432 2.133000 63 48 53
0.484724 0.750776 2.082000 59 48 53
0.484724 0.754420 2.082000 56 48 53
0.470522 0.735854 2.021000 54 49 49
0.470522 0.739392 2.021000 58 50 46
0.465167 0.734475 1.998000 63 48 40
0.462374 0.733540 1.986000 62 46 35
0.459813 0.732935 1.975000 61 49 41
0.459813 0.736392 1.975000 62 50 47
0.457252 0.735728 1.964000 64 48 49
0.451897 0.730510 1.941000 64 47 50
0.447008 0.725967 1.920000 64 45 50
0.444447 0.725150 1.909000 63 46 49
0.444447 0.728492 1.909000 62 44 45
0.442119 0.728000 1.899000 62 40 41
0.437229 0.723237 1.878000 63 43 45
0.430245 0.714918 1.848000 61 46 50
0.427917 0.714267 1.838000 60 48 50
0.699010 0.865937 2.980000 82 55 58
0.693146 0.863846 2.955000 79 56 65
0.687281 0.861666 2.930000 77 54 63
0.687281 0.866795 2.930000 76 54 62
0.681417 0.864484 2.905000 76 53 51
0.648578 0.827663 2.765000 78 54 40
0.643417 0.825879 2.743000 79 55 48
0.643417 0.830681 2.743000 79 53 57
0.643417 0.835482 2.743000 79 51 61
0.638491 0.833851 2.722000 75 50 66
0.638491 0.838616 2.722000 71 49 61
0.633566 0.836874 2.701000 70 52 57
0.623714 0.828515 2.659000 68 55 58
0.619022 0.826903 2.639000 69 55 60
0.605183 0.812932 2.580000 70 53 61
0.605183 0.817449 2.580000 69 51 62
0.591813 0.803805 2.523000 69 51 59
0.587590 0.802456 2.505000 69 51 56
0.587590 0.806841 2.505000 69 50 54
0.583368 0.805396 2.487000 66 51 53
0.579146 0.803889 2.469000 64 50 53
0.574924 0.802319 2.451000 63 51 54
0.570936 0.801015 2.434000 63 50 51
0.562961 0.794027 2.400000 65 48 49
0.559208 0.792907 2.384000 68 48 51
0.551467 0.786047 2.351000 71 49 53
0.547714 0.784784 2.335000 75 49 48
0.544196 0.783804 2.320000 71 48 44
0.533405 0.772244 2.274000 67 50 47
0.529887 0.771104 2.259000 65 49 50
0.526368 0.769912 2.244000 64 49 47
0.523084 0.769012 2.230000 65 48 45
0.519566 0.767717 2.215000 67 47 43
0.516282 0.766717 2.201000 67 46 42
0.512998 0.765669 2.187000 66 47 45
0.512998 0.769497 2.187000 64 48 49
0.506665 0.763778 2.160000 62 50 56
0.503615 0.762940 2.147000 62 51 63
0.500331 0.761699 2.133000 63 53 58
0.497282 0.760767 2.120000 61 51 54
0.491418 0.755463 2.095000 60 48 53
0.488369 0.754420 2.082000 59 48 52
0.476875 0.740224 2.033000 58 49 48
0.474060 0.739392 2.021000 63 50 45
0.468665 0.734475 1.998000 67 50 44
0.465850 0.733540 1.986000 63 48 44
0.463270 0.732935 1.975000 60 50 46
0.460690 0.732290 1.964000 65 49 48
0.460690 0.735728 1.964000 71 49 50
0.452949 0.726746 1.931000 67 45 52
0.450369 0.725967 1.920000 64 43 50
0.447788 0.725150 1.909000 62 44 48
0.447788 0.728492 1.909000 61 45 41
0.447788 0.731833 1.909000 60 43 34
0.442863 0.727088 1.888000 59 43 41
0.435826 0.718787 1.858000 59 47 49
0.431134 0.714267 1.838000 58 49 49
0.704226 0.865937 2.980000 80 54 60
0.698318 0.863846 2.955000 78 53 63
0.698318 0.869018 2.955000 76 53 62
0.692410 0.866795 2.930000 80 53 60
0.686502 0.864484 2.905000 85 52 55
0.658617 0.834248 2.787000 81 53 51
0.648219 0.825879 2.743000 78 54 52
0.648219 0.830681 2.743000 75 54 54
0.653418 0.842183 2.765000 73 52 53
0.648219 0.840284 2.743000 70 51 51
0.643256 0.838616 2.722000 68 51 53
0.638294 0.836874 2.701000 62 51 55
0.628368 0.828515 2.659000 57 54 55
0.623642 0.826903 2.639000 62 56 55
0.614189 0.818919 2.599000 68 55 58
0.609699 0.817449 2.580000 67 52 61
0.600719 0.809859 2.542000 67 49 58
0.591975 0.802456 2.505000 67 51 55
0.587722 0.801043 2.487000 68 51 53
0.587722 0.805396 2.487000 66 49 51
0.583468 0.803889 2.469000 64 49 51
0.579214 0.802319 2.451000 66 49 52
0.571179 0.795420 2.417000 68 48 49
0.567162 0.794027 2.400000 68 47 47
0.559364 0.787252 2.367000 69 48 49
0.555583 0.786047 2.351000 72 50 51
0.555583 0.790162 2.351000 76 48 49
0.548257 0.783804 2.320000 70 48 46
0.540931 0.777338 2.289000 65 49 46
0.537386 0.776224 2.274000 64 49 47
0.533841 0.775059 2.259000 63 48 45
0.526988 0.769012 2.230000 63 49 44
0.523443 0.767717 2.215000 64 48 38
0.520135 0.766717 2.201000 66 49 32
0.516826 0.765669 2.187000 68 48 39
0.516826 0.769497 2.187000 66 49 46
0.513754 0.768729 2.174000 64 50 51
0.507374 0.762940 2.147000 62 53 56
0.504065 0.761699 2.133000 60 54 54
0.500993 0.760767 2.120000 60 55 53
0.492013 0.750776 2.082000 61 49 54
0.488941 0.749709 2.069000 62 47 55
0.486105 0.748962 2.057000 63 48 47
0.477598 0.739392 2.021000 67 51 39
0.474762 0.738519 2.009000 72 51 44
0.473344 0.739819 2.003000 65 49 48
0.466727 0.732935 1.975000 59 48 52
0.464128 0.732290 1.964000 69 49 56
0.464128 0.735728 1.964000 79 46 55
0.456329 0.726746 1.931000 71 41 54
0.451130 0.721808 1.909000 64 42 51
0.448767 0.721351 1.899000 62 42 48
0.448767 0.724676 1.899000 61 45 43
0.448767 0.728000 1.899000 58 47 37
0.446167 0.727088 1.888000 56 47 40
0.441441 0.722656 1.868000 56 50 43
0.436715 0.718153 1.848000 57 51 46
0.709443 0.865937 2.980000 79 55 63
0.703491 0.863846 2.955000 75 54 62
0.703491 0.869018 2.955000 72 53 60
0.697539 0.866795 2.930000 76 53 59
0.691588 0.864484 2.905000 80 51 60
0.668971 0.841133 2.810000 79 53 62
0.660877 0.835815 2.776000 77 55 57
0.653021 0.830681 2.743000 75 54 52
0.653021 0.835482 2.743000 72 55 44
0.648021 0.833851 2.722000 72 55 37
0.643022 0.832146 2.701000 72 56 45
0.633023 0.823861 2.659000 68 51 53
0.628262 0.822284 2.639000 65 54 52
0.628262 0.826903 2.639000 69 56 51
0.623500 0.825221 2.619000 73 59 56
0.614215 0.817449 2.580000 69 51 61
0.609454 0.815593 2.560000 64 45 57
0.600646 0.808222 2.523000 64 49 54
0.596360 0.806841 2.505000 64 54 52
0.592075 0.805396 2.487000 65 49 50
0.587790 0.803889 2.469000 66 49 50
0.583505 0.802319 2.451000 69 48 50
0.575410 0.795420 2.417000 73 47 47
0.571363 0.794027 2.400000 70 48 45
0.563507 0.787252 2.367000 66 50 47
0.559698 0.786047 2.351000 69 49 50
0.555889 0.784784 2.335000 72 47 49
0.552318 0.783804 2.320000 67 48 49
0.544938 0.777338 2.289000 63 51 46
0.541367 0.776224 2.274000 61 48 44
0.537796 0.775059 2.259000 59 45 44
0.534225 0.773840 2.244000 62 47 44
0.530892 0.772916 2.230000 65 49 33
0.527321 0.771594 2.215000 65 48 22
0.523988 0.770570 2.201000 65 50 33
0.520655 0.769497 2.187000 63 50 44
0.517560 0.768729 2.174000 62 50 47
0.514227 0.767559 2.160000 60 52 50
0.507799 0.761699 2.133000 58 55 51
0.501609 0.756102 2.107000 58 52 52
0.495658 0.750776 2.082000 58 49 55
0.492563 0.749709 2.069000 61 46 59
0.489706 0.748962 2.057000 64 47 46
0.481135 0.739392 2.021000 65 51 34
0.481135 0.742930 2.021000 67 55 43
0.481135 0.746468 2.021000 64 48 53
0.474232 0.739243 1.992000 61 44 59
0.472803 0.740493 1.986000 67 46 65
0.467566 0.735728 1.964000 74 48 60
0.459709 0.726746 1.931000 69 44 56
0.454472 0.721808 1.909000 65 42 52
0.454472 0.725150 1.909000 64 43 49
0.454472 0.728492 1.909000 62 46 45
0.452091 0.728000 1.899000 62 47 41
0.449472 0.727088 1.888000 62 48 39
0.444711 0.722656 1.868000 59 50 38
0.437569 0.714267 1.838000 56 54 43
0.774854 0.893627 3.231000 79 58 56
0.767659 0.890933 3.201000 79 56 57
0.727369 0.870720 3.033000 79 58 60
0.720894 0.868231 3.006000 78 58 65
0.714659 0.865937 2.980000 78 58 62
0.708664 0.863846 2.955000 73 58 60
0.702668 0.861666 2.930000 68 56 59
0.702668 0.866795 2.930000 72 55 58
0.696673 0.864484 2.905000 76 54 63
0.676768 0.844725 2.822000 76 55 68
0.673890 0.846052 2.810000 77 54 62
0.657822 0.830681 2.743000 74 55 57
0.657822 0.835482 2.743000 72 56 51
0.652786 0.833851 2.722000 74 60 45
0.647750 0.832146 2.701000 76 54 50
0.637677 0.823861 2.659000 75 46 55
0.632881 0.822284 2.639000 74 50 47
0.632881 0.826903 2.639000 76 56 39
0.623288 0.818919 2.599000 79 55 49
0.623288 0.823469 2.599000 70 49 58
0.613935 0.815593 2.560000 62 46 56
0.605062 0.808222 2.523000 61 46 54
0.600745 0.806841 2.505000 60 49 53
0.596429 0.805396 2.487000 64 46 52
0.592112 0.803889 2.469000 68 47 51
0.587795 0.802319 2.451000 73 49 50
0.583718 0.801015 2.434000 79 49 46
0.575564 0.794027 2.400000 71 49 43
0.567650 0.787252 2.367000 64 49 46
0.563813 0.786047 2.351000 66 50 49
0.559976 0.784784 2.335000 68 49 49
0.556379 0.783804 2.320000 65 47 49
0.545347 0.772244 2.274000 62 48 48
0.541750 0.771104 2.259000 58 47 47
0.538153 0.769912 2.244000 55 45 46
0.538153 0.773840 2.244000 60 47 45
0.534795 0.772916 2.230000 66 46 38
0.531198 0.771594 2.215000 64 46 32
0.531198 0.775472 2.215000 63 48 38
0.527841 0.774423 2.201000 61 51 44
0.524483 0.773326 2.187000 60 50 45
0.518008 0.767559 2.160000 58 52 47
0.508415 0.757056 2.120000 56 51 49
0.502420 0.751796 2.095000 56 51 52
0.496184 0.746088 2.069000 56 48 54
0.493307 0.745361 2.057000 61 43 56
0.490429 0.744593 2.045000 66 46 49
0.487551 0.743782 2.033000 64 51 43
0.484673 0.742930 2.021000 62 49 47
0.484673 0.746468 2.021000 62 47 52
0.481795 0.745552 2.009000 63 46 55
0.465488 0.723715 1.941000 66 46 59
0.465488 0.727112 1.941000 69 47 57
0.460452 0.722606 1.920000 68 46 55
0.457813 0.721808 1.909000 67 44 51
0.455415 0.721351 1.899000 65 45 48
0.455415 0.724676 1.899000 64 47 45
0.455415 0.728000 1.899000 66 50 42
0.452777 0.727088 1.888000 68 48 41
0.447981 0.722656 1.868000 62 49 40
0.443185 0.718153 1.848000 56 51 43
0.776886 0.889478 3.216000 77 59 58
0.773262 0.890933 3.201000 77 59 61
0.766257 0.888414 3.172000 77 61 58
0.759251 0.885794 3.143000 73 61 56
0.752487 0.883355 3.115000 69 61 56
0.745724 0.880819 3.087000 73 59 56
0.738960 0.878184 3.059000 78 59 60
0.732679 0.876029 3.033000 77 58 65
0.719876 0.865937 2.980000 77 62 62
0.713836 0.863846 2.955000 71 59 59
0.707797 0.861666 2.930000 66 59 58
0.701758 0.859399 2.905000 72 57 58
0.695960 0.857343 2.881000 79 58 66
0.684607 0.848317 2.834000 77 55 75
0.678809 0.846052 2.810000 76 53 68
0.673494 0.844308 2.788000 75 54 62
0.657551 0.829086 2.722000 74 56 57
0.652478 0.827418 2.701000 76 56 53
0.652478 0.832146 2.701000 79 55 55
0.642332 0.823861 2.659000 77 48 58
0.637501 0.822284 2.639000 74 46 43
0.637501 0.826903 2.639000 74 52 28
0.627838 0.818919 2.599000 74 56 42
0.623248 0.817449 2.580000 69 50 56
0.618417 0.815593 2.560000 65 46 55
0.609479 0.808222 2.523000 67 47 54
0.600782 0.801043 2.487000 70 50 54
0.592086 0.793738 2.451000 69 47 54
0.592086 0.798029 2.451000 68 46 52
0.587979 0.796754 2.434000 70 48 50
0.583872 0.795420 2.417000 71 51 46
0.579766 0.794027 2.400000 65 48 42
0.571794 0.787252 2.367000 58 47 45
0.567929 0.786047 2.351000 62 49 49
0.564064 0.784784 2.335000 66 52 49
0.560440 0.783804 2.320000 65 49 50
0.552951 0.777338 2.289000 64 50 50
0.545704 0.771104 2.259000 62 47 51
0.542081 0.769912 2.244000 59 44 49
0.538699 0.769012 2.230000 65 45 47
0.535075 0.767717 2.215000 70 45 44
0.535075 0.771594 2.215000 66 45 42
0.528311 0.765669 2.187000 61 47 43
0.525171 0.764923 2.174000 61 47 44
0.521789 0.763778 2.160000 60 49 44
0.518649 0.762940 2.147000 58 48 44
0.508986 0.752414 2.107000 56 47 48
0.506087 0.751796 2.095000 54 49 52
0.499806 0.746088 2.069000 53 50 52
0.496907 0.745361 2.057000 62 45 53
0.494009 0.744593 2.045000 71 44 52
0.491110 0.743782 2.033000 66 46 52
0.491110 0.747341 2.033000 61 46 51
0.488211 0.746468 2.021000 62 48 51
0.488211 0.750005 2.021000 62 49 52
0.463812 0.715885 1.920000 65 48 54
0.463812 0.719246 1.920000 67 48 54
0.463812 0.722606 1.920000 67 46 54
0.461155 0.721808 1.909000 66 45 50
0.458740 0.721351 1.899000 64 46 47
0.458740 0.724676 1.899000 63 49 45
0.456082 0.723783 1.888000 64 47 44
0.453667 0.723237 1.878000 65 46 43
0.448835 0.718787 1.858000 61 49 43
0.446420 0.718153 1.848000 58 51 43
0.778866 0.885330 3.201000 76 60 52
0.778866 0.890933 3.201000 76 60 49
0.771810 0.888414 3.172000 76 60 52
0.764753 0.885794 3.143000 69 62 56
0.757940 0.883355 3.115000 62 59 54
0.751127 0.880819 3.087000 69 58 52
0.744314 0.878184 3.059000 77 56 62
0.737988 0.876029 3.033000 76 56 72
0.725092 0.865937 2.980000 76 58 66
0.719009 0.863846 2.955000 70 58 60
0.712926 0.861666 2.930000 65 57 59
0.706843 0.859399 2.905000 73 58 58
0.701004 0.857343 2.881000 82 56 64
0.689567 0.848317 2.834000 79 55 71
0.683728 0.846052 2.810000 76 54 66
0.678375 0.844308 2.788000 76 54 61
0.657206 0.822690 2.701000 76 54 60
0.657206 0.827418 2.701000 79 54 60
0.662316 0.838616 2.722000 83 51 64
0.642120 0.817664 2.639000 79 46 69
0.637254 0.816052 2.619000 75 47 56
0.642120 0.826903 2.639000 72 51 44
0.627764 0.812932 2.580000 70 51 48
0.627764 0.817449 2.580000 69 49 53
0.622898 0.815593 2.560000 68 47 48
0.613895 0.808222 2.523000 74 49 43
0.600756 0.795245 2.469000 81 48 46
0.596376 0.793738 2.451000 75 49 49
0.592240 0.792493 2.434000 69 47 51
0.592240 0.796754 2.434000 66 49 52
0.588103 0.795420 2.417000 64 48 53
0.583967 0.794027 2.400000 58 47 53
0.575937 0.787252 2.367000 53 46 54
0.572044 0.786047 2.351000 59 47 54
0.572044 0.790162 2.351000 65 48 52
0.564501 0.783804 2.320000 66 49 50
0.556958 0.777338 2.289000 67 48 48
0.546009 0.765984 2.244000 65 47 47
0.546009 0.769912 2.244000 64 44 48
0.542602 0.769012 2.230000 69 45 49
0.538953 0.767717 2.215000 75 44 50
0.535546 0.766717 2.201000 67 44 52
0.528977 0.761117 2.174000 60 43 47
0.525570 0.759997 2.160000 60 41 43
0.525570 0.763778 2.160000 61 45 39
0.519001 0.757965 2.133000 58 47 36
0.515837 0.757056 2.120000 56 46 43
0.509754 0.751796 2.095000 53 48 49
0.503428 0.746088 2.069000 50 47 52
0.500508 0.745361 2.057000 63 45 54
0.497588 0.744593 2.045000 76 45 52
0.494669 0.743782 2.033000 68 45 50
0.494669 0.747341 2.033000 61 47 44
0.491749 0.746468 2.021000 61 53 38
0.491749 0.750005 2.021000 62 51 45
0.472283 0.723715 1.941000 64 50 53
0.467173 0.719246 1.920000 66 46 52
0.464497 0.718467 1.909000 66 45 51
0.464497 0.721808 1.909000 66 45 50
0.462064 0.721351 1.899000 64 46 49
0.462064 0.724676 1.899000 62 47 48
0.459387 0.723783 1.888000 62 46 46
0.454521 0.719386 1.868000 62 47 45
0.452088 0.718787 1.858000 61 50 44
0.449654 0.718153 1.848000 60 49 46
0.791821 0.887971 3.231000 76 60 55
0.791821 0.893627 3.231000 77 62 46
0.784469 0.890933 3.201000 77 59 38
0.777362 0.888414 3.172000 76 59 47
0.770255 0.885794 3.143000 73 59 56
0.763393 0.883355 3.115000 70 58 52
0.756531 0.880819 3.087000 73 55 49
0.749669 0.878184 3.059000 77 53 64
0.743297 0.876029 3.033000 76 54 80
0.736681 0.873493 3.006000 76 56 71
0.724182 0.863846 2.955000 72 56 62
0.718055 0.861666 2.930000 68 56 60
0.711928 0.859399 2.905000 73 55 59
0.700165 0.850200 2.857000 77 54 63
0.694528 0.848317 2.834000 76 53 67
0.688647 0.846052 2.810000 76 54 64
0.683255 0.844308 2.788000 74 53 61
0.677619 0.842183 2.765000 72 53 64
0.661934 0.827418 2.701000 76 51 67
0.661934 0.832146 2.701000 80 51 74
0.646740 0.817664 2.639000 77 48 81
0.641838 0.816052 2.619000 75 46 70
0.641838 0.820636 2.619000 73 49 60
0.636937 0.818919 2.599000 71 51 55
0.632281 0.817449 2.580000 70 48 51
0.632281 0.821965 2.580000 69 44 42
0.622968 0.814308 2.542000 72 45 33
0.609489 0.801043 2.487000 76 46 39
0.605078 0.799567 2.469000 72 47 45
0.600667 0.798029 2.451000 68 47 50
0.596500 0.796754 2.434000 66 47 55
0.588168 0.789826 2.400000 65 47 60
0.584247 0.788733 2.384000 64 46 65
0.580081 0.787252 2.367000 63 46 62
0.576160 0.786047 2.351000 65 45 60
0.576160 0.790162 2.351000 68 45 55
0.568563 0.783804 2.320000 67 46 50
0.564641 0.782432 2.304000 67 46 47
0.560965 0.781345 2.289000 66 44 44
0.549937 0.769912 2.244000 65 43 47
0.546506 0.769012 2.230000 67 44 51
0.542830 0.767717 2.215000 70 43 56
0.539399 0.766717 2.201000 63 43 62
0.532782 0.761117 2.174000 57 42 52
0.529351 0.759997 2.160000 58 42 42
0.526165 0.759182 2.147000 60 45 35
0.522734 0.757965 2.133000 61 44 29
0.519548 0.757056 2.120000 62 42 38
0.516363 0.756102 2.107000 59 45 47
0.510236 0.750776 2.082000 57 47 51
0.504109 0.745361 2.057000 64 46 56
0.501168 0.744593 2.045000 71 46 52
0.498227 0.743782 2.033000 66 44 49
0.495287 0.742930 2.021000 60 45 37
0.495287 0.746468 2.021000 62 50 25
0.492346 0.745552 2.009000 63 54 39
0.475681 0.723715 1.941000 64 48 53
0.473230 0.723366 1.931000 66 44 51
0.470534 0.722606 1.920000 65 44 49
0.467839 0.721808 1.909000 65 45 50
0.465388 0.721351 1.899000 65 46 52
0.465388 0.724676 1.899000 65 47 50
0.460241 0.719949 1.878000 65 47 49
0.457791 0.719386 1.868000 66 49 47
0.455340 0.718787 1.858000 67 48 45
0.452889 0.718153 1.848000 67 48 49
0.797477 0.887971 3.231000 78 59 59
0.797477 0.893627 3.231000 79 58 54
0.790073 0.890933 3.201000 78 58 50
0.782915 0.888414 3.172000 77 58 57
0.775757 0.885794 3.143000 77 60 65
0.768846 0.883355 3.115000 78 57 59
0.761935 0.880819 3.087000 77 53 54
0.755024 0.878184 3.059000 77 52 63
0.748607 0.876029 3.033000 77 51 72
0.741942 0.873493 3.006000 77 53 68
0.729355 0.863846 2.955000 74 54 63
0.723184 0.861666 2.930000 72 53 60
0.717014 0.859399 2.905000 72 52 57
0.705166 0.850200 2.857000 73 52 63
0.693566 0.841133 2.810000 74 51 69
0.688136 0.839428 2.788000 76 53 64
0.688136 0.844308 2.788000 72 54 59
0.682459 0.842183 2.765000 69 51 61
0.671845 0.833851 2.722000 73 47 63
0.666662 0.832146 2.701000 77 50 66
0.651359 0.817664 2.639000 76 50 69
0.651359 0.822284 2.639000 76 48 63
0.651359 0.826903 2.639000 74 49 57
0.636797 0.812932 2.580000 72 49 55
0.636797 0.817449 2.580000 71 49 53
0.631861 0.815593 2.560000 71 46 47
0.627418 0.814308 2.542000 71 44 41
0.618285 0.806841 2.505000 71 47 44
0.609400 0.799567 2.469000 69 49 48
0.604957 0.798029 2.451000 68 48 51
0.596565 0.791189 2.417000 67 48 55
0.592369 0.789826 2.400000 66 46 56
0.588420 0.788733 2.384000 70 46 58
0.584224 0.787252 2.367000 74 45 57
0.580275 0.786047 2.351000 72 42 55
0.576326 0.784784 2.335000 71 45 54
0.572624 0.783804 2.320000 69 47 53
0.564972 0.777338 2.289000 68 45 55
0.561270 0.776224 2.274000 67 43 58
0.550410 0.765109 2.230000 66 44 54
0.550410 0.769012 2.230000 65 46 50
0.546707 0.767717 2.215000 65 46 53
0.543252 0.766717 2.201000 59 44 56
0.536588 0.761117 2.174000 54 42 50
0.533132 0.759997 2.160000 57 42 44
0.533132 0.763778 2.160000 60 43 45
0.526468 0.757965 2.133000 64 45 45
0.520051 0.752414 2.107000 68 44 47
0.517089 0.751796 2.095000 66 45 50
0.513880 0.750776 2.082000 64 46 55
0.510672 0.749709 2.069000 65 46 61
0.507710 0.748962 2.057000 67 43 56
0.501786 0.743782 2.033000 63 41 51
0.498824 0.742930 2.021000 60 45 44
0.495862 0.742035 2.009000 62 50 37
0.493147 0.741470 1.998000 65 50 46
0.487471 0.736392 1.975000 65 47 56
0.479079 0.727112 1.941000 66 44 54
0.476610 0.726746 1.931000 65 45 53
0.471180 0.721808 1.909000 65 44 59
0.468712 0.721351 1.899000 66 46 65
0.465997 0.720478 1.888000 68 46 59
0.463529 0.719949 1.878000 69 46 53
0.461061 0.719386 1.868000 71 46 50
0.458593 0.718787 1.858000 73 45 48
0.456124 0.718153 1.848000 75 43 52
0.803133 0.887971 3.231000 80 54 63
0.795676 0.885330 3.201000 79 56 62
0.788467 0.882861 3.172000 78 55 62
0.781259 0.880292 3.143000 77 55 68
0.774299 0.877902 3.115000 77 58 74
0.767339 0.875415 3.087000 78 59 66
0.760379 0.872829 3.059000 79 54 59
0.760379 0.878184 3.059000 81 54 62
0.753916 0.876029 3.033000 79 53 65
0.747204 0.873493 3.006000 77 52 65
0.734527 0.863846 2.955000 76 53 65
0.728313 0.861666 2.930000 75 53 60
0.722099 0.859399 2.905000 74 52 56
0.710167 0.850200 2.857000 74 54 64
0.698484 0.841133 2.810000 75 54 72
0.693016 0.839428 2.788000 76 54 65
0.687299 0.837343 2.765000 75 52 58
0.681830 0.835482 2.743000 74 53 58
0.671390 0.827418 2.701000 76 50 59
0.676610 0.838616 2.722000 79 52 58
0.655979 0.817664 2.639000 78 51 58
0.655979 0.822284 2.639000 77 50 56
0.651008 0.820636 2.619000 76 49 55
0.646036 0.818919 2.599000 75 50 55
0.646036 0.823469 2.599000 72 48 56
0.641313 0.821965 2.580000 70 47 52
0.622670 0.802456 2.505000 68 48 49
0.613722 0.795245 2.469000 66 50 50
0.609248 0.793738 2.451000 66 50 51
0.605022 0.792493 2.434000 67 50 53
0.600796 0.791189 2.417000 67 48 55
0.596570 0.789826 2.400000 66 44 53
0.592593 0.788733 2.384000 69 46 52
0.588368 0.787252 2.367000 71 47 51
0.584390 0.786047 2.351000 71 44 51
0.584390 0.790162 2.351000 71 46 53
0.580413 0.788872 2.335000 71 45 56
0.572708 0.782432 2.304000 72 47 64
0.557793 0.765984 2.244000 70 45 72
0.554313 0.765109 2.230000 67 45 61
0.550585 0.763840 2.215000 69 47 50
0.550585 0.767717 2.215000 71 51 50
0.547105 0.766717 2.201000 65 45 51
0.540393 0.761117 2.174000 60 41 49
0.536913 0.759997 2.160000 61 40 47
0.533682 0.759182 2.147000 62 40 54
0.526971 0.753345 2.120000 63 42 62
0.523739 0.752414 2.107000 64 44 57
0.520756 0.751796 2.095000 62 45 53
0.517525 0.750776 2.082000 61 46 59
0.514293 0.749709 2.069000 65 44 66
0.511311 0.748962 2.057000 69 42 59
0.505345 0.743782 2.033000 65 43 53
0.499379 0.738519 2.009000 61 44 51
0.496645 0.737972 1.998000 62 47 49
0.493662 0.737017 1.986000 64 49 54
0.490928 0.736392 1.975000 65 45 59
