ply
format ascii 1.0
element vertex 1327
property float x
property float y
property float z
property uchar red
property uchar green
property uchar blue
end_header
1.210464 -1.154938 3.172000 40 29 27
1.210464 -1.149385 3.172000 38 31 27
1.210464 -1.143833 3.172000 36 34 27
1.210464 -1.127175 3.172000 29 25 44
1.221531 -1.131877 3.201000 30 26 33
1.210464 -1.116070 3.172000 30 25 22
1.221531 -1.120670 3.201000 30 27 22
1.221531 -1.115067 3.201000 27 25 22
1.221531 -1.109463 3.201000 25 26 21
1.199397 -1.083859 3.143000 26 23 20
1.188712 -1.068750 3.115000 26 22 18
1.188712 -1.063298 3.115000 24 20 17
1.188712 -1.057845 3.115000 22 17 20
1.188712 -1.052392 3.115000 22 14 23
1.188712 -1.046939 3.115000 23 10 22
1.188712 -1.041486 3.115000 22 12 21
1.199397 -1.045346 3.143000 21 12 20
1.188712 -1.030581 3.115000 20 11 19
1.188712 -1.025128 3.115000 20 11 19
1.188712 -1.019675 3.115000 16 15 20
1.188712 -1.014222 3.115000 12 16 17
1.188712 -1.008769 3.115000 14 16 14
1.188712 -1.003317 3.115000 15 15 13
1.188712 -0.997864 3.115000 13 14 13
1.188712 -0.992411 3.115000 12 14 13
1.188712 -0.986958 3.115000 14 12 14
1.188712 -0.981505 3.115000 16 10 12
1.178027 -0.967279 3.087000 15 10 11
1.188712 -0.970600 3.115000 15 11 11
1.137195 -0.892020 2.980000 15 10 17
1.137195 -0.886803 2.980000 13 11 18
1.137195 -0.881587 2.980000 15 10 19
1.137195 -0.876370 2.980000 17 11 14
1.137195 -0.871154 2.980000 17 12 9
1.147117 -0.873493 3.006000 17 12 8
1.137195 -0.860721 2.980000 18 12 8
1.137195 -0.855504 2.980000 20 12 14
1.137195 -0.850288 2.980000 17 11 21
1.147117 -0.831397 3.006000 18 12 14
1.147117 -0.826134 3.006000 19 10 12
1.147117 -0.820872 3.006000 20 12 10
1.147117 -0.815610 3.006000 19 11 8
1.147117 -0.810349 3.006000 17 10 10
1.147117 -0.805086 3.006000 16 10 13
1.137195 -0.792907 2.980000 14 10 15
1.137195 -0.787690 2.980000 11 11 18
1.127655 -0.775909 2.955000 9 12 15
1.157420 -0.759225 3.033000 17 10 12
1.167342 -0.760379 3.059000 16 12 12
1.167342 -0.755024 3.059000 16 11 13
1.167342 -0.749669 3.059000 16 9 11
1.178027 -0.751127 3.087000 19 9 10
1.178027 -0.745724 3.087000 22 10 10
1.178027 -0.740320 3.087000 20 11 11
1.178027 -0.734916 3.087000 19 10 12
1.147117 -0.699846 3.006000 30 14 10
1.147117 -0.694584 3.006000 34 14 12
1.147117 -0.689322 3.006000 34 15 15
1.147117 -0.684060 3.006000 35 13 18
1.147117 -0.678798 3.006000 39 16 21
1.161618 -0.655408 3.044000 45 26 22
1.167342 -0.653283 3.059000 43 30 20
1.167342 -0.647928 3.059000 43 30 18
1.167342 -0.642574 3.059000 43 30 24
1.167342 -0.637219 3.059000 42 31 31
1.178027 -0.637648 3.087000 41 40 30
1.178027 -0.632244 3.087000 45 35 29
1.178027 -0.626840 3.087000 50 36 30
1.178027 -0.621436 3.087000 46 31 32
1.178027 -0.616032 3.087000 43 32 36
1.178027 -0.610629 3.087000 47 37 41
1.178027 -0.605225 3.087000 52 45 48
1.188712 -0.605262 3.115000 55 49 56
1.188712 -0.599809 3.115000 59 53 61
1.188712 -0.594356 3.115000 63 55 67
1.199397 -0.594197 3.143000 68 61 73
1.199397 -0.588695 3.143000 69 63 80
1.199397 -0.583193 3.143000 71 64 80
1.199397 -0.577691 3.143000 69 63 80
1.188712 -0.567092 3.115000 68 62 79
1.188712 -0.561639 3.115000 67 59 79
1.188712 -0.556186 3.115000 66 59 83
1.188712 -0.550734 3.115000 63 53 88
1.188712 -0.545281 3.115000 60 50 82
1.188712 -0.539828 3.115000 57 46 76
1.188712 -0.534375 3.115000 55 46 72
1.188712 -0.528922 3.115000 54 46 69
1.188712 -0.523470 3.115000 54 46 67
1.188712 -0.518017 3.115000 52 44 65
1.188712 -0.512564 3.115000 50 41 59
1.188712 -0.507111 3.115000 48 37 54
1.199397 -0.506168 3.143000 47 34 51
1.199397 -0.500666 3.143000 46 38 49
1.199397 -0.495164 3.143000 46 41 49
1.199397 -0.489662 3.143000 49 40 50
1.210464 -0.488628 3.172000 52 39 51
1.210464 -0.483075 3.172000 51 37 52
1.210464 -0.477522 3.172000 50 34 48
1.210464 -0.471970 3.172000 49 37 44
1.210464 -0.466417 3.172000 47 38 45
1.210464 -0.460865 3.172000 48 34 46
1.210464 -0.455312 3.172000 49 31 45
1.210464 -0.449759 3.172000 48 32 44
1.210464 -0.444207 3.172000 47 34 38
1.199397 -0.434644 3.143000 43 30 33
1.199397 -0.429142 3.143000 40 24 31
1.199397 -0.423640 3.143000 35 26 29
1.210464 -0.421997 3.172000 29 27 29
1.210464 -0.416444 3.172000 38 30 30
1.210464 -0.410891 3.172000 47 31 33
1.199397 -0.401633 3.143000 45 35 36
1.199397 -0.396131 3.143000 43 38 40
1.199397 -0.390629 3.143000 42 38 45
1.199397 -0.385127 3.143000 40 39 43
1.199397 -0.379626 3.143000 39 39 42
1.199397 -0.374124 3.143000 38 41 47
1.188712 -0.365338 3.115000 38 36 53
1.199397 -0.363120 3.143000 39 35 56
1.199397 -0.357618 3.143000 40 35 59
1.199397 -0.352117 3.143000 41 36 54
1.199397 -0.346615 3.143000 39 35 49
1.199397 -0.341113 3.143000 38 35 48
1.199397 -0.335611 3.143000 40 34 48
1.188712 -0.327168 3.115000 42 34 45
1.188712 -0.321716 3.115000 41 33 42
1.188712 -0.316263 3.115000 41 34 46
1.188712 -0.310810 3.115000 40 31 51
1.188712 -0.305357 3.115000 40 28 52
1.188712 -0.299904 3.115000 40 34 53
1.188712 -0.294452 3.115000 40 39 46
1.188712 -0.288999 3.115000 39 36 39
1.188712 -0.283546 3.115000 38 36 35
1.188712 -0.278093 3.115000 37 32 32
1.188712 -0.272640 3.115000 35 27 36
1.188712 -0.267188 3.115000 37 30 40
1.188712 -0.261735 3.115000 39 30 40
1.188712 -0.256282 3.115000 38 31 40
1.188712 -0.250829 3.115000 38 31 40
1.188712 -0.245376 3.115000 41 30 41
1.188712 -0.239923 3.115000 44 31 39
1.188712 -0.234471 3.115000 42 34 37
1.188712 -0.229018 3.115000 41 33 39
1.188712 -0.223565 3.115000 38 32 41
1.188712 -0.218112 3.115000 36 30 37
1.178027 -0.210748 3.087000 38 31 34
1.178027 -0.205344 3.087000 40 33 34
1.178027 -0.199940 3.087000 40 31 34
1.178027 -0.194537 3.087000 41 26 36
1.178027 -0.189133 3.087000 41 27 39
1.178027 -0.183729 3.087000 40 28 40
1.178027 -0.178325 3.087000 42 28 41
1.188712 -0.174490 3.115000 43 27 41
1.178027 -0.167518 3.087000 41 29 41
1.188712 -0.163584 3.115000 39 30 44
1.188712 -0.158131 3.115000 39 31 47
1.188712 -0.152679 3.115000 39 31 40
1.188712 -0.147226 3.115000 37 31 34
1.188712 -0.141773 3.115000 35 30 31
1.178027 -0.135095 3.087000 36 25 28
1.178027 -0.129691 3.087000 38 21 22
1.178027 -0.124287 3.087000 36 24 17
1.178027 -0.118883 3.087000 35 25 19
1.178027 -0.113480 3.087000 34 26 21
1.178027 -0.108076 3.087000 34 26 23
1.178027 -0.102672 3.087000 36 25 26
1.178027 -0.097268 3.087000 39 23 21
1.178027 -0.091864 3.087000 40 21 16
1.178027 -0.086461 3.087000 40 20 17
1.178027 -0.081057 3.087000 38 26 19
1.178027 -0.075653 3.087000 35 31 15
1.178027 -0.070249 3.087000 37 28 12
1.178027 -0.064845 3.087000 39 25 14
1.178027 -0.059442 3.087000 40 26 17
1.167342 -0.053548 3.059000 41 28 19
1.167342 -0.048193 3.059000 40 26 22
1.178027 -0.043230 3.087000 39 25 24
1.178027 -0.037827 3.087000 41 30 27
1.178027 -0.032423 3.087000 42 36 25
1.178027 -0.027019 3.087000 44 34 24
1.178027 -0.021615 3.087000 46 32 24
1.178027 -0.016211 3.087000 48 31 24
1.178027 -0.010808 3.087000 50 29 19
1.178027 -0.005404 3.087000 46 28 14
1.178027 -0.000000 3.087000 42 29 17
1.178027 0.005404 3.087000 38 24 21
1.178027 0.010808 3.087000 34 18 20
1.178027 0.016211 3.087000 37 23 20
1.178027 0.021615 3.087000 41 25 19
1.178027 0.027019 3.087000 42 27 19
1.178027 0.032423 3.087000 44 27 20
1.178027 0.037827 3.087000 46 30 22
1.178027 0.043230 3.087000 48 31 24
1.178027 0.048634 3.087000 49 30 26
1.178027 0.054038 3.087000 50 32 22
1.167342 0.058903 3.059000 50 32 19
1.167342 0.064257 3.059000 51 34 20
1.167342 0.069612 3.059000 51 34 21
1.167342 0.074967 3.059000 51 34 24
1.167342 0.080322 3.059000 50 34 27
1.157420 0.084948 3.033000 50 34 26
1.157420 0.090258 3.033000 50 34 26
1.157420 0.095567 3.033000 50 35 23
1.157420 0.100876 3.033000 50 36 21
1.157420 0.106185 3.033000 51 37 21
1.157420 0.111495 3.033000 50 37 21
1.157420 0.116804 3.033000 49 39 23
1.157420 0.122113 3.033000 50 36 26
1.157420 0.127422 3.033000 51 35 23
1.157420 0.132732 3.033000 50 35 20
1.157420 0.138041 3.033000 50 35 15
1.157420 0.143350 3.033000 50 31 10
1.157420 0.148659 3.033000 51 29 18
1.157420 0.153969 3.033000 50 32 26
1.167342 0.160643 3.059000 49 35 23
1.157420 0.164587 3.033000 51 36 21
1.157420 0.169897 3.033000 52 35 27
1.157420 0.175206 3.033000 54 34 34
1.157420 0.180515 3.033000 55 34 32
1.157420 0.185824 3.033000 62 45 31
1.167342 0.192772 3.059000 68 54 35
1.167342 0.198127 3.059000 59 48 40
1.167342 0.203482 3.059000 51 45 37
1.167342 0.208836 3.059000 47 38 34
1.167342 0.214191 3.059000 44 33 33
1.157420 0.217680 3.033000 37 23 33
1.157420 0.222989 3.033000 31 21 29
1.147117 0.226266 3.006000 37 28 25
1.147117 0.231528 3.006000 44 37 36
1.147117 0.236790 3.006000 43 37 47
1.147117 0.242052 3.006000 42 37 34
1.147117 0.247314 3.006000 43 35 21
1.147117 0.252576 3.006000 44 38 27
1.147117 0.257838 3.006000 43 37 34
1.147117 0.263100 3.006000 43 39 34
1.147117 0.268362 3.006000 43 37 34
1.147117 0.273624 3.006000 43 38 32
1.147117 0.278886 3.006000 43 35 31
1.147117 0.284148 3.006000 43 31 31
1.147117 0.289410 3.006000 43 29 31
1.147117 0.294672 3.006000 43 30 26
1.147117 0.299934 3.006000 36 24 21
1.147117 0.305196 3.006000 30 22 17
1.147117 0.310458 3.006000 27 20 14
1.147117 0.315720 3.006000 25 20 12
1.147117 0.320982 3.006000 26 21 10
1.147117 0.326244 3.006000 27 21 14
1.147117 0.331506 3.006000 30 19 18
1.147117 0.336768 3.006000 34 18 13
1.147117 0.342030 3.006000 33 17 9
1.147117 0.347292 3.006000 32 17 9
1.147117 0.352554 3.006000 34 17 10
1.147117 0.357816 3.006000 37 19 9
1.147117 0.363078 3.006000 35 15 9
1.147117 0.368340 3.006000 32 13 6
1.147117 0.373602 3.006000 25 12 4
1.137195 0.375587 2.980000 19 14 6
1.137195 0.380804 2.980000 20 12 9
1.127655 0.382782 2.955000 21 12 15
1.118114 0.384673 2.930000 20 11 22
1.118114 0.389801 2.930000 19 11 14
1.118114 0.394930 2.930000 17 10 6
1.118114 0.400059 2.930000 15 12 6
1.118114 0.405188 2.930000 16 11 7
1.118114 0.410317 2.930000 17 10 6
1.118114 0.415446 2.930000 19 8 6
1.118114 0.420575 2.930000 21 8 9
1.108574 0.422072 2.905000 17 8 13
1.108574 0.427157 2.905000 14 9 9
1.118114 0.435962 2.930000 16 9 6
1.118114 0.441091 2.930000 18 8 5
1.118114 0.446220 2.930000 17 8 5
1.118114 0.451349 2.930000 17 10 5
1.118114 0.456478 2.930000 17 9 5
1.108574 0.457668 2.905000 17 10 5
1.108574 0.462754 2.905000 14 9 5
1.127655 0.475891 2.955000 11 8 9
1.118114 0.476994 2.930000 13 6 14
1.118114 0.482123 2.930000 16 5 9
1.118114 0.487252 2.930000 16 6 4
1.118114 0.492381 2.930000 17 7 4
1.118114 0.497510 2.930000 18 5 4
1.118114 0.502639 2.930000 20 4 2
1.118114 0.507768 2.930000 17 4 1
1.127655 0.517273 2.955000 13 4 5
1.118114 0.518026 2.930000 10 6 10
1.118114 0.523155 2.930000 7 8 7
1.118114 0.528284 2.930000 10 8 4
1.118114 0.533412 2.930000 13 8 4
1.108574 0.533946 2.905000 18 6 4
1.108574 0.539032 2.905000 23 7 4
1.108574 0.544117 2.905000 15 5 4
1.099416 0.544665 2.881000 8 4 3
1.099416 0.549708 2.881000 6 4 3
1.099416 0.554751 2.881000 4 5 3
1.099416 0.559794 2.881000 4 4 4
1.090257 0.560132 2.857000 3 4 6
1.099416 0.569881 2.881000 3 4 8
1.108574 0.579713 2.905000 4 4 6
1.108574 0.584798 2.905000 4 4 4
1.118114 0.594960 2.930000 5 4 3
1.118114 0.600089 2.930000 4 5 2
1.118114 0.605218 2.930000 2 7 2
1.108574 0.605139 2.905000 4 4 2
1.118114 0.615476 2.930000 7 3 2
1.118114 0.620605 2.930000 8 5 2
1.118114 0.625734 2.930000 9 9 5
1.118114 0.630863 2.930000 10 7 8
1.118114 0.635992 2.930000 11 6 9
1.118114 0.641121 2.930000 12 8 10
1.127655 0.651764 2.955000 12 9 10
1.127655 0.656937 2.955000 15 9 11
1.127655 0.662109 2.955000 19 9 14
1.127655 0.667282 2.955000 17 9 17
1.137195 0.678144 2.980000 15 10 16
1.137195 0.683360 2.980000 16 9 16
1.127655 0.682800 2.955000 17 7 16
1.127655 0.687973 2.955000 17 8 16
1.127655 0.693146 2.955000 17 9 16
1.127655 0.698318 2.955000 17 9 17
1.127655 0.703491 2.955000 17 12 15
1.118114 0.702668 2.930000 16 12 13
1.118114 0.707797 2.930000 16 14 13
1.118114 0.712926 2.930000 15 11 14
1.118114 0.718055 2.930000 15 9 13
1.118114 0.723184 2.930000 15 9 12
1.118114 0.728313 2.930000 16 10 12
1.118114 0.733442 2.930000 16 10 12
1.118114 0.738571 2.930000 17 8 14
1.127655 0.750046 2.955000 15 8 16
1.127655 0.755218 2.955000 14 8 13
1.127655 0.760391 2.955000 14 10 11
1.127655 0.765564 2.955000 14 10 10
1.118114 0.764216 2.930000 17 8 10
1.118114 0.769345 2.930000 20 7 16
1.118114 0.774474 2.930000 30 14 22
1.127655 0.786255 2.955000 40 23 28
1.118114 0.784732 2.930000 47 38 34
1.118114 0.789861 2.930000 54 47 54
1.099416 0.781695 2.881000 49 46 74
1.038740 0.743318 2.722000 45 48 58
1.030726 0.742312 2.701000 29 24 43
1.030726 0.747040 2.701000 13 3 29
1.030726 0.751768 2.701000 10 3 15
1.030726 0.756496 2.701000 7 4 9
1.030726 0.761224 2.701000 6 3 4
1.030726 0.765952 2.701000 6 4 4
1.038740 0.776673 2.722000 5 4 5
1.038740 0.781437 2.722000 5 5 4
1.038740 0.786202 2.722000 5 4 4
1.022712 0.778763 2.680000 6 4 4
1.022712 0.783454 2.680000 4 3 4
1.038740 0.800497 2.722000 3 3 4
1.030726 0.799049 2.701000 3 4 4
1.030726 0.803777 2.701000 4 4 6
1.030726 0.808505 2.701000 4 3 8
1.030726 0.813233 2.701000 4 5 9
1.030726 0.817962 2.701000 4 5 10
1.030726 0.822690 2.701000 4 4 5
1.030726 0.827418 2.701000 3 4 1
1.030726 0.832146 2.701000 3 4 2
1.030726 0.836874 2.701000 4 3 4
1.030726 0.841602 2.701000 6 4 7
1.030726 0.846330 2.701000 5 3 10
1.030726 0.851058 2.701000 4 4 6
1.022712 0.849133 2.680000 4 3 3
1.030726 0.860515 2.701000 4 3 3
1.030726 0.865243 2.701000 4 3 3
1.030726 0.869971 2.701000 3 4 2
0.850988 0.792434 2.230000 45 40 52
0.845264 0.790981 2.215000 42 40 51
0.834579 0.784811 2.187000 43 39 51
0.829618 0.783951 2.174000 44 39 52
0.824275 0.782684 2.160000 47 39 53
0.824275 0.786465 2.160000 50 41 55
0.819315 0.785490 2.147000 48 39 58
0.813972 0.784102 2.133000 47 39 55
0.809011 0.783034 2.120000 45 40 53
0.780390 0.758912 2.045000 44 41 49
0.780390 0.762492 2.045000 46 40 46
0.775811 0.761576 2.033000 47 40 52
0.775811 0.765135 2.033000 50 39 59
0.766653 0.759619 2.009000 54 39 63
0.762455 0.758957 1.998000 50 38 68
0.753678 0.753678 1.975000 47 41 61
0.753678 0.757135 1.975000 48 40 55
0.749480 0.756356 1.964000 49 41 56
0.744901 0.755152 1.952000 50 39 58
0.740703 0.754294 1.941000 51 38 59
1.227134 -1.249547 3.201000 40 36 30
1.227134 -1.243944 3.201000 42 37 33
1.227134 -1.238341 3.201000 44 37 36
1.227134 -1.232737 3.201000 46 33 30
1.227134 -1.227134 3.201000 45 30 24
1.227134 -1.221531 3.201000 45 33 31
1.227134 -1.215927 3.201000 45 33 38
1.227134 -1.210324 3.201000 45 34 34
1.227134 -1.204720 3.201000 46 38 31
1.227134 -1.199117 3.201000 47 36 29
1.227134 -1.193514 3.201000 48 34 27
1.227134 -1.187910 3.201000 50 32 28
1.227134 -1.182307 3.201000 46 34 29
1.227134 -1.176704 3.201000 42 32 31
1.227134 -1.171100 3.201000 44 29 33
1.216017 -1.154938 3.172000 47 31 31
1.216017 -1.149385 3.172000 44 36 29
1.227134 -1.154290 3.201000 42 34 25
1.227134 -1.148687 3.201000 40 34 22
1.216017 -1.132728 3.172000 39 30 29
1.227134 -1.137480 3.201000 39 29 36
1.227134 -1.131877 3.201000 39 29 30
1.216017 -1.116070 3.172000 39 32 24
1.227134 -1.120670 3.201000 39 31 25
1.227134 -1.115067 3.201000 36 32 26
1.238635 -1.119861 3.231000 34 30 26
1.238635 -1.114206 3.231000 33 28 25
1.227134 -1.098257 3.201000 32 27 24
1.204899 -1.072855 3.143000 31 25 23
1.227134 -1.087050 3.201000 31 22 30
1.216017 -1.071649 3.172000 30 21 37
1.216017 -1.066097 3.172000 29 19 32
1.216017 -1.060544 3.172000 26 16 27
1.216017 -1.054991 3.172000 24 16 26
1.216017 -1.049439 3.172000 23 12 25
1.216017 -1.043886 3.172000 23 17 23
1.216017 -1.038334 3.172000 21 20 21
1.216017 -1.032781 3.172000 19 20 20
1.216017 -1.027228 3.172000 19 22 20
1.204899 -1.012335 3.143000 19 20 19
1.194165 -0.997864 3.115000 16 17 19
1.194165 -0.992411 3.115000 13 17 18
1.194165 -0.986958 3.115000 15 16 17
1.194165 -0.981505 3.115000 18 12 17
1.194165 -0.976053 3.115000 17 9 16
1.194165 -0.970600 3.115000 17 11 16
1.194165 -0.965147 3.115000 17 13 16
1.142411 -0.892020 2.980000 13 10 20
1.142411 -0.886803 2.980000 10 11 19
1.142411 -0.881587 2.980000 13 9 18
1.142411 -0.876370 2.980000 17 11 13
1.142411 -0.871154 2.980000 17 13 9
1.142411 -0.865937 2.980000 17 12 8
1.142411 -0.860721 2.980000 17 12 8
1.152379 -0.862968 3.006000 17 10 12
1.152379 -0.857707 3.006000 17 12 17
1.152379 -0.831397 3.006000 18 11 11
1.142411 -0.818989 2.980000 17 9 9
1.152379 -0.820872 3.006000 17 11 7
1.142411 -0.808556 2.980000 17 12 5
1.142411 -0.803340 2.980000 18 11 9
1.152379 -0.805086 3.006000 16 11 13
1.142411 -0.792907 2.980000 14 11 14
1.142411 -0.787690 2.980000 13 12 15
1.132827 -0.775909 2.955000 12 11 12
1.162729 -0.759225 3.033000 15 13 13
1.162729 -0.753916 3.033000 14 12 15
1.162729 -0.748607 3.033000 12 12 17
1.172697 -0.749669 3.059000 10 10 14
1.172697 -0.744314 3.059000 13 10 11
1.142411 -0.688577 2.980000 29 11 10
1.152379 -0.689322 3.006000 27 10 12
1.152379 -0.684060 3.006000 26 10 14
1.142411 -0.641628 2.980000 39 18 14
1.142411 -0.636412 2.980000 40 21 15
1.142411 -0.631195 2.980000 39 24 16
1.152379 -0.631440 3.006000 38 21 20
1.152379 -0.626178 3.006000 39 21 24
1.162729 -0.626493 3.033000 40 25 25
1.162729 -0.621184 3.033000 49 31 25
1.172697 -0.621154 3.059000 58 25 26
1.172697 -0.615800 3.059000 52 25 26
1.172697 -0.610445 3.059000 46 26 35
1.172697 -0.605090 3.059000 52 36 44
1.172697 -0.599735 3.059000 58 47 56
1.183431 -0.599821 3.087000 60 56 69
1.183431 -0.594417 3.087000 63 54 67
1.194165 -0.594356 3.115000 67 55 66
1.194165 -0.588903 3.115000 72 59 72
1.194165 -0.583450 3.115000 74 65 79
1.194165 -0.577998 3.115000 77 65 83
1.194165 -0.572545 3.115000 74 68 88
1.194165 -0.567092 3.115000 72 64 83
1.183431 -0.556591 3.087000 74 62 78
1.194165 -0.556186 3.115000 76 59 79
1.194165 -0.550734 3.115000 71 55 80
1.183431 -0.540379 3.087000 66 53 76
1.183431 -0.534976 3.087000 61 46 72
1.183431 -0.529572 3.087000 57 47 74
1.183431 -0.524168 3.087000 56 47 77
1.183431 -0.518764 3.087000 56 47 71
1.183431 -0.513360 3.087000 55 46 66
1.183431 -0.507957 3.087000 54 42 60
1.194165 -0.507111 3.115000 52 40 54
1.194165 -0.501658 3.115000 50 39 53
1.194165 -0.496206 3.115000 49 41 52
1.194165 -0.490753 3.115000 48 43 56
1.204899 -0.489662 3.143000 51 45 60
1.216017 -0.488628 3.172000 55 43 56
1.216017 -0.483075 3.172000 54 42 52
1.216017 -0.477522 3.172000 54 40 49
1.216017 -0.471970 3.172000 52 39 47
1.216017 -0.466417 3.172000 51 39 49
1.216017 -0.460865 3.172000 51 37 51
1.216017 -0.455312 3.172000 52 35 47
1.216017 -0.449759 3.172000 50 34 44
1.204899 -0.440146 3.143000 49 34 42
1.204899 -0.434644 3.143000 46 32 41
1.204899 -0.429142 3.143000 44 28 36
1.204899 -0.423640 3.143000 43 27 32
1.204899 -0.418138 3.143000 42 32 34
1.216017 -0.416444 3.172000 44 36 37
1.216017 -0.410891 3.172000 47 35 39
1.204899 -0.401633 3.143000 46 40 42
1.204899 -0.396131 3.143000 45 41 44
1.204899 -0.390629 3.143000 43 42 47
1.204899 -0.385127 3.143000 41 42 46
1.204899 -0.379626 3.143000 40 44 45
1.204899 -0.374124 3.143000 40 41 49
1.204899 -0.368622 3.143000 39 37 53
1.204899 -0.363120 3.143000 39 36 55
1.204899 -0.357618 3.143000 40 37 56
1.204899 -0.352117 3.143000 41 36 53
1.204899 -0.346615 3.143000 41 36 49
1.204899 -0.341113 3.143000 42 35 48
1.204899 -0.335611 3.143000 41 37 47
1.204899 -0.330109 3.143000 41 37 45
1.194165 -0.321716 3.115000 42 39 44
1.204899 -0.319106 3.143000 43 36 46
1.194165 -0.310810 3.115000 42 34 48
1.194165 -0.305357 3.115000 42 33 48
1.194165 -0.299904 3.115000 41 37 49
1.194165 -0.294452 3.115000 40 37 45
1.194165 -0.288999 3.115000 39 38 42
1.194165 -0.283546 3.115000 39 36 43
1.194165 -0.278093 3.115000 35 35 45
1.194165 -0.272640 3.115000 31 31 43
1.194165 -0.267188 3.115000 34 32 42
1.194165 -0.261735 3.115000 37 32 42
1.194165 -0.256282 3.115000 35 33 42
1.194165 -0.250829 3.115000 34 34 42
1.194165 -0.245376 3.115000 40 34 41
1.194165 -0.239923 3.115000 46 33 41
1.194165 -0.234471 3.115000 43 36 40
1.194165 -0.229018 3.115000 40 34 43
1.194165 -0.223565 3.115000 36 34 46
1.194165 -0.218112 3.115000 32 31 42
1.194165 -0.212659 3.115000 35 27 38
1.183431 -0.205344 3.087000 39 30 37
1.183431 -0.199940 3.087000 39 32 35
1.183431 -0.194537 3.087000 39 29 37
1.194165 -0.190848 3.115000 39 29 39
1.194165 -0.185395 3.115000 39 29 40
1.194165 -0.179943 3.115000 39 31 41
1.194165 -0.174490 3.115000 40 29 39
1.194165 -0.169037 3.115000 39 31 37
1.194165 -0.163584 3.115000 39 30 39
1.194165 -0.158131 3.115000 39 31 40
1.194165 -0.152679 3.115000 39 31 37
1.194165 -0.147226 3.115000 36 31 33
1.194165 -0.141773 3.115000 33 30 30
1.183431 -0.135095 3.087000 32 29 28
1.183431 -0.129691 3.087000 31 25 23
1.183431 -0.124287 3.087000 31 26 18
1.183431 -0.118883 3.087000 32 26 18
1.183431 -0.113480 3.087000 31 28 17
1.183431 -0.108076 3.087000 31 26 20
1.183431 -0.102672 3.087000 35 26 23
1.183431 -0.097268 3.087000 39 23 22
1.183431 -0.091864 3.087000 40 21 21
1.183431 -0.086461 3.087000 42 22 24
1.183431 -0.081057 3.087000 38 25 27
1.183431 -0.075653 3.087000 34 26 20
1.183431 -0.070249 3.087000 36 25 13
1.183431 -0.064845 3.087000 39 25 14
1.183431 -0.059442 3.087000 40 26 16
1.183431 -0.054038 3.087000 41 26 18
1.183431 -0.048634 3.087000 40 25 20
1.183431 -0.043230 3.087000 39 27 23
1.183431 -0.037827 3.087000 40 31 26
1.183431 -0.032423 3.087000 41 34 25
1.183431 -0.027019 3.087000 44 34 24
1.183431 -0.021615 3.087000 47 31 28
1.183431 -0.016211 3.087000 47 29 33
1.183431 -0.010808 3.087000 47 28 24
1.183431 -0.005404 3.087000 44 26 16
1.183431 -0.000000 3.087000 42 26 18
1.183431 0.005404 3.087000 40 24 20
1.183431 0.010808 3.087000 38 22 20
1.183431 0.016211 3.087000 40 25 19
1.183431 0.021615 3.087000 43 26 19
1.183431 0.027019 3.087000 42 28 18
1.183431 0.032423 3.087000 42 28 20
1.183431 0.037827 3.087000 44 31 21
1.183431 0.043230 3.087000 47 30 22
1.183431 0.048634 3.087000 47 29 23
1.183431 0.054038 3.087000 47 31 21
1.183431 0.059442 3.087000 48 34 18
1.172697 0.064257 3.059000 49 33 19
1.172697 0.069612 3.059000 50 33 20
1.172697 0.074967 3.059000 51 33 25
1.172697 0.080322 3.059000 51 33 30
1.172697 0.085677 3.059000 51 32 27
1.162729 0.090258 3.033000 50 33 25
1.162729 0.095567 3.033000 50 34 23
1.162729 0.100876 3.033000 50 36 21
1.162729 0.106185 3.033000 51 35 22
1.152379 0.110502 3.006000 51 34 24
1.162729 0.116804 3.033000 51 35 27
1.162729 0.122113 3.033000 50 34 30
1.162729 0.127422 3.033000 50 34 25
1.162729 0.132732 3.033000 49 35 20
1.162729 0.138041 3.033000 49 32 18
1.172697 0.144579 3.059000 49 29 17
1.172697 0.149934 3.059000 49 30 24
1.172697 0.155289 3.059000 48 31 32
1.172697 0.160643 3.059000 48 34 26
1.172697 0.165998 3.059000 50 37 21
1.172697 0.171353 3.059000 52 34 27
1.172697 0.176708 3.059000 54 33 33
1.162729 0.180515 3.033000 56 37 30
1.162729 0.185824 3.033000 58 48 28
1.162729 0.191134 3.033000 61 50 34
1.172697 0.198127 3.059000 56 47 41
1.172697 0.203482 3.059000 51 43 38
1.172697 0.208836 3.059000 48 36 36
1.172697 0.214191 3.059000 45 30 33
1.162729 0.217680 3.033000 35 19 31
1.162729 0.222989 3.033000 26 22 30
1.162729 0.228298 3.033000 34 27 29
1.162729 0.233608 3.033000 43 34 36
1.162729 0.238917 3.033000 43 37 44
1.152379 0.242052 3.006000 43 36 35
1.152379 0.247314 3.006000 43 34 26
1.152379 0.252576 3.006000 44 37 33
1.152379 0.257838 3.006000 44 39 41
1.152379 0.263100 3.006000 44 38 38
1.152379 0.268362 3.006000 43 38 36
1.152379 0.273624 3.006000 42 36 35
1.152379 0.278886 3.006000 44 39 34
1.152379 0.284148 3.006000 47 32 36
1.152379 0.289410 3.006000 45 26 39
1.152379 0.294672 3.006000 43 25 31
1.152379 0.299934 3.006000 36 21 23
1.152379 0.305196 3.006000 30 20 19
1.152379 0.310458 3.006000 27 21 14
1.152379 0.315720 3.006000 24 20 13
1.162729 0.323865 3.033000 25 21 12
1.152379 0.326244 3.006000 27 21 14
1.152379 0.331506 3.006000 28 21 16
1.152379 0.336768 3.006000 30 18 12
1.152379 0.342030 3.006000 30 17 9
1.152379 0.347292 3.006000 30 17 9
1.152379 0.352554 3.006000 32 17 9
1.152379 0.357816 3.006000 35 18 12
1.152379 0.363078 3.006000 34 17 14
1.152379 0.368340 3.006000 34 14 10
1.142411 0.370371 2.980000 26 12 6
1.142411 0.375587 2.980000 19 10 6
1.132827 0.377609 2.955000 24 10 6
1.123243 0.379544 2.930000 29 10 9
1.113659 0.381390 2.905000 25 10 12
1.104459 0.383283 2.881000 22 9 8
1.104459 0.388326 2.881000 18 7 4
1.104459 0.393369 2.881000 15 9 4
1.104459 0.398412 2.881000 16 12 5
1.113659 0.406816 2.905000 17 10 4
1.104459 0.408499 2.881000 19 9 3
1.104459 0.413542 2.881000 21 8 5
1.104459 0.418585 2.881000 17 10 8
1.104459 0.423628 2.881000 14 9 7
1.113659 0.432242 2.905000 14 10 6
1.113659 0.437327 2.905000 15 8 5
1.113659 0.442413 2.905000 17 9 4
1.113659 0.447498 2.905000 20 8 3
1.104459 0.448844 2.881000 20 8 3
1.104459 0.453887 2.881000 20 8 4
1.104459 0.458930 2.881000 17 9 5
1.104459 0.463974 2.881000 14 8 7
1.095258 0.465110 2.857000 14 9 9
1.095258 0.470111 2.857000 14 6 7
1.095258 0.475112 2.857000 15 6 4
1.104459 0.484146 2.881000 17 5 6
1.104459 0.489190 2.881000 20 4 7
1.104459 0.494233 2.881000 23 3 4
1.104459 0.499276 2.881000 20 3 1
1.113659 0.508520 2.905000 17 5 4
1.113659 0.513606 2.905000 14 9 7
1.113659 0.518691 2.905000 12 8 5
1.113659 0.523776 2.905000 14 8 3
1.104459 0.524492 2.881000 17 7 3
1.104459 0.529535 2.881000 23 6 4
1.104459 0.534578 2.881000 29 6 6
1.104459 0.539622 2.881000 19 6 8
1.095258 0.540127 2.857000 9 5 6
1.086441 0.540740 2.834000 7 5 3
1.095258 0.550130 2.857000 5 5 3
1.095258 0.555131 2.857000 4 5 3
1.086441 0.555623 2.834000 4 4 4
1.095258 0.565133 2.857000 4 4 5
1.104459 0.574924 2.881000 5 4 7
1.113659 0.584798 2.905000 5 5 9
1.113659 0.589884 2.905000 6 6 5
1.123243 0.600089 2.930000 4 7 2
1.123243 0.605218 2.930000 3 6 2
1.113659 0.605139 2.905000 5 4 1
1.113659 0.610224 2.905000 7 3 1
1.123243 0.620605 2.930000 8 4 2
1.123243 0.625734 2.930000 10 6 5
1.123243 0.630863 2.930000 11 6 8
1.132827 0.641418 2.955000 13 7 7
1.132827 0.646591 2.955000 12 9 7
1.132827 0.651764 2.955000 11 9 9
1.132827 0.656937 2.955000 13 9 11
1.132827 0.662109 2.955000 15 8 14
1.132827 0.667282 2.955000 14 8 17
1.132827 0.672455 2.955000 14 8 18
1.132827 0.677628 2.955000 15 9 20
1.132827 0.682800 2.955000 17 8 17
1.132827 0.687973 2.955000 17 7 14
1.132827 0.693146 2.955000 17 8 15
1.132827 0.698318 2.955000 17 8 17
1.132827 0.703491 2.955000 17 10 14
1.123243 0.702668 2.930000 15 12 12
1.123243 0.707797 2.930000 14 11 12
1.123243 0.712926 2.930000 13 10 13
1.123243 0.718055 2.930000 13 8 13
1.123243 0.723184 2.930000 14 9 13
1.123243 0.728313 2.930000 15 9 12
1.123243 0.733442 2.930000 16 10 11
1.132827 0.744873 2.955000 18 9 14
1.132827 0.750046 2.955000 16 7 17
1.142411 0.761608 2.980000 14 7 13
1.132827 0.760391 2.955000 15 9 10
1.123243 0.759087 2.930000 17 9 10
1.123243 0.764216 2.930000 18 9 10
1.123243 0.769345 2.930000 19 9 14
1.123243 0.774474 2.930000 28 13 17
1.123243 0.779603 2.930000 38 21 27
1.113659 0.778036 2.905000 46 37 36
1.113659 0.783121 2.905000 55 43 49
1.104459 0.781695 2.881000 51 46 62
1.043505 0.743318 2.722000 47 43 50
1.043505 0.748083 2.722000 32 33 38
1.035454 0.747040 2.701000 18 12 25
1.035454 0.751768 2.701000 11 3 12
1.035454 0.756496 2.701000 4 3 7
1.035454 0.761224 2.701000 4 3 2
1.035454 0.765952 2.701000 4 4 3
1.035454 0.770681 2.701000 4 5 5
1.035454 0.775409 2.701000 5 4 4
1.035454 0.780137 2.701000 6 3 4
1.035454 0.784865 2.701000 8 3 4
1.027404 0.783454 2.680000 6 3 4
1.035454 0.794321 2.701000 4 3 4
1.043505 0.805262 2.722000 4 4 4
1.035454 0.803777 2.701000 4 3 6
1.027404 0.802219 2.680000 4 3 8
1.035454 0.813233 2.701000 4 4 8
1.035454 0.817962 2.701000 4 7 8
1.035454 0.822690 2.701000 4 4 5
1.035454 0.827418 2.701000 4 4 2
1.035454 0.832146 2.701000 4 3 3
1.035454 0.836874 2.701000 6 3 4
1.035454 0.841602 2.701000 8 3 5
1.027404 0.839750 2.680000 6 3 6
1.027404 0.844441 2.680000 4 3 4
1.027404 0.849133 2.680000 5 2 3
1.027404 0.853824 2.680000 6 3 4
1.035454 0.865243 2.701000 5 4 5
1.035454 0.869971 2.701000 4 3 3
0.854892 0.792434 2.230000 44 42 52
0.849141 0.790981 2.215000 40 41 52
0.843774 0.789834 2.201000 42 42 52
0.838407 0.788639 2.187000 44 40 53
0.828057 0.782684 2.160000 45 38 54
0.823073 0.781731 2.147000 47 39 58
0.823073 0.785490 2.147000 47 39 61
0.817706 0.784102 2.133000 47 39 58
0.812722 0.783034 2.120000 46 41 55
0.783970 0.758912 2.045000 45 41 52
0.783970 0.762492 2.045000 46 42 49
0.774770 0.757081 2.021000 47 39 55
0.774770 0.760619 2.021000 49 38 60
0.770169 0.759619 2.009000 52 38 61
0.767869 0.760857 2.003000 49 37 63
0.761352 0.757876 1.986000 47 37 58
0.761352 0.761352 1.986000 48 36 54
0.757135 0.760592 1.975000 49 39 56
0.752918 0.759794 1.964000 50 41 58
0.740267 0.750408 1.931000 52 39 59
1.232737 -1.249547 3.201000 41 34 30
1.232737 -1.243944 3.201000 42 38 35
1.232737 -1.238341 3.201000 43 37 41
1.232737 -1.232737 3.201000 45 34 31
1.232737 -1.227134 3.201000 44 33 21
1.232737 -1.221531 3.201000 43 38 33
1.232737 -1.215927 3.201000 44 35 46
1.232737 -1.210324 3.201000 45 34 38
1.232737 -1.204720 3.201000 46 35 31
1.232737 -1.199117 3.201000 46 35 28
1.232737 -1.193514 3.201000 47 34 26
1.232737 -1.187910 3.201000 48 33 29
1.232737 -1.182307 3.201000 47 34 33
1.232737 -1.176704 3.201000 46 33 35
1.232737 -1.171100 3.201000 48 30 38
1.221569 -1.154938 3.172000 50 31 34
1.232737 -1.159894 3.201000 48 33 31
1.232737 -1.154290 3.201000 45 34 24
1.232737 -1.148687 3.201000 46 32 17
1.221569 -1.132728 3.172000 47 31 23
1.232737 -1.137480 3.201000 45 29 29
1.232737 -1.131877 3.201000 44 30 28
1.221569 -1.116070 3.172000 43 30 27
1.232737 -1.120670 3.201000 43 34 29
1.221569 -1.104965 3.172000 43 32 31
1.256229 -1.130606 3.262000 44 34 31
1.244291 -1.114206 3.231000 40 32 31
1.244291 -1.108550 3.231000 37 34 30
1.232737 -1.092654 3.201000 37 29 30
1.244291 -1.097238 3.231000 38 26 41
1.232737 -1.081447 3.201000 36 28 52
1.232737 -1.075843 3.201000 34 30 42
1.232737 -1.070240 3.201000 32 25 33
1.232737 -1.064637 3.201000 31 24 32
1.232737 -1.059033 3.201000 30 22 32
1.232737 -1.053430 3.201000 28 26 27
1.232737 -1.047827 3.201000 26 25 23
1.221569 -1.032781 3.172000 25 25 24
1.232737 -1.036620 3.201000 25 24 26
1.221569 -1.021676 3.172000 26 26 25
1.210401 -1.006833 3.143000 23 24 25
1.199618 -0.992411 3.115000 20 22 23
1.210401 -0.995830 3.143000 21 19 21
1.210401 -0.990328 3.143000 22 15 21
1.210401 -0.984826 3.143000 22 13 22
1.221569 -0.988360 3.172000 21 13 21
1.221569 -0.982808 3.172000 21 16 21
1.232737 -0.986190 3.201000 22 17 20
1.232737 -0.980586 3.201000 21 15 19
1.147628 -0.892020 2.980000 16 13 23
1.157641 -0.894540 3.006000 14 14 20
1.157641 -0.889279 3.006000 17 13 17
1.157641 -0.884017 3.006000 21 12 13
1.157641 -0.878755 3.006000 19 13 9
1.157641 -0.873493 3.006000 17 12 9
1.157641 -0.868231 3.006000 18 11 9
1.157641 -0.862968 3.006000 20 7 11
1.157641 -0.857707 3.006000 18 10 13
1.157641 -0.831397 3.006000 17 11 8
1.147628 -0.818989 2.980000 17 10 7
1.147628 -0.813772 2.980000 17 12 5
1.147628 -0.808556 2.980000 17 12 3
1.147628 -0.803340 2.980000 18 14 8
1.147628 -0.798123 2.980000 16 12 14
1.147628 -0.792907 2.980000 14 12 13
1.147628 -0.787690 2.980000 14 12 13
1.147628 -0.782474 2.980000 14 10 9
1.147628 -0.641628 2.980000 31 12 7
1.147628 -0.636412 2.980000 31 12 11
1.147628 -0.631195 2.980000 29 14 15
1.157641 -0.631440 3.006000 28 11 16
1.157641 -0.626178 3.006000 29 12 18
1.157641 -0.620916 3.006000 31 11 20
1.168039 -0.621184 3.033000 36 15 22
1.168039 -0.615875 3.033000 41 11 21
1.178052 -0.615800 3.059000 41 13 21
1.168039 -0.605256 3.033000 41 12 34
1.168039 -0.599947 3.033000 49 28 48
1.168039 -0.594638 3.033000 57 51 65
1.178052 -0.594381 3.059000 58 53 82
1.178052 -0.589026 3.059000 60 52 74
1.178052 -0.583671 3.059000 64 51 66
1.178052 -0.578316 3.059000 68 57 72
1.188835 -0.578206 3.087000 70 63 78
1.188835 -0.572802 3.087000 73 66 87
1.199618 -0.572545 3.115000 70 65 97
1.188835 -0.561994 3.087000 68 67 87
1.188835 -0.556591 3.087000 69 60 78
1.188835 -0.534976 3.087000 65 53 69
1.173045 -0.522538 3.046000 65 52 77
1.168039 -0.514999 3.033000 62 50 85
1.168039 -0.509690 3.033000 60 52 76
1.178052 -0.508704 3.059000 60 47 68
1.188835 -0.507957 3.087000 61 44 61
1.188835 -0.502553 3.087000 58 43 55
1.199618 -0.501658 3.115000 54 44 55
1.199618 -0.496206 3.115000 54 44 55
1.199618 -0.490753 3.115000 54 47 63
1.210401 -0.489662 3.143000 55 47 71
1.221569 -0.488628 3.172000 56 48 61
1.221569 -0.483075 3.172000 59 46 52
1.221569 -0.477522 3.172000 61 46 51
1.221569 -0.471970 3.172000 58 44 51
1.221569 -0.466417 3.172000 55 44 53
1.210401 -0.456651 3.143000 54 41 56
1.210401 -0.451149 3.143000 54 41 50
1.210401 -0.445648 3.143000 52 38 45
1.199618 -0.436225 3.115000 51 37 47
1.199618 -0.430772 3.115000 47 34 49
1.199618 -0.425319 3.115000 44 31 42
1.199618 -0.419866 3.115000 44 34 35
1.210401 -0.418138 3.143000 44 38 40
1.210401 -0.412637 3.143000 46 37 45
1.210401 -0.407135 3.143000 48 35 46
1.210401 -0.401633 3.143000 47 40 48
1.210401 -0.396131 3.143000 47 44 48
1.210401 -0.390629 3.143000 45 43 49
1.210401 -0.385127 3.143000 43 44 49
1.210401 -0.379626 3.143000 43 43 49
1.210401 -0.374124 3.143000 43 42 51
1.210401 -0.368622 3.143000 43 39 54
1.210401 -0.363120 3.143000 43 36 54
1.210401 -0.357618 3.143000 42 36 54
1.210401 -0.352117 3.143000 42 36 52
1.210401 -0.346615 3.143000 42 35 50
1.210401 -0.341113 3.143000 43 35 48
1.210401 -0.335611 3.143000 43 37 46
1.210401 -0.330109 3.143000 43 39 46
1.199618 -0.321716 3.115000 43 39 46
1.210401 -0.319106 3.143000 43 40 46
1.199618 -0.310810 3.115000 42 37 46
1.199618 -0.305357 3.115000 41 36 45
1.199618 -0.299904 3.115000 40 37 45
1.199618 -0.294452 3.115000 40 37 45
1.199618 -0.288999 3.115000 39 37 45
1.199618 -0.283546 3.115000 39 37 52
1.199618 -0.278093 3.115000 37 34 59
1.199618 -0.272640 3.115000 36 33 51
1.199618 -0.267188 3.115000 37 34 44
1.199618 -0.261735 3.115000 38 36 44
1.199618 -0.256282 3.115000 38 36 45
1.199618 -0.250829 3.115000 38 38 43
1.199618 -0.245376 3.115000 41 34 42
1.199618 -0.239923 3.115000 44 34 43
1.199618 -0.234471 3.115000 42 34 44
1.199618 -0.229018 3.115000 41 33 48
1.199618 -0.223565 3.115000 40 33 52
1.199618 -0.218112 3.115000 39 34 47
1.199618 -0.212659 3.115000 39 32 43
1.188835 -0.205344 3.087000 39 31 40
1.188835 -0.199940 3.087000 39 31 37
1.188835 -0.194537 3.087000 40 31 38
1.188835 -0.189133 3.087000 39 30 40
1.188835 -0.183729 3.087000 38 30 41
1.188835 -0.178325 3.087000 38 30 42
1.199618 -0.174490 3.115000 39 30 38
1.188835 -0.167518 3.087000 39 31 34
1.188835 -0.162114 3.087000 39 31 34
1.199618 -0.158131 3.115000 39 31 34
1.199618 -0.152679 3.115000 39 32 33
1.199618 -0.147226 3.115000 36 30 33
1.199618 -0.141773 3.115000 33 32 30
1.199618 -0.136320 3.115000 32 27 28
1.199618 -0.130867 3.115000 31 26 24
1.188835 -0.124287 3.087000 31 25 20
1.188835 -0.118883 3.087000 32 25 17
1.188835 -0.113480 3.087000 31 26 14
1.188835 -0.108076 3.087000 31 26 17
1.188835 -0.102672 3.087000 33 25 21
1.188835 -0.097268 3.087000 35 25 23
1.188835 -0.091864 3.087000 37 22 26
1.188835 -0.086461 3.087000 40 22 30
1.188835 -0.081057 3.087000 36 24 35
1.188835 -0.075653 3.087000 32 24 24
1.188835 -0.070249 3.087000 35 23 14
1.188835 -0.064845 3.087000 37 25 15
1.188835 -0.059442 3.087000 38 26 16
1.188835 -0.054038 3.087000 40 28 17
1.188835 -0.048634 3.087000 40 27 18
1.188835 -0.043230 3.087000 40 28 22
1.188835 -0.037827 3.087000 41 31 26
1.188835 -0.032423 3.087000 43 36 25
1.188835 -0.027019 3.087000 46 32 24
1.188835 -0.021615 3.087000 50 30 33
1.188835 -0.016211 3.087000 47 28 42
1.188835 -0.010808 3.087000 44 29 30
1.188835 -0.005404 3.087000 42 26 18
1.188835 -0.000000 3.087000 41 26 19
1.188835 0.005404 3.087000 39 23 20
1.188835 0.010808 3.087000 37 21 19
1.188835 0.016211 3.087000 39 23 19
1.188835 0.021615 3.087000 41 26 18
1.188835 0.027019 3.087000 41 27 18
1.188835 0.032423 3.087000 41 28 19
1.188835 0.037827 3.087000 44 29 21
1.188835 0.043230 3.087000 46 30 21
1.188835 0.048634 3.087000 46 29 21
1.178052 0.053548 3.059000 47 30 19
1.178052 0.058903 3.059000 48 32 18
1.178052 0.064257 3.059000 49 34 18
1.178052 0.069612 3.059000 49 33 19
1.178052 0.074967 3.059000 50 32 26
1.178052 0.080322 3.059000 50 31 34
1.168039 0.084948 3.033000 50 31 29
1.168039 0.090258 3.033000 49 32 24
1.168039 0.095567 3.033000 49 34 22
1.168039 0.100876 3.033000 50 35 21
1.168039 0.106185 3.033000 51 36 24
1.157641 0.110502 3.006000 50 34 27
1.168039 0.116804 3.033000 49 34 30
1.168039 0.122113 3.033000 49 33 34
1.168039 0.127422 3.033000 49 34 27
1.178052 0.133870 3.059000 49 32 20
1.178052 0.139224 3.059000 49 31 22
1.178052 0.144579 3.059000 49 30 24
1.188835 0.151306 3.087000 49 31 31
1.178052 0.155289 3.059000 47 32 39
1.188835 0.162114 3.087000 46 34 30
1.178052 0.165998 3.059000 48 34 21
1.178052 0.171353 3.059000 51 34 27
1.178052 0.176708 3.059000 53 33 33
1.178052 0.182063 3.059000 56 35 29
1.178052 0.187417 3.059000 61 44 25
1.178052 0.192772 3.059000 66 52 34
1.178052 0.198127 3.059000 58 47 43
1.178052 0.203482 3.059000 51 44 40
1.178052 0.208836 3.059000 48 38 38
1.178052 0.214191 3.059000 45 34 33
1.168039 0.217680 3.033000 38 25 29
1.168039 0.222989 3.033000 31 23 31
1.168039 0.228298 3.033000 37 29 33
1.168039 0.233608 3.033000 43 37 37
1.157641 0.236790 3.006000 43 37 41
1.157641 0.242052 3.006000 43 37 36
1.157641 0.247314 3.006000 43 36 32
1.157641 0.252576 3.006000 43 38 40
1.157641 0.257838 3.006000 43 39 48
1.157641 0.263100 3.006000 44 39 43
1.157641 0.268362 3.006000 43 36 39
1.157641 0.273624 3.006000 43 32 38
1.157641 0.278886 3.006000 44 33 38
1.157641 0.284148 3.006000 45 33 42
1.157641 0.289410 3.006000 43 27 47
1.157641 0.294672 3.006000 42 26 36
1.157641 0.299934 3.006000 37 21 26
1.157641 0.305196 3.006000 33 17 20
1.157641 0.310458 3.006000 30 19 15
1.157641 0.315720 3.006000 28 21 14
1.168039 0.323865 3.033000 29 21 14
1.157641 0.326244 3.006000 30 21 14
1.157641 0.331506 3.006000 29 19 15
1.157641 0.336768 3.006000 28 17 12
1.157641 0.342030 3.006000 30 17 9
1.157641 0.347292 3.006000 32 17 9
1.157641 0.352554 3.006000 33 18 9
1.157641 0.357816 3.006000 34 20 14
1.157641 0.363078 3.006000 34 17 20
1.157641 0.368340 3.006000 34 14 14
1.147628 0.370371 2.980000 26 10 8
1.147628 0.375587 2.980000 18 7 6
1.138000 0.377609 2.955000 20 7 4
1.109502 0.373196 2.881000 23 8 3
1.109502 0.378239 2.881000 21 8 3
1.109502 0.383283 2.881000 20 8 2
1.100259 0.385091 2.857000 18 7 2
1.100259 0.390092 2.857000 16 8 2
1.109502 0.398412 2.881000 17 9 3
1.109502 0.403455 2.881000 18 9 2
1.109502 0.408499 2.881000 20 8 1
1.109502 0.413542 2.881000 22 8 2
1.100259 0.415098 2.857000 19 8 3
1.100259 0.420099 2.857000 16 7 4
1.109502 0.428671 2.881000 17 8 6
1.109502 0.433714 2.881000 17 8 4
1.100259 0.435103 2.857000 19 7 3
1.109502 0.443801 2.881000 22 7 2
1.109502 0.448844 2.881000 20 7 1
1.109502 0.453887 2.881000 19 7 3
1.100259 0.455107 2.857000 16 8 5
1.100259 0.460109 2.857000 14 9 5
1.100259 0.465110 2.857000 15 8 5
1.100259 0.470111 2.857000 16 7 5
1.100259 0.475112 2.857000 16 6 5
1.100259 0.480113 2.857000 17 5 8
1.100259 0.485114 2.857000 19 4 11
1.109502 0.494233 2.881000 22 4 6
1.100259 0.495117 2.857000 18 4 2
1.109502 0.504319 2.881000 15 5 3
1.109502 0.509362 2.881000 13 7 4
1.109502 0.514406 2.881000 12 9 3
1.109502 0.519449 2.881000 14 8 2
1.100259 0.520123 2.857000 16 7 3
1.100259 0.525124 2.857000 20 6 4
1.100259 0.530125 2.857000 24 8 8
1.100259 0.535126 2.857000 17 7 13
1.091402 0.535779 2.834000 11 8 8
1.091402 0.540740 2.834000 9 5 4
1.091402 0.545701 2.834000 7 5 3
1.091402 0.550662 2.834000 7 5 3
1.082159 0.550917 2.810000 8 5 3
1.091402 0.560584 2.834000 7 4 3
1.109502 0.574924 2.881000 7 5 8
1.118745 0.584798 2.905000 7 6 14
1.118745 0.589884 2.905000 8 9 8
1.118745 0.594969 2.905000 6 7 3
1.118745 0.600054 2.905000 4 7 2
1.118745 0.605139 2.905000 4 4 1
1.128372 0.615476 2.930000 5 3 1
1.128372 0.620605 2.930000 7 4 2
1.128372 0.625734 2.930000 10 5 5
1.128372 0.630863 2.930000 10 6 8
1.138000 0.641418 2.955000 11 9 6
1.138000 0.646591 2.955000 11 9 5
1.138000 0.651764 2.955000 11 9 8
1.138000 0.656937 2.955000 13 8 11
1.138000 0.662109 2.955000 15 8 14
1.138000 0.667282 2.955000 14 7 17
1.138000 0.672455 2.955000 14 7 21
1.138000 0.677628 2.955000 15 8 25
1.138000 0.682800 2.955000 17 10 18
1.138000 0.687973 2.955000 17 9 12
1.128372 0.687281 2.930000 17 9 14
1.138000 0.698318 2.955000 17 8 17
1.128372 0.697539 2.930000 17 10 14
1.128372 0.702668 2.930000 16 11 12
1.128372 0.707797 2.930000 15 10 12
1.128372 0.712926 2.930000 14 9 12
1.128372 0.718055 2.930000 13 7 13
1.128372 0.723184 2.930000 12 8 15
1.128372 0.728313 2.930000 12 9 13
1.128372 0.733442 2.930000 13 10 11
1.138000 0.744873 2.955000 15 12 14
1.138000 0.750046 2.955000 14 8 18
1.138000 0.755218 2.955000 13 6 14
1.128372 0.753958 2.930000 14 8 10
1.128372 0.759087 2.930000 16 9 10
1.128372 0.764216 2.930000 17 8 11
1.118745 0.762781 2.905000 18 8 12
1.118745 0.767866 2.905000 26 11 13
1.118745 0.772951 2.905000 34 14 26
1.118745 0.778036 2.905000 48 31 39
1.118745 0.783121 2.905000 62 42 44
1.109502 0.781695 2.881000 56 45 50
1.056357 0.749053 2.743000 51 48 42
1.040182 0.742312 2.701000 36 35 34
1.040182 0.747040 2.701000 21 9 21
1.040182 0.751768 2.701000 14 4 9
1.040182 0.756496 2.701000 7 4 5
1.032095 0.755306 2.680000 6 3 1
1.032095 0.759997 2.680000 6 5 3
1.040182 0.770681 2.701000 5 4 5
1.040182 0.775409 2.701000 5 4 4
1.040182 0.780137 2.701000 6 3 4
1.032095 0.778763 2.680000 7 3 4
1.032095 0.783454 2.680000 5 3 4
1.032095 0.788145 2.680000 4 4 4
1.032095 0.792837 2.680000 4 4 4
1.040182 0.803777 2.701000 4 4 6
1.032095 0.802219 2.680000 4 3 9
1.032095 0.806911 2.680000 4 4 7
1.032095 0.811602 2.680000 4 5 6
1.032095 0.816293 2.680000 4 4 5
1.040182 0.827418 2.701000 4 4 4
1.032095 0.825676 2.680000 4 4 4
1.032095 0.830367 2.680000 5 3 5
1.032095 0.835059 2.680000 6 3 3
1.032095 0.839750 2.680000 5 3 2
1.032095 0.844441 2.680000 4 4 2
1.032095 0.849133 2.680000 5 3 3
1.032095 0.853824 2.680000 6 3 5
1.032095 0.858515 2.680000 5 3 7
1.032095 0.863207 2.680000 4 3 5
1.024008 0.861097 2.659000 4 3 4
0.853019 0.790981 2.215000 42 42 53
0.842236 0.784811 2.187000 44 42 54
0.837229 0.783951 2.174000 46 42 55
0.831838 0.782684 2.160000 47 38 56
0.831838 0.786465 2.160000 48 38 60
0.826831 0.785490 2.147000 49 38 65
0.826831 0.789248 2.147000 50 38 61
0.816433 0.783034 2.120000 48 40 58
0.806805 0.777467 2.095000 46 42 55
0.787550 0.762492 2.045000 47 40 53
0.778307 0.757081 2.021000 48 39 57
0.782929 0.765135 2.033000 49 40 62
0.778307 0.764156 2.021000 50 41 60
0.773686 0.763136 2.009000 50 38 58
0.764829 0.757876 1.986000 49 36 56
0.764829 0.761352 1.986000 49 38 54
0.764829 0.764829 1.986000 49 41 56
0.756356 0.759794 1.964000 49 40 58
0.751735 0.758569 1.952000 49 39 60
0.743647 0.753788 1.931000 51 40 63
1.238340 -1.249547 3.201000 43 33 28
1.238340 -1.243944 3.201000 42 35 32
1.238340 -1.238341 3.201000 43 39 36
1.238340 -1.232737 3.201000 44 34 28
1.238340 -1.227134 3.201000 42 30 21
1.238340 -1.221531 3.201000 41 34 29
1.238340 -1.215927 3.201000 43 36 38
1.238340 -1.210324 3.201000 46 34 33
1.238340 -1.204720 3.201000 46 34 28
1.238340 -1.199117 3.201000 46 33 23
1.238340 -1.193514 3.201000 46 34 19
1.238340 -1.187910 3.201000 46 34 28
1.238340 -1.182307 3.201000 48 36 37
1.238340 -1.176704 3.201000 50 33 37
1.238340 -1.171100 3.201000 52 29 37
1.238340 -1.165497 3.201000 54 30 35
1.238340 -1.159894 3.201000 51 31 33
1.238340 -1.154290 3.201000 49 30 28
1.238340 -1.148687 3.201000 52 32 23
1.238340 -1.143084 3.201000 55 31 29
1.238340 -1.137480 3.201000 52 29 36
1.238340 -1.131877 3.201000 49 28 28
1.238340 -1.126274 3.201000 48 27 21
1.238340 -1.120670 3.201000 47 29 26
1.249946 -1.125517 3.231000 51 30 30
1.261939 -1.130606 3.262000 55 32 34
1.249946 -1.114206 3.231000 48 33 38
1.249946 -1.108550 3.231000 42 33 34
1.238340 -1.092654 3.201000 43 31 30
1.249946 -1.097238 3.231000 45 31 38
1.249946 -1.091582 3.231000 42 38 45
1.249946 -1.085926 3.231000 39 34 42
1.249946 -1.080270 3.231000 39 30 38
1.249946 -1.074615 3.231000 39 28 38
1.249946 -1.068959 3.231000 36 27 38
1.249946 -1.063303 3.231000 34 29 35
1.238340 -1.047827 3.201000 32 31 33
1.238340 -1.042223 3.201000 31 28 30
1.238340 -1.036620 3.201000 32 26 28
1.238340 -1.031017 3.201000 33 29 31
1.227122 -1.016123 3.172000 30 32 35
1.227122 -1.010571 3.172000 27 28 30
1.227122 -1.005018 3.172000 27 26 26
1.227122 -0.999466 3.172000 27 22 27
1.227122 -0.993913 3.172000 26 18 27
1.238340 -0.997397 3.201000 26 20 27
1.238340 -0.991793 3.201000 26 21 26
1.249946 -0.995432 3.231000 27 21 23
1.238340 -0.980586 3.201000 26 21 20
1.249946 -0.984121 3.231000 25 19 19
1.238340 -0.969380 3.201000 23 17 19
1.238340 -0.963776 3.201000 21 17 23
1.238340 -0.958173 3.201000 20 14 28
1.162903 -0.894540 3.006000 19 16 24
1.183406 -0.904958 3.059000 22 17 21
1.162903 -0.884017 3.006000 25 15 17
1.162903 -0.878755 3.006000 21 16 14
1.162903 -0.873493 3.006000 17 15 13
1.162903 -0.868231 3.006000 20 15 13
1.162903 -0.862968 3.006000 23 13 15
1.167932 -0.834992 3.019000 17 11 15
1.162903 -0.826134 3.006000 17 10 12
1.162903 -0.820872 3.006000 17 11 11
1.152844 -0.808556 2.980000 17 10 10
1.152844 -0.803340 2.980000 18 11 15
1.162903 -0.805086 3.006000 16 11 21
1.152844 -0.792907 2.980000 14 12 18
1.152844 -0.787690 2.980000 15 15 16
1.152844 -0.782474 2.980000 17 11 12
1.162903 -0.626178 3.006000 20 7 12
1.173348 -0.626493 3.033000 22 8 12
1.173348 -0.621184 3.033000 23 7 12
1.173348 -0.615875 3.033000 25 7 16
1.173348 -0.610566 3.033000 30 7 20
1.162903 -0.599868 3.006000 36 11 35
1.162903 -0.594606 3.006000 46 14 50
1.162903 -0.589344 3.006000 56 41 61
1.162903 -0.584082 3.006000 57 54 72
1.173348 -0.584019 3.033000 58 48 61
1.173348 -0.578710 3.033000 61 43 50
1.183406 -0.578316 3.059000 64 48 60
1.183406 -0.572961 3.059000 66 64 70
1.194238 -0.572802 3.087000 69 60 76
1.178377 -0.527870 3.046000 70 53 62
1.162903 -0.515676 3.006000 73 48 65
1.173348 -0.514999 3.033000 68 49 68
1.173348 -0.509690 3.033000 64 46 63
1.183406 -0.508704 3.059000 66 46 59
1.183406 -0.503349 3.059000 69 44 55
1.183406 -0.497995 3.059000 64 47 52
1.194238 -0.497149 3.087000 59 45 52
1.183406 -0.487285 3.059000 59 45 52
1.205070 -0.490753 3.115000 60 48 56
1.215903 -0.489662 3.143000 59 51 60
1.238340 -0.493095 3.201000 58 50 54
1.227122 -0.483075 3.172000 63 50 48
1.227122 -0.477522 3.172000 69 49 54
1.227122 -0.471970 3.172000 64 47 61
1.215903 -0.462153 3.143000 59 45 59
1.215903 -0.456651 3.143000 57 42 57
1.205070 -0.447130 3.115000 56 43 55
1.194238 -0.437707 3.087000 54 42 54
1.194238 -0.432303 3.087000 53 40 51
1.205070 -0.430772 3.115000 49 39 49
1.205070 -0.425319 3.115000 45 38 46
1.205070 -0.419866 3.115000 46 41 43
1.205070 -0.414413 3.115000 47 41 45
1.215903 -0.412637 3.143000 48 42 48
1.215903 -0.407135 3.143000 50 41 50
1.215903 -0.401633 3.143000 49 42 53
1.215903 -0.396131 3.143000 49 44 53
1.215903 -0.390629 3.143000 47 45 53
1.227122 -0.388681 3.172000 45 43 54
1.215903 -0.379626 3.143000 45 42 55
1.215903 -0.374124 3.143000 46 43 55
1.215903 -0.368622 3.143000 46 43 55
1.215903 -0.363120 3.143000 47 40 55
1.215903 -0.357618 3.143000 45 38 56
1.215903 -0.352117 3.143000 44 37 54
1.215903 -0.346615 3.143000 44 36 52
1.215903 -0.341113 3.143000 44 37 51
1.215903 -0.335611 3.143000 44 38 50
1.215903 -0.330109 3.143000 45 39 50
1.205070 -0.321716 3.115000 44 38 49
1.205070 -0.316263 3.115000 43 39 50
1.205070 -0.310810 3.115000 42 40 51
1.205070 -0.305357 3.115000 41 38 48
1.205070 -0.299904 3.115000 40 40 46
1.205070 -0.294452 3.115000 40 38 45
1.205070 -0.288999 3.115000 40 39 45
1.205070 -0.283546 3.115000 40 37 50
1.205070 -0.278093 3.115000 40 34 56
1.205070 -0.272640 3.115000 41 33 51
1.205070 -0.267188 3.115000 40 35 46
1.205070 -0.261735 3.115000 40 35 46
1.205070 -0.256282 3.115000 41 38 47
1.205070 -0.250829 3.115000 43 35 45
1.205070 -0.245376 3.115000 42 32 44
1.205070 -0.239923 3.115000 42 34 45
1.205070 -0.234471 3.115000 42 36 45
1.205070 -0.229018 3.115000 43 33 47
1.205070 -0.223565 3.115000 45 31 49
1.205070 -0.218112 3.115000 47 32 46
1.205070 -0.212659 3.115000 43 36 43
1.194238 -0.205344 3.087000 39 33 42
