ply
format ascii 1.0
element vertex 1197
property float x
property float y
property float z
property uchar red
property uchar green
property uchar blue
end_header
-0.341805 0.958173 3.201000 182 164 165
-0.338708 0.955045 3.172000 191 162 159
-0.335611 0.951815 3.143000 182 168 152
-0.332621 0.948789 3.115000 174 153 154
-0.312867 0.897569 2.930000 175 150 156
-0.315537 0.915573 2.955000 187 168 164
-0.310198 0.905166 2.905000 197 172 162
-0.305072 0.895211 2.857000 200 180 159
-0.302616 0.892965 2.834000 204 178 158
-0.297704 0.883351 2.788000 191 189 156
-0.290657 0.867205 2.722000 178 158 154
-0.290657 0.871970 2.722000 173 147 153
-0.288414 0.869971 2.701000 168 148 154
-0.283929 0.861097 2.659000 173 152 156
-0.283929 0.865752 2.659000 178 154 153
-0.281794 0.863860 2.639000 172 158 150
-0.281794 0.868479 2.639000 166 149 149
-0.279658 0.866482 2.619000 165 148 149
-0.275494 0.858095 2.580000 164 149 151
-0.269407 0.843554 2.523000 163 147 154
-0.267485 0.841921 2.505000 162 146 154
-0.267485 0.846306 2.505000 161 145 155
-0.265563 0.844578 2.487000 161 146 158
-0.263641 0.842787 2.469000 173 158 162
-0.261719 0.840933 2.451000 185 161 161
-0.259904 0.839361 2.434000 184 163 160
-0.258089 0.837730 2.417000 184 163 163
-0.256273 0.836039 2.400000 192 173 167
-0.251041 0.823085 2.351000 201 172 163
-0.249333 0.821571 2.335000 174 168 159
-0.246022 0.814697 2.304000 148 135 138
-0.246022 0.818730 2.304000 121 123 116
-0.242819 0.812050 2.274000 94 96 110
-0.238121 0.800241 2.230000 118 117 103
-0.235024 0.793687 2.201000 142 113 112
-0.233529 0.792467 2.187000 123 105 122
-0.232141 0.791562 2.174000 104 104 130
-0.232141 0.795368 2.174000 121 107 138
-0.230646 0.794027 2.160000 139 122 139
-0.229258 0.793006 2.147000 154 133 141
-0.227763 0.791569 2.133000 169 150 148
-0.226375 0.790456 2.120000 163 156 156
-0.223705 0.784802 2.095000 157 143 155
-0.222317 0.783576 2.082000 157 138 155
-0.220929 0.782306 2.069000 157 137 152
-0.219648 0.781369 2.057000 153 134 150
-0.218366 0.780391 2.045000 150 134 147
-0.217085 0.779370 2.033000 144 134 145
-0.215804 0.778307 2.021000 139 122 143
-0.212066 0.768305 1.986000 135 121 142
-0.345864 0.956890 3.293000 162 146 148
-0.342608 0.953592 3.262000 163 146 149
-0.339352 0.950186 3.231000 164 145 149
-0.339352 0.955841 3.231000 167 149 150
-0.336201 0.952570 3.201000 171 151 153
-0.336201 0.958173 3.201000 174 153 157
-0.336201 0.963776 3.201000 178 150 156
-0.305112 0.905166 2.905000 188 159 157
-0.302591 0.902731 2.881000 188 163 158
-0.297655 0.892965 2.834000 188 158 157
-0.292824 0.883351 2.788000 181 160 157
-0.288097 0.873895 2.743000 174 141 154
-0.285892 0.871970 2.722000 169 144 152
-0.283686 0.869971 2.701000 164 147 148
-0.281480 0.867898 2.680000 168 149 144
-0.279275 0.865752 2.659000 173 150 148
-0.277174 0.863860 2.639000 168 151 152
-0.277174 0.868479 2.639000 163 149 150
-0.272973 0.859865 2.599000 165 149 149
-0.270977 0.858095 2.580000 167 152 148
-0.266986 0.849906 2.542000 165 150 148
-0.264991 0.847970 2.523000 163 147 150
-0.263100 0.846306 2.505000 163 144 153
-0.261210 0.844578 2.487000 163 140 156
-0.257429 0.836643 2.451000 172 149 159
-0.255643 0.835101 2.434000 181 146 157
-0.253858 0.833499 2.417000 182 155 156
-0.253858 0.837730 2.417000 184 158 158
-0.252072 0.836039 2.400000 188 163 161
-0.250392 0.834638 2.384000 193 165 158
-0.245245 0.821571 2.335000 169 154 155
-0.241989 0.814697 2.304000 146 130 134
-0.240414 0.813400 2.289000 118 110 113
-0.240414 0.817407 2.289000 91 68 104
-0.234217 0.800241 2.230000 114 103 96
-0.231171 0.793687 2.201000 137 115 109
-0.229701 0.792467 2.187000 123 108 122
-0.228335 0.791562 2.174000 109 105 131
-0.228335 0.795368 2.174000 124 112 141
-0.226865 0.794027 2.160000 139 127 144
-0.225499 0.793006 2.147000 155 139 148
-0.224029 0.791569 2.133000 171 156 147
-0.222664 0.790456 2.120000 165 147 146
-0.220038 0.784802 2.095000 158 138 151
-0.218672 0.783576 2.082000 158 137 156
-0.217307 0.782306 2.069000 158 137 154
-0.216047 0.781369 2.057000 154 134 152
-0.214786 0.780391 2.045000 150 134 148
-0.213526 0.779370 2.033000 144 128 144
-0.209850 0.769450 1.998000 139 117 143
-0.207434 0.764050 1.975000 132 115 143
-0.340100 0.956890 3.293000 162 145 149
-0.336898 0.953592 3.262000 163 147 150
-0.333696 0.950186 3.231000 165 145 151
-0.333696 0.955841 3.231000 167 147 152
-0.324608 0.935310 3.143000 169 148 154
-0.327603 0.949493 3.172000 167 149 156
-0.324608 0.946313 3.143000 166 149 153
-0.300027 0.905166 2.905000 179 156 155
-0.297548 0.902731 2.881000 176 156 155
-0.292694 0.892965 2.834000 173 155 155
-0.287943 0.883351 2.788000 171 154 156
-0.283296 0.873895 2.743000 170 146 154
-0.281127 0.871970 2.722000 165 143 153
-0.278958 0.869971 2.701000 160 146 151
-0.276789 0.867898 2.680000 164 148 150
-0.274620 0.865752 2.659000 168 149 154
-0.274620 0.870407 2.659000 164 147 157
-0.272555 0.868479 2.639000 161 146 154
-0.268424 0.859865 2.599000 165 148 150
-0.266461 0.858095 2.580000 170 151 147
-0.262537 0.849906 2.542000 167 154 144
-0.260574 0.847970 2.523000 165 146 145
-0.258715 0.846306 2.505000 165 144 146
-0.256856 0.844578 2.487000 166 144 153
-0.253138 0.836643 2.451000 172 152 161
-0.251382 0.835101 2.434000 178 151 159
-0.249627 0.833499 2.417000 181 156 157
-0.249627 0.837730 2.417000 184 157 161
-0.247871 0.836039 2.400000 184 158 166
-0.244463 0.828687 2.367000 185 157 161
-0.241158 0.821571 2.335000 164 153 157
-0.239609 0.820355 2.320000 144 131 136
-0.237956 0.818730 2.304000 116 120 114
-0.233308 0.806694 2.259000 88 97 112
-0.228764 0.794858 2.215000 110 115 110
-0.227318 0.793687 2.201000 132 113 116
-0.225872 0.792467 2.187000 123 108 123
-0.225872 0.796296 2.187000 114 106 129
-0.224530 0.795368 2.174000 127 111 136
-0.224530 0.799173 2.174000 140 128 145
-0.221741 0.793006 2.147000 157 141 153
-0.220295 0.791569 2.133000 174 148 152
-0.218953 0.790456 2.120000 167 141 151
-0.217610 0.789297 2.107000 160 139 156
-0.215028 0.783576 2.082000 159 138 161
-0.213685 0.782306 2.069000 159 136 158
-0.212446 0.781369 2.057000 155 134 155
-0.211207 0.780391 2.045000 151 131 150
-0.209967 0.779370 2.033000 145 127 146
-0.208728 0.778307 2.021000 139 121 143
-0.203977 0.764050 1.975000 130 114 140
-0.340833 0.969611 3.357000 161 143 152
-0.334335 0.956890 3.293000 163 143 151
-0.334335 0.962654 3.293000 165 144 151
-0.331188 0.959302 3.262000 168 143 153
-0.328040 0.955841 3.231000 168 146 155
-0.324994 0.952570 3.201000 168 148 155
-0.324994 0.958173 3.201000 167 148 156
-0.285296 0.890322 2.810000 169 147 155
-0.278494 0.873895 2.743000 168 149 154
-0.276362 0.871970 2.722000 166 145 154
-0.276362 0.876735 2.722000 164 146 155
-0.272098 0.867898 2.680000 166 149 157
-0.269966 0.865752 2.659000 169 152 160
-0.269966 0.870407 2.659000 168 147 163
-0.267935 0.868479 2.639000 167 143 157
-0.265904 0.866482 2.619000 169 149 152
-0.261945 0.858095 2.580000 172 152 146
-0.258087 0.849906 2.542000 166 150 141
-0.256158 0.847970 2.523000 160 141 140
-0.254330 0.846306 2.505000 163 143 139
-0.252503 0.844578 2.487000 166 143 151
-0.248848 0.836643 2.451000 171 147 163
-0.247122 0.835101 2.434000 177 153 161
-0.247122 0.839361 2.434000 182 157 159
-0.245396 0.837730 2.417000 188 159 165
-0.245396 0.841961 2.417000 186 157 171
-0.238695 0.823085 2.351000 184 152 165
-0.235547 0.816293 2.320000 163 138 160
-0.235547 0.820355 2.320000 143 121 138
-0.232400 0.813400 2.289000 120 112 116
-0.229354 0.806694 2.259000 97 88 120
-0.226410 0.800241 2.230000 113 108 124
-0.224887 0.798736 2.215000 130 117 124
-0.222044 0.792467 2.187000 120 105 124
-0.222044 0.796296 2.187000 111 103 128
-0.220724 0.795368 2.174000 132 117 132
-0.220724 0.799173 2.174000 154 136 145
-0.217983 0.793006 2.147000 165 144 159
-0.216561 0.791569 2.133000 176 154 158
-0.215241 0.790456 2.120000 169 142 157
-0.213922 0.789297 2.107000 161 142 161
-0.211383 0.783576 2.082000 160 140 166
-0.210063 0.782306 2.069000 159 136 162
-0.208845 0.781369 2.057000 155 131 158
-0.206408 0.775811 2.033000 151 130 153
-0.205190 0.774770 2.021000 145 128 148
-0.202855 0.769450 1.998000 140 128 143
-0.200520 0.764050 1.975000 133 119 138
-0.334956 0.969611 3.357000 162 146 154
-0.328571 0.956890 3.293000 165 145 152
-0.325478 0.953592 3.262000 168 145 150
-0.325478 0.959302 3.262000 171 149 152
-0.322384 0.955841 3.231000 169 147 154
-0.319391 0.952570 3.201000 168 152 154
-0.316498 0.949493 3.172000 167 149 155
-0.274391 0.876125 2.750000 166 146 155
-0.273692 0.878697 2.743000 167 145 145
-0.271597 0.876735 2.722000 168 150 148
-0.267406 0.867898 2.680000 169 152 151
-0.265311 0.865752 2.659000 170 153 156
-0.265311 0.870407 2.659000 172 148 162
-0.263316 0.868479 2.639000 174 152 160
-0.259324 0.859865 2.599000 174 154 158
-0.257429 0.858095 2.580000 174 158 155
-0.253637 0.849906 2.542000 164 153 153
-0.249945 0.841921 2.505000 155 147 153
-0.248149 0.840224 2.487000 160 144 152
-0.246353 0.838465 2.469000 166 146 157
-0.244557 0.836643 2.451000 171 142 162
-0.242861 0.835101 2.434000 177 161 167
-0.242861 0.839361 2.434000 184 162 172
-0.242861 0.843622 2.434000 192 168 174
-0.241165 0.841961 2.417000 187 161 175
-0.239468 0.840240 2.400000 183 152 172
-0.231486 0.816293 2.320000 162 126 168
-0.229890 0.814697 2.304000 142 123 143
-0.226896 0.808070 2.274000 124 120 119
-0.223903 0.801337 2.244000 107 107 124
-0.222506 0.800241 2.230000 117 113 130
-0.219613 0.793687 2.201000 128 107 127
-0.219613 0.797540 2.201000 118 95 124
-0.218216 0.796296 2.187000 108 104 127
-0.216918 0.795368 2.174000 138 120 130
-0.216918 0.799173 2.174000 169 141 147
-0.214224 0.793006 2.147000 174 145 164
-0.212828 0.791569 2.133000 179 158 166
-0.211530 0.790456 2.120000 171 132 168
-0.210233 0.789297 2.107000 163 144 170
-0.207739 0.783576 2.082000 161 147 172
-0.204047 0.773231 2.045000 159 144 162
-0.204047 0.776811 2.045000 155 125 152
-0.202850 0.775811 2.033000 151 128 148
-0.201652 0.774770 2.021000 146 128 144
-0.201652 0.778307 2.021000 141 127 141
-0.198160 0.768305 1.986000 136 127 138
-0.329080 0.969611 3.357000 169 149 156
-0.322806 0.956890 3.293000 169 149 153
-0.322806 0.962654 3.293000 172 153 150
-0.319767 0.959302 3.262000 176 163 152
-0.316729 0.955841 3.231000 176 161 154
-0.313788 0.952570 3.201000 177 166 154
-0.310945 0.949493 3.172000 179 164 154
-0.270263 0.878356 2.757000 174 160 157
-0.268891 0.878697 2.743000 176 158 136
-0.266832 0.876735 2.722000 179 158 140
-0.264774 0.874699 2.701000 180 158 145
-0.262715 0.872589 2.680000 181 163 153
-0.260657 0.870407 2.659000 180 161 162
-0.256735 0.861897 2.619000 178 166 163
-0.254775 0.859865 2.599000 185 168 164
-0.250952 0.851443 2.560000 191 176 165
-0.247325 0.843554 2.523000 180 162 166
-0.245560 0.841921 2.505000 169 152 166
-0.243796 0.840224 2.487000 174 153 166
-0.242031 0.838465 2.469000 178 155 163
-0.240267 0.836643 2.451000 182 162 161
-0.238600 0.835101 2.434000 186 187 173
-0.238600 0.839361 2.434000 195 185 186
-0.238600 0.843622 2.434000 204 191 183
-0.236934 0.841961 2.417000 197 175 180
-0.235267 0.840240 2.400000 190 172 178
-0.227425 0.816293 2.320000 165 139 177
-0.224386 0.809393 2.289000 141 128 149
-0.222916 0.808070 2.274000 127 117 122
-0.219975 0.801337 2.244000 114 109 129
-0.218603 0.800241 2.230000 124 113 137
-0.217132 0.798736 2.215000 134 105 131
-0.215760 0.797540 2.201000 122 99 125
-0.214387 0.796296 2.187000 110 98 126
-0.213113 0.795368 2.174000 141 128 128
-0.213113 0.799173 2.174000 173 164 148
-0.210466 0.793006 2.147000 185 173 169
-0.209094 0.791569 2.133000 197 201 174
-0.207819 0.790456 2.120000 184 165 180
-0.206545 0.789297 2.107000 172 157 179
-0.204094 0.783576 2.082000 172 161 179
-0.202820 0.782306 2.069000 173 168 162
-0.200467 0.776811 2.045000 163 142 146
-0.199291 0.775811 2.033000 153 131 143
-0.199291 0.779370 2.033000 147 129 141
-0.195860 0.769450 1.998000 142 127 140
-0.194684 0.768305 1.986000 138 124 139
-0.354205 1.030414 3.679000 169 153 149
-0.326381 0.979142 3.390000 176 154 157
-0.320026 0.965898 3.324000 174 154 155
-0.317042 0.962654 3.293000 177 156 154
-0.314057 0.959302 3.262000 181 164 154
-0.314057 0.965012 3.262000 184 168 154
-0.302600 0.935310 3.143000 187 172 158
-0.299904 0.932430 3.115000 192 178 161
-0.266207 0.880904 2.765000 183 169 169
-0.264089 0.878697 2.743000 186 169 149
-0.262067 0.876735 2.722000 190 165 153
-0.260046 0.874699 2.701000 191 159 158
-0.258024 0.872589 2.680000 193 166 160
-0.254076 0.863860 2.639000 188 168 162
-0.252151 0.861897 2.619000 183 168 162
-0.250225 0.859865 2.599000 196 177 163
-0.248396 0.858095 2.580000 209 174 165
-0.244737 0.849906 2.542000 196 169 168
-0.241175 0.841921 2.505000 184 161 168
-0.239442 0.840224 2.487000 187 163 168
-0.235976 0.832352 2.451000 191 166 167
-0.235976 0.836643 2.451000 193 165 165
-0.234339 0.835101 2.434000 195 188 179
-0.232703 0.833499 2.417000 205 202 193
-0.232703 0.837730 2.417000 216 193 185
-0.231066 0.836039 2.400000 206 176 177
-0.227889 0.828687 2.367000 197 170 177
-0.223364 0.816293 2.320000 169 130 178
-0.221823 0.814697 2.304000 141 124 149
-0.220379 0.813400 2.289000 131 112 121
-0.217491 0.806694 2.259000 121 114 129
-0.214699 0.800241 2.230000 130 125 138
-0.213255 0.798736 2.215000 140 108 129
-0.211907 0.797540 2.201000 126 99 121
-0.210559 0.796296 2.187000 112 105 127
-0.209307 0.795368 2.174000 144 131 133
-0.207959 0.794027 2.160000 177 159 147
-0.206708 0.793006 2.147000 196 183 161
-0.205360 0.791569 2.133000 215 188 167
-0.204108 0.790456 2.120000 198 173 173
-0.202857 0.789297 2.107000 181 170 177
-0.199198 0.778684 2.069000 184 175 181
-0.198043 0.777768 2.057000 188 165 167
-0.196887 0.776811 2.045000 172 146 154
-0.195732 0.775811 2.033000 156 134 146
-0.194577 0.774770 2.021000 149 131 138
-0.191207 0.764829 1.986000 143 129 137
-0.190148 0.764050 1.975000 139 128 137
-0.344078 1.019491 3.640000 176 155 151
-0.340486 1.015154 3.602000 175 156 152
-0.317327 0.969611 3.357000 179 157 158
-0.314208 0.965898 3.324000 178 158 158
-0.311278 0.962654 3.293000 181 162 158
-0.308347 0.959302 3.262000 185 170 156
-0.308347 0.965012 3.262000 189 172 155
-0.305417 0.961497 3.231000 193 177 162
-0.257303 0.871970 2.722000 192 175 163
-0.255318 0.869971 2.701000 193 175 167
-0.253332 0.867898 2.680000 196 170 171
-0.251347 0.865752 2.659000 200 174 166
-0.249457 0.863860 2.639000 191 171 162
-0.247566 0.861897 2.619000 182 161 162
-0.245676 0.859865 2.599000 193 171 163
-0.243880 0.858095 2.580000 205 174 166
-0.240288 0.849906 2.542000 195 171 170
-0.236790 0.841921 2.505000 186 161 170
-0.235089 0.840224 2.487000 192 169 171
-0.231686 0.832352 2.451000 198 181 170
-0.230079 0.830840 2.434000 204 182 170
-0.230079 0.835101 2.434000 210 200 185
-0.228472 0.833499 2.417000 215 205 201
-0.228472 0.837730 2.417000 220 204 187
-0.226865 0.836039 2.400000 217 197 174
-0.222233 0.823085 2.351000 213 204 177
-0.219303 0.816293 2.320000 177 155 180
-0.219303 0.820355 2.320000 141 129 150
-0.216372 0.813400 2.289000 133 113 120
-0.214954 0.812050 2.274000 125 112 129
-0.210795 0.800241 2.230000 130 119 139
-0.209377 0.798736 2.215000 136 104 128
-0.208054 0.797540 2.201000 125 95 118
-0.206731 0.796296 2.187000 114 94 128
-0.205502 0.795368 2.174000 147 130 138
-0.204178 0.794027 2.160000 180 159 146
-0.202950 0.793006 2.147000 199 183 154
-0.201626 0.791569 2.133000 218 195 160
-0.200397 0.790456 2.120000 202 183 166
-0.199168 0.789297 2.107000 185 175 174
-0.196805 0.783576 2.082000 191 179 183
-0.195576 0.782306 2.069000 196 172 172
-0.193308 0.776811 2.045000 175 150 162
-0.192173 0.775811 2.033000 155 130 148
-0.191039 0.774770 2.021000 150 130 135
-0.188865 0.769450 1.998000 145 132 135
-0.186691 0.764050 1.975000 141 125 136
-0.337706 1.019491 3.640000 183 155 150
-0.334181 1.015154 3.602000 181 157 151
-0.330748 1.010966 3.565000 179 159 153
-0.311451 0.963734 3.357000 182 160 157
-0.311451 0.969611 3.357000 182 159 158
-0.308389 0.965898 3.324000 182 161 159
-0.308389 0.971717 3.324000 186 164 160
-0.305513 0.968419 3.293000 190 169 159
-0.305513 0.974183 3.293000 195 176 157
-0.252538 0.876735 2.722000 197 175 164
-0.248641 0.867898 2.680000 202 174 168
-0.246693 0.865752 2.659000 207 176 167
-0.246693 0.870407 2.659000 194 181 166
-0.244837 0.868479 2.639000 181 168 165
-0.241126 0.859865 2.599000 191 173 164
-0.239363 0.858095 2.580000 201 176 167
-0.235838 0.849906 2.542000 194 182 170
-0.234075 0.847970 2.523000 188 171 170
-0.230735 0.840224 2.487000 196 172 170
-0.229065 0.838465 2.469000 205 177 164
-0.225818 0.830840 2.434000 215 185 159
-0.225818 0.835101 2.434000 226 200 176
-0.224241 0.833499 2.417000 225 215 193
-0.222664 0.831838 2.400000 225 206 186
-0.221179 0.830465 2.384000 227 205 180
-0.216633 0.817484 2.335000 230 192 175
-0.215241 0.816293 2.320000 186 160 170
-0.215241 0.820355 2.320000 142 129 143
-0.213757 0.818730 2.304000 135 100 117
-0.212365 0.817407 2.289000 129 115 131
-0.206892 0.800241 2.230000 130 137 145
-0.205500 0.798736 2.215000 132 110 130
-0.204201 0.797540 2.201000 124 86 116
-0.202902 0.796296 2.187000 117 106 126
-0.201696 0.795368 2.174000 150 138 136
-0.200397 0.794027 2.160000 183 156 142
-0.199191 0.793006 2.147000 202 198 149
-0.196686 0.786745 2.120000 222 196 164
-0.195480 0.785609 2.107000 206 190 178
-0.194367 0.784802 2.095000 190 183 177
-0.193161 0.783576 2.082000 197 197 176
-0.191955 0.782306 2.069000 205 170 167
-0.189728 0.776811 2.045000 179 152 159
-0.188615 0.775811 2.033000 154 136 147
-0.188615 0.779370 2.033000 150 130 136
-0.185367 0.769450 1.998000 147 132 136
-0.184254 0.768305 1.986000 142 134 136
-0.331335 1.019491 3.640000 180 154 149
-0.327876 1.015154 3.602000 179 157 151
-0.324508 1.010966 3.565000 179 160 155
-0.317954 0.996663 3.493000 181 160 159
-0.305574 0.963734 3.357000 183 162 158
-0.305574 0.969611 3.357000 184 162 158
-0.302570 0.965898 3.324000 185 163 160
-0.305574 0.981364 3.357000 188 165 163
-0.302570 0.977535 3.324000 191 169 161
-0.298747 0.970929 3.282000 195 173 160
-0.247773 0.876735 2.722000 200 178 162
-0.243950 0.867898 2.680000 201 177 165
-0.242038 0.865752 2.659000 202 177 168
-0.242038 0.870407 2.659000 193 173 171
-0.240218 0.868479 2.639000 185 160 168
-0.236577 0.859865 2.599000 191 168 166
-0.234847 0.858095 2.580000 197 176 168
-0.231388 0.849906 2.542000 193 175 171
-0.228020 0.841921 2.505000 190 170 170
-0.226382 0.840224 2.487000 196 172 169
-0.224743 0.838465 2.469000 203 171 159
-0.223105 0.836643 2.451000 215 189 149
-0.221557 0.835101 2.434000 228 201 167
-0.220010 0.833499 2.417000 228 208 185
-0.217006 0.826292 2.384000 228 202 185
-0.215459 0.824543 2.367000 224 205 186
-0.212546 0.817484 2.335000 219 199 173
-0.211180 0.816293 2.320000 180 163 161
-0.209724 0.814697 2.304000 140 127 137
-0.209724 0.818730 2.304000 137 107 114
-0.208359 0.817407 2.289000 133 111 133
-0.204262 0.805265 2.244000 132 127 152
-0.201623 0.798736 2.215000 130 113 133
-0.200348 0.797540 2.201000 124 97 114
-0.199074 0.796296 2.187000 119 108 124
-0.197891 0.795368 2.174000 150 128 134
-0.196616 0.794027 2.160000 181 132 139
-0.195433 0.793006 2.147000 201 179 145
-0.192975 0.786745 2.120000 221 202 168
-0.191792 0.785609 2.107000 206 192 191
-0.190700 0.784802 2.095000 191 170 180
-0.189516 0.783576 2.082000 194 178 169
-0.187241 0.777768 2.057000 198 162 163
-0.186148 0.776811 2.045000 178 152 157
-0.185056 0.775811 2.033000 159 135 147
-0.183964 0.774770 2.021000 152 132 137
-0.180778 0.764829 1.986000 145 135 137
-0.179776 0.764050 1.975000 139 127 137
-0.324963 1.019491 3.640000 177 154 148
-0.321571 1.015154 3.602000 178 157 150
-0.318267 1.010966 3.565000 180 158 153
-0.311840 0.996663 3.493000 182 159 156
-0.308715 0.992730 3.458000 185 160 155
-0.299698 0.969611 3.357000 186 164 155
-0.299698 0.975487 3.357000 188 164 157
-0.299698 0.981364 3.357000 190 166 159
-0.296752 0.977535 3.324000 193 168 159
-0.292110 0.967971 3.272000 195 173 159
-0.243008 0.876735 2.722000 203 178 159
-0.239258 0.867898 2.680000 200 180 162
-0.237384 0.865752 2.659000 197 175 164
-0.237384 0.870407 2.659000 193 175 166
-0.235598 0.868479 2.639000 189 166 164
-0.232027 0.859865 2.599000 191 166 163
-0.230331 0.858095 2.580000 194 171 165
-0.226938 0.849906 2.542000 193 173 168
-0.223635 0.841921 2.505000 192 169 167
-0.222028 0.840224 2.487000 196 175 167
-0.220421 0.838465 2.469000 201 173 159
-0.218814 0.836643 2.451000 215 199 152
-0.217297 0.835101 2.434000 230 197 163
-0.214261 0.827637 2.400000 231 217 175
-0.212833 0.826292 2.384000 232 200 181
-0.211315 0.824543 2.367000 220 215 188
-0.209887 0.823085 2.351000 209 184 171
-0.208458 0.821571 2.335000 174 169 154
-0.207119 0.820355 2.320000 139 126 129
-0.205691 0.818730 2.304000 138 91 104
-0.204352 0.817407 2.289000 138 118 124
-0.200334 0.805265 2.244000 133 148 144
-0.197745 0.798736 2.215000 129 109 128
-0.196495 0.797540 2.201000 125 83 113
-0.195246 0.796296 2.187000 121 110 123
-0.194085 0.795368 2.174000 150 135 133
-0.192835 0.794027 2.160000 179 149 144
-0.190425 0.787835 2.133000 200 186 154
-0.189264 0.786745 2.120000 221 188 163
-0.188104 0.785609 2.107000 207 209 172
-0.187032 0.784802 2.095000 193 178 170
-0.185872 0.783576 2.082000 192 186 167
-0.183640 0.777768 2.057000 191 165 164
-0.182568 0.776811 2.045000 177 161 162
-0.181497 0.775811 2.033000 164 141 150
-0.180426 0.774770 2.021000 153 129 138
-0.177301 0.764829 1.986000 143 132 138
-0.176319 0.764050 1.975000 135 131 137
-0.322004 1.017534 3.679000 171 151 147
-0.318591 1.013120 3.640000 172 152 147
-0.318591 1.019491 3.640000 174 153 148
-0.315265 1.015154 3.602000 175 155 150
-0.308788 1.000474 3.528000 176 159 151
-0.305725 0.996663 3.493000 179 158 153
-0.302661 0.992730 3.458000 182 156 152
-0.296710 0.979142 3.390000 183 162 152
-0.293821 0.975487 3.357000 185 164 154
-0.293821 0.981364 3.357000 188 165 156
-0.290933 0.977535 3.324000 190 165 157
-0.285507 0.965012 3.262000 194 169 158
-0.263100 0.915589 3.006000 192 166 160
-0.263100 0.920851 3.006000 196 166 156
-0.260825 0.918103 2.980000 200 161 161
-0.256448 0.907827 2.930000 207 188 166
-0.250059 0.890210 2.857000 214 183 175
-0.248046 0.892965 2.834000 229 207 171
-0.245945 0.890322 2.810000 211 191 157
-0.244020 0.888232 2.788000 194 154 154
-0.242007 0.885744 2.765000 195 172 152
-0.240081 0.883499 2.743000 196 180 156
-0.234567 0.867898 2.680000 194 176 160
-0.232729 0.865752 2.659000 193 170 160
-0.230979 0.863860 2.639000 188 169 161
-0.227477 0.855316 2.599000 184 166 161
-0.227477 0.859865 2.599000 187 168 161
-0.225815 0.858095 2.580000 191 170 163
-0.222489 0.849906 2.542000 189 166 165
-0.220826 0.847970 2.523000 188 158 165
-0.219250 0.846306 2.505000 190 159 165
-0.216099 0.838465 2.469000 193 149 160
-0.213036 0.830840 2.434000 203 175 155
-0.211548 0.829268 2.417000 212 174 160
-0.210060 0.827637 2.400000 215 182 166
-0.207172 0.820400 2.367000 217 167 178
-0.207172 0.824543 2.367000 207 180 190
-0.205771 0.823085 2.351000 198 153 168
-0.204371 0.821571 2.335000 168 151 147
-0.203058 0.820355 2.320000 138 118 120
-0.201658 0.818730 2.304000 137 104 94
-0.200345 0.817407 2.289000 137 124 115
-0.196406 0.805265 2.244000 128 130 137
-0.195181 0.804145 2.230000 120 93 124
-0.192643 0.797540 2.201000 121 95 112
-0.191417 0.796296 2.187000 122 114 122
-0.190279 0.795368 2.174000 149 132 133
-0.189054 0.794027 2.160000 177 144 148
-0.186691 0.787835 2.133000 191 161 164
-0.186691 0.791569 2.133000 204 157 159
-0.185553 0.790456 2.120000 193 171 154
-0.182227 0.779932 2.082000 182 148 160
-0.182227 0.783576 2.082000 183 161 166
-0.180039 0.777768 2.057000 184 153 166
-0.178989 0.776811 2.045000 176 152 167
-0.177938 0.775811 2.033000 167 140 153
-0.174875 0.765952 1.998000 155 134 140
-0.173825 0.764829 1.986000 143 135 139
-0.172862 0.764050 1.975000 137 127 138
-0.318910 1.028321 3.718000 169 149 143
-0.315565 1.023975 3.679000 170 151 145
-0.312219 1.019491 3.640000 171 150 146
-0.308960 1.015154 3.602000 172 152 148
-0.302613 1.000474 3.528000 173 153 150
-0.299610 0.996663 3.493000 176 158 152
-0.299610 1.002778 3.493000 179 156 152
-0.290776 0.979142 3.390000 181 166 152
-0.287945 0.975487 3.357000 183 162 153
-0.287945 0.981364 3.357000 185 165 155
-0.282456 0.968419 3.293000 188 163 157
-0.277138 0.955841 3.231000 192 166 158
-0.274564 0.952570 3.201000 197 168 160
-0.269589 0.940812 3.143000 196 174 162
-0.267188 0.937883 3.115000 195 173 161
-0.260154 0.923813 3.033000 192 164 155
-0.257838 0.920851 3.006000 192 161 150
-0.255608 0.918103 2.980000 192 165 155
-0.251319 0.907827 2.930000 200 206 160
-0.245058 0.890210 2.857000 208 186 166
-0.243085 0.888004 2.834000 211 220 172
-0.243085 0.892965 2.834000 215 195 166
-0.241026 0.890322 2.810000 203 204 160
-0.237167 0.880904 2.765000 191 171 155
-0.235280 0.878697 2.743000 190 182 150
-0.233478 0.876735 2.722000 189 171 156
-0.229876 0.867898 2.680000 189 175 161
-0.228074 0.865752 2.659000 190 167 158
-0.226359 0.863860 2.639000 184 165 154
-0.224644 0.861897 2.619000 179 163 156
-0.221298 0.853579 2.580000 183 171 158
-0.221298 0.858095 2.580000 188 168 160
-0.219583 0.855925 2.560000 186 164 162
-0.216409 0.847970 2.523000 184 160 159
-0.214865 0.846306 2.505000 185 157 156
-0.211777 0.838465 2.469000 186 156 158
-0.208775 0.830840 2.434000 190 180 161
-0.207317 0.829268 2.417000 195 170 164
-0.205859 0.827637 2.400000 199 172 167
-0.204486 0.826292 2.384000 203 176 174
-0.203028 0.824543 2.367000 195 188 180
-0.201656 0.823085 2.351000 187 159 164
-0.200284 0.821571 2.335000 162 166 147
-0.200284 0.825659 2.335000 138 119 119
-0.197625 0.818730 2.304000 137 83 92
-0.196338 0.817407 2.289000 136 120 110
-0.191277 0.800241 2.230000 124 155 129
-0.191277 0.804145 2.230000 112 109 124
-0.188790 0.797540 2.201000 117 93 118
-0.187589 0.796296 2.187000 123 115 126
-0.186474 0.795368 2.174000 149 135 134
-0.182957 0.784102 2.133000 176 149 150
-0.182957 0.787835 2.133000 182 160 167
-0.182957 0.791569 2.133000 188 164 163
-0.181842 0.790456 2.120000 180 172 158
-0.179698 0.784802 2.095000 172 153 163
-0.178583 0.783576 2.082000 175 160 168
-0.177467 0.782306 2.069000 178 155 165
-0.175409 0.776811 2.045000 174 155 162
-0.173350 0.771232 2.021000 171 141 149
-0.170348 0.761352 1.986000 157 132 137
-0.170348 0.764829 1.986000 143 131 138
-0.169405 0.764050 1.975000 139 131 139
-0.309124 1.017534 3.679000 166 149 140
-0.309124 1.023975 3.679000 165 148 144
-0.305847 1.019491 3.640000 164 147 145
-0.299546 1.004726 3.565000 167 146 146
-0.296437 1.000474 3.528000 170 143 148
-0.293496 0.996663 3.493000 173 148 151
-0.290555 0.992730 3.458000 176 147 151
-0.282069 0.969611 3.357000 178 154 152
-0.282069 0.975487 3.357000 180 153 153
-0.279296 0.971717 3.324000 182 158 155
-0.276691 0.968419 3.293000 184 157 157
-0.271482 0.955841 3.231000 186 160 159
-0.268961 0.952570 3.201000 189 161 160
-0.264087 0.940812 3.143000 187 161 161
-0.261735 0.937883 3.115000 185 154 159
-0.257029 0.926377 3.059000 181 159 157
-0.254845 0.923813 3.033000 177 142 151
-0.254845 0.929122 3.033000 178 145 145
-0.252576 0.926113 3.006000 179 133 150
-0.248291 0.915573 2.955000 185 156 155
-0.244090 0.905166 2.905000 192 136 157
-0.240057 0.895211 2.857000 195 165 159
-0.240057 0.900212 2.857000 199 150 161
-0.236107 0.890322 2.810000 191 165 164
-0.234259 0.888232 2.788000 182 147 156
-0.232326 0.885744 2.765000 184 158 149
-0.228713 0.876735 2.722000 186 149 156
-0.225184 0.867898 2.680000 187 161 163
-0.223420 0.865752 2.659000 188 161 155
-0.221739 0.863860 2.639000 185 159 148
-0.220059 0.861897 2.619000 182 153 151
-0.218378 0.859865 2.599000 184 164 155
-0.216782 0.858095 2.580000 187 170 157
-0.213589 0.849906 2.542000 185 165 159
-0.211993 0.847970 2.523000 183 162 153
-0.208968 0.840224 2.487000 180 155 147
-0.207455 0.838465 2.469000 178 141 157
-0.204514 0.830840 2.434000 183 156 167
-0.203086 0.829268 2.417000 188 156 168
-0.201658 0.827637 2.400000 194 165 169
-0.200313 0.826292 2.384000 201 177 170
-0.198885 0.824543 2.367000 189 166 171
-0.197540 0.823085 2.351000 178 132 159
-0.196196 0.821571 2.335000 156 137 148
-0.194936 0.820355 2.320000 135 112 119
-0.194936 0.824416 2.320000 137 100 90
-0.192331 0.817407 2.289000 138 120 106
-0.188550 0.805265 2.244000 125 131 122
-0.187373 0.804145 2.230000 111 98 123
-0.186113 0.802613 2.215000 120 99 125
-0.183760 0.796296 2.187000 128 118 130
-0.182668 0.795368 2.174000 153 138 135
-0.180400 0.789248 2.147000 178 157 153
-0.179223 0.787835 2.133000 185 164 171
-0.179223 0.791569 2.133000 193 167 167
-0.178131 0.790456 2.120000 183 160 163
-0.176030 0.784802 2.095000 174 135 166
-0.173846 0.778684 2.069000 175 149 170
-0.172837 0.777768 2.057000 177 153 163
-0.170821 0.772252 2.033000 174 150 157
-0.169813 0.771232 2.021000 171 139 146
-0.166872 0.761352 1.986000 156 133 135
-0.165947 0.760592 1.975000 142 126 138
-0.165023 0.759794 1.964000 136 123 141
-0.296349 1.008848 3.602000 158 145 146
-0.293305 1.004726 3.565000 162 145 148
-0.290261 1.000474 3.528000 167 146 149
-0.287381 0.996663 3.493000 170 145 150
-0.284502 0.992730 3.458000 173 148 151
-0.278907 0.979142 3.390000 175 151 153
-0.276192 0.975487 3.357000 177 153 153
-0.273477 0.971717 3.324000 178 157 154
-0.270927 0.968419 3.293000 180 159 157
-0.265826 0.955841 3.231000 180 159 159
-0.260972 0.943940 3.172000 181 159 160
-0.258586 0.940812 3.143000 178 156 161
-0.256282 0.937883 3.115000 176 156 160
-0.253978 0.934856 3.087000 169 155 158
-0.251675 0.931732 3.059000 162 151 156
-0.249536 0.929122 3.033000 164 145 153
-0.247314 0.926113 3.006000 167 146 157
-0.245175 0.923319 2.980000 171 152 161
-0.239005 0.905166 2.905000 176 156 166
-0.233163 0.888004 2.834000 180 154 170
-0.233163 0.892965 2.834000 184 161 169
-0.231189 0.890322 2.810000 179 160 168
-0.229379 0.888232 2.788000 174 154 163
-0.227486 0.885744 2.765000 179 155 159
-0.225676 0.883499 2.743000 184 158 163
-0.222221 0.874699 2.701000 185 162 167
-0.218765 0.865752 2.659000 187 162 160
-0.217120 0.863860 2.639000 186 158 153
-0.213829 0.855316 2.599000 185 159 154
-0.212266 0.853579 2.580000 186 165 156
-0.210620 0.851443 2.560000 187 167 159
-0.209139 0.849906 2.542000 184 167 162
-0.207576 0.847970 2.523000 182 164 163
-0.204614 0.840224 2.487000 176 162 164
-0.203133 0.838465 2.469000 170 152 163
-0.201652 0.836643 2.451000 175 147 163
-0.200254 0.835101 2.434000 181 158 169
-0.197456 0.827637 2.400000 190 155 176
-0.196140 0.826292 2.384000 200 175 174
-0.196140 0.830465 2.384000 184 169 172
-0.194741 0.828687 2.367000 169 148 158
-0.192109 0.821571 2.335000 151 141 145
-0.190875 0.820355 2.320000 133 110 118
-0.189558 0.818730 2.304000 137 85 91
-0.185856 0.806694 2.259000 141 124 114
-0.184622 0.805265 2.244000 126 152 137
-0.183470 0.804145 2.230000 111 107 130
-0.181084 0.797540 2.201000 122 88 122
-0.179932 0.796296 2.187000 134 117 129
-0.178863 0.795368 2.174000 157 142 136
-0.175489 0.784102 2.133000 181 157 154
-0.175489 0.787835 2.133000 189 172 172
-0.175489 0.791569 2.133000 198 171 167
-0.174420 0.790456 2.120000 187 168 163
-0.172363 0.784802 2.095000 176 154 165
-0.170224 0.778684 2.069000 176 150 168
-0.169237 0.777768 2.057000 177 154 164
-0.167262 0.772252 2.033000 174 153 160
-0.165287 0.766653 2.009000 171 141 147
-0.163395 0.761352 1.986000 156 136 134
-0.162490 0.760592 1.975000 141 128 137
-0.161585 0.759794 1.964000 133 127 141
-0.287065 0.998485 3.565000 162 146 148
-0.287065 1.004726 3.565000 166 148 151
-0.281267 0.990549 3.493000 169 151 150
-0.281267 0.996663 3.493000 171 150 150
-0.278449 0.992730 3.458000 173 152 152
-0.272973 0.979142 3.390000 175 153 154
-0.270316 0.975487 3.357000 178 154 154
-0.265162 0.962654 3.293000 180 157 154
-0.262666 0.959302 3.262000 183 163 157
-0.260170 0.955841 3.231000 184 162 160
-0.255419 0.943940 3.172000 184 163 161
-0.253084 0.940812 3.143000 182 160 162
-0.250829 0.937883 3.115000 180 161 161
-0.246320 0.926377 3.059000 178 160 160
-0.244226 0.923813 3.033000 176 163 161
-0.244226 0.929122 3.033000 178 158 162
-0.242052 0.926113 3.006000 180 154 165
-0.237946 0.915573 2.955000 190 169 168
-0.235933 0.912956 2.930000 201 184 175
-0.231987 0.902731 2.881000 195 177 182
-0.228202 0.892965 2.834000 189 181 177
-0.226270 0.890322 2.810000 184 166 173
-0.222646 0.880904 2.765000 178 156 171
-0.220875 0.878697 2.743000 183 161 169
-0.219184 0.876735 2.722000 188 169 170
-0.217493 0.874699 2.701000 188 166 171
-0.214111 0.865752 2.659000 188 168 165
-0.212500 0.863860 2.639000 187 163 159
-0.209279 0.855316 2.599000 186 162 158
-0.207749 0.853579 2.580000 188 167 157
-0.206139 0.851443 2.560000 189 169 161
-0.204690 0.849906 2.542000 187 167 165
-0.203160 0.847970 2.523000 185 166 173
-0.201710 0.846306 2.505000 184 168 181
-0.200261 0.844578 2.487000 184 161 170
-0.197362 0.836643 2.451000 188 163 159
-0.195993 0.835101 2.434000 192 177 171
-0.194624 0.833499 2.417000 201 182 184
-0.191967 0.826292 2.384000 211 202 178
-0.191967 0.830465 2.384000 191 179 173
-0.190598 0.828687 2.367000 172 150 158
-0.189310 0.827201 2.351000 152 137 143
-0.186813 0.820355 2.320000 132 105 118
-0.185525 0.818730 2.304000 137 105 93
-0.181902 0.806694 2.259000 143 140 123
-0.180694 0.805265 2.244000 126 130 153
-0.179566 0.804145 2.230000 110 93 136
-0.178359 0.802613 2.215000 123 100 120
-0.176104 0.796296 2.187000 136 121 128
-0.175057 0.795368 2.174000 158 139 137
-0.172883 0.789248 2.147000 181 158 155
-0.171756 0.787835 2.133000 191 176 174
-0.171756 0.791569 2.133000 201 179 168
-0.171756 0.795303 2.133000 190 172 163
-0.168696 0.784802 2.095000 179 166 165
-0.166602 0.778684 2.069000 178 159 167
-0.165636 0.777768 2.057000 177 161 165
-0.163703 0.772252 2.033000 173 153 163
-0.160885 0.762455 1.998000 170 136 148
-0.159919 0.761352 1.986000 156 133 133
-0.159033 0.760592 1.975000 141 125 137
-0.158147 0.759794 1.964000 136 122 141
-0.280824 1.004726 3.565000 169 151 150
-0.275152 0.990549 3.493000 172 152 150
-0.275152 0.996663 3.493000 173 155 150
-0.272395 0.992730 3.458000 174 154 152
-0.269638 0.988674 3.423000 176 156 154
-0.264439 0.975487 3.357000 179 156 156
-0.259398 0.962654 3.293000 183 157 157
-0.256956 0.959302 3.262000 187 163 163
-0.254514 0.955841 3.231000 187 165 168
-0.252151 0.952570 3.201000 188 164 165
-0.247582 0.940812 3.143000 186 162 162
-0.245376 0.937883 3.115000 184 163 162
-0.240965 0.926377 3.059000 187 163 162
-0.238917 0.923813 3.033000 190 167 161
-0.236790 0.920851 3.006000 192 172 160
-0.236790 0.926113 3.006000 194 172 165
-0.230803 0.907827 2.930000 210 187 169
-0.228834 0.905166 2.905000 226 192 178
-0.226944 0.902731 2.881000 210 191 187
-0.225053 0.900212 2.857000 195 184 178
-0.221351 0.890322 2.810000 189 169 169
-0.217806 0.880904 2.765000 183 166 167
-0.216073 0.878697 2.743000 187 167 165
-0.214419 0.876735 2.722000 192 168 165
-0.211110 0.867898 2.680000 191 167 165
-0.207881 0.859240 2.639000 190 166 161
-0.206305 0.857313 2.619000 189 164 157
-0.204730 0.855316 2.599000 188 165 156
-0.203233 0.853579 2.580000 190 174 155
-0.201658 0.851443 2.560000 192 170 160
-0.198743 0.843554 2.523000 190 167 165
-0.198743 0.847970 2.523000 189 173 172
-0.197325 0.846306 2.505000 193 186 179
-0.195907 0.844578 2.487000 198 172 174
-0.194489 0.842787 2.469000 200 169 170
-0.193071 0.840933 2.451000 203 184 175
-0.190393 0.833499 2.417000 212 196 180
-0.187794 0.826292 2.384000 222 197 178
-0.187794 0.830465 2.384000 199 195 177
-0.186455 0.828687 2.367000 176 163 158
-0.185194 0.827201 2.351000 153 152 139
-0.181492 0.814697 2.304000 131 109 114
-0.180310 0.813400 2.289000 138 90 89
-0.177947 0.806694 2.259000 145 127 116
-0.176766 0.805265 2.244000 127 138 144
-0.175663 0.804145 2.230000 109 106 133
-0.173378 0.797540 2.201000 124 98 123
-0.172275 0.796296 2.187000 139 122 134
-0.170149 0.790246 2.160000 160 136 145
-0.168022 0.784102 2.133000 181 161 157
-0.168022 0.787835 2.133000 192 196 170
-0.168022 0.791569 2.133000 204 183 165
-0.166998 0.790456 2.120000 193 176 161
-0.165974 0.789297 2.107000 182 166 163
-0.162980 0.778684 2.069000 179 162 166
-0.162035 0.777768 2.057000 177 162 163
-0.160144 0.772252 2.033000 173 164 161
-0.157781 0.764363 2.003000 170 143 146
-0.157387 0.765952 1.998000 156 136 131
-0.155576 0.760592 1.975000 142 124 136
-0.153764 0.755152 1.952000 139 119 141
-0.271734 0.994298 3.528000 173 151 150
-0.269038 0.990549 3.493000 177 153 150
-0.269038 0.996663 3.493000 176 154 150
-0.266342 0.992730 3.458000 176 155 152
-0.263646 0.988674 3.423000 178 156 155
-0.258563 0.975487 3.357000 180 157 158
-0.253634 0.962654 3.293000 184 160 161
-0.251246 0.959302 3.262000 188 167 169
-0.248858 0.955841 3.231000 190 169 177
-0.248858 0.961497 3.231000 192 167 169
-0.246548 0.958173 3.201000 189 167 162
-0.239924 0.937883 3.115000 186 166 163
-0.233608 0.918503 3.033000 188 168 164
-0.233608 0.923813 3.033000 191 170 161
-0.231528 0.920851 3.006000 192 173 159
-0.231528 0.926113 3.006000 194 178 165
-0.225675 0.907827 2.930000 208 188 171
-0.223749 0.905166 2.905000 223 206 182
-0.221900 0.902731 2.881000 215 196 193
-0.218280 0.892965 2.834000 208 196 179
-0.216432 0.890322 2.810000 197 185 165
-0.214737 0.888232 2.788000 187 173 163
-0.212966 0.885744 2.765000 192 169 162
-0.209654 0.876735 2.722000 196 170 160
-0.206419 0.867898 2.680000 193 168 159
-0.203261 0.859240 2.639000 189 165 157
-0.201721 0.857313 2.619000 188 164 156
-0.200180 0.855316 2.599000 188 162 155
-0.198717 0.853579 2.580000 189 168 154
-0.197176 0.851443 2.560000 191 173 160
-0.195790 0.849906 2.542000 191 169 166
-0.194327 0.847970 2.523000 191 173 171
-0.192940 0.846306 2.505000 195 176 177
-0.191554 0.844578 2.487000 198 173 179
-0.190167 0.842787 2.469000 205 181 181
-0.188781 0.840933 2.451000 213 194 179
-0.186162 0.833499 2.417000 217 196 177
-0.184853 0.831838 2.400000 221 198 179
-0.183621 0.830465 2.384000 197 185 181
-0.182311 0.828687 2.367000 174 157 158
-0.181079 0.827201 2.351000 150 136 135
-0.178691 0.820355 2.320000 127 90 110
-0.177459 0.818730 2.304000 139 101 86
-0.173993 0.806694 2.259000 152 140 110
-0.172837 0.805265 2.244000 129 128 135
-0.171759 0.804145 2.230000 107 97 131
-0.169526 0.797540 2.201000 124 107 127
-0.167446 0.791562 2.174000 141 134 140
-0.166368 0.790246 2.160000 162 141 154
-0.164288 0.784102 2.133000 183 155 160
-0.164288 0.787835 2.133000 194 182 166
-0.164288 0.791569 2.133000 206 183 162
-0.163287 0.790456 2.120000 194 173 159
-0.162285 0.789297 2.107000 182 160 162
-0.160360 0.783576 2.082000 180 161 165
-0.158434 0.777768 2.057000 178 162 162
-0.156586 0.772252 2.033000 174 160 159
-0.154737 0.766653 2.009000 170 137 144
-0.153890 0.765952 1.998000 156 131 129
-0.152119 0.760592 1.975000 141 118 135
-0.151271 0.759794 1.964000 139 118 142
-0.265558 0.994298 3.528000 177 151 149
-0.262923 0.990549 3.493000 182 153 149
-0.262923 0.996663 3.493000 180 155 150
-0.260289 0.992730 3.458000 179 155 152
-0.257654 0.988674 3.423000 180 157 154
-0.252686 0.975487 3.357000 182 158 156
-0.247869 0.962654 3.293000 186 161 157
-0.245536 0.959302 3.262000 190 168 162
-0.243202 0.955841 3.231000 193 178 166
-0.240944 0.952570 3.201000 197 172 162
-0.240944 0.958173 3.201000 192 174 158
-0.232363 0.929453 3.087000 188 169 160
-0.228298 0.918503 3.033000 190 174 162
-0.228298 0.923813 3.033000 192 170 161
-0.226266 0.920851 3.006000 193 174 160
-0.226266 0.926113 3.006000 195 177 160
-0.220545 0.907827 2.930000 207 183 159
-0.218664 0.905166 2.905000 220 195 168
-0.216857 0.902731 2.881000 220 194 178
-0.215051 0.900212 2.857000 221 194 170
-0.211513 0.890322 2.810000 206 204 162
-0.209857 0.888232 2.788000 192 180 160
-0.208126 0.885744 2.765000 196 168 159
-0.204889 0.876735 2.722000 201 170 157
-0.201728 0.867898 2.680000 195 172 155
-0.198641 0.859240 2.639000 189 165 155
-0.197136 0.857313 2.619000 188 165 156
-0.194200 0.849063 2.580000 188 163 155
-0.194200 0.853579 2.580000 189 163 155
-0.192695 0.851443 2.560000 190 166 159
-0.191340 0.849906 2.542000 192 165 163
-0.189910 0.847970 2.523000 194 168 168
-0.188555 0.846306 2.505000 196 174 174
-0.187200 0.844578 2.487000 199 176 174
-0.185845 0.842787 2.469000 211 191 175
-0.184490 0.840933 2.451000 223 195 181
-0.181931 0.833499 2.417000 222 196 186
-0.180652 0.831838 2.400000 221 196 181
-0.179447 0.830465 2.384000 196 191 177
-0.178168 0.828687 2.367000 172 160 156
-0.176963 0.827201 2.351000 147 148 135
-0.173426 0.814697 2.304000 123 103 109
-0.172296 0.813400 2.289000 141 86 82
-0.170038 0.806694 2.259000 159 125 111
-0.167855 0.800241 2.230000 132 139 139
-0.166726 0.798736 2.215000 106 109 133
-0.164619 0.792467 2.187000 124 101 128
-0.163640 0.791562 2.174000 143 127 138
-0.161608 0.785490 2.147000 164 141 149
-0.160554 0.784102 2.133000 186 165 158
-0.160554 0.787835 2.133000 197 195 167
-0.160554 0.791569 2.133000 208 183 163
-0.159576 0.790456 2.120000 195 175 158
-0.158597 0.789297 2.107000 183 164 159
-0.156715 0.783576 2.082000 181 163 160
-0.154833 0.777768 2.057000 179 162 155
-0.153930 0.776811 2.045000 175 177 151
-0.152124 0.771232 2.021000 171 147 138
-0.150392 0.765952 1.998000 156 133 126
-0.149489 0.764829 1.986000 141 120 132
-0.148661 0.764050 1.975000 139 115 139
-0.259382 0.994298 3.528000 175 151 148
-0.256809 0.990549 3.493000 179 154 149
-0.256809 0.996663 3.493000 178 155 150
-0.254236 0.992730 3.458000 178 156 152
-0.249236 0.979142 3.390000 179 156 154
-0.246810 0.975487 3.357000 181 159 154
-0.242105 0.962654 3.293000 185 162 154
-0.239826 0.959302 3.262000 189 168 155
-0.237546 0.955841 3.231000 190 171 156
-0.235341 0.952570 3.201000 192 169 155
-0.233209 0.949493 3.172000 189 166 154
-0.229018 0.937883 3.115000 185 162 157
-0.222989 0.918503 3.033000 187 166 160
-0.222989 0.923813 3.033000 189 165 161
-0.221004 0.920851 3.006000 190 169 162
-0.221004 0.926113 3.006000 191 175 155
-0.215417 0.907827 2.930000 204 188 148
-0.213579 0.905166 2.905000 218 199 155
-0.213579 0.910251 2.905000 214 196 163
-0.208359 0.892965 2.834000 210 185 161
-0.206594 0.890322 2.810000 201 186 159
-0.203286 0.880904 2.765000 192 176 158
-0.201668 0.878697 2.743000 196 171 157
-0.198580 0.869971 2.701000 200 172 154
-0.197036 0.867898 2.680000 192 169 152
-0.194022 0.859240 2.639000 185 158 154
-0.192552 0.857313 2.619000 184 162 156
-0.191081 0.855316 2.599000 184 165 156
-0.189684 0.853579 2.580000 186 164 157
-0.188214 0.851443 2.560000 188 166 159
-0.186890 0.849906 2.542000 190 165 161
-0.185494 0.847970 2.523000 193 162 166
-0.184170 0.846306 2.505000 197 168 171
-0.182847 0.844578 2.487000 201 167 170
-0.181523 0.842787 2.469000 209 188 170
-0.180200 0.840933 2.451000 217 199 183
-0.178950 0.839361 2.434000 217 203 196
-0.176450 0.831838 2.400000 217 202 184
-0.175274 0.830465 2.384000 194 183 173
-0.172848 0.823085 2.351000 171 145 154
-0.171672 0.821571 2.335000 144 128 136
-0.169392 0.814697 2.304000 116 88 107
-0.168290 0.813400 2.289000 137 99 79
-0.166084 0.806694 2.259000 157 135 111
-0.163952 0.800241 2.230000 130 127 144
-0.162849 0.798736 2.215000 103 100 136
-0.160790 0.792467 2.187000 124 108 129
-0.159835 0.791562 2.174000 145 135 136
-0.157850 0.785490 2.147000 164 149 144
-0.156820 0.784102 2.133000 184 170 156
-0.156820 0.787835 2.133000 195 183 169
-0.155865 0.786745 2.120000 207 179 163
-0.155865 0.790456 2.120000 195 170 158
-0.154909 0.789297 2.107000 183 160 157
-0.154027 0.788469 2.095000 175 156 156
-0.152115 0.782306 2.069000 167 146 149
-0.150350 0.776811 2.045000 167 159 143
-0.148586 0.771232 2.021000 168 141 133
-0.146895 0.765952 1.998000 153 132 123
-0.145204 0.760592 1.975000 139 117 129
-0.145204 0.764050 1.975000 136 116 136
-0.253206 0.994298 3.528000 174 152 144
-0.248183 0.980623 3.458000 177 153 146
-0.248183 0.986677 3.458000 177 155 147
-0.245671 0.982682 3.423000 177 155 149
-0.243302 0.979142 3.390000 178 155 152
-0.240934 0.975487 3.357000 180 157 151
-0.236340 0.962654 3.293000 184 163 150
-0.234116 0.959302 3.262000 188 166 153
-0.231891 0.955841 3.231000 188 172 156
-0.231891 0.961497 3.231000 188 165 155
-0.227656 0.949493 3.172000 185 162 154
-0.223565 0.937883 3.115000 183 162 155
-0.217680 0.918503 3.033000 185 163 157
-0.217680 0.923813 3.033000 187 161 158
-0.215742 0.920851 3.006000 187 165 159
-0.215742 0.926113 3.006000 187 171 155
-0.210288 0.907827 2.930000 201 198 152
-0.208493 0.905166 2.905000 216 192 157
-0.206771 0.902731 2.881000 208 209 163
-0.203398 0.892965 2.834000 200 186 159
-0.201675 0.890322 2.810000 196 181 155
-0.200096 0.888232 2.788000 193 173 155
-0.198446 0.885744 2.765000 196 171 155
-0.195359 0.876735 2.722000 199 169 152
-0.192345 0.867898 2.680000 190 174 149
-0.190838 0.865752 2.659000 181 160 151
-0.187967 0.857313 2.619000 181 160 153
-0.186532 0.855316 2.599000 181 163 155
-0.185168 0.853579 2.580000 183 165 157
-0.183733 0.851443 2.560000 186 163 158
-0.182441 0.849906 2.542000 189 167 160
-0.181077 0.847970 2.523000 192 166 165
-0.179785 0.846306 2.505000 197 171 170
-0.178493 0.844578 2.487000 203 174 169
-0.177201 0.842787 2.469000 207 196 168
-0.177201 0.847109 2.469000 211 194 174
-0.174690 0.839361 2.434000 212 215 180
-0.172249 0.831838 2.400000 213 196 172
-0.169881 0.824543 2.367000 192 194 164
-0.168733 0.823085 2.351000 171 155 151
-0.166508 0.816293 2.320000 140 133 138
-0.165359 0.814697 2.304000 110 98 111
-0.165359 0.818730 2.304000 133 87 85
-0.163206 0.812050 2.274000 156 122 110
-0.160048 0.800241 2.230000 128 134 136
-0.158972 0.798736 2.215000 100 108 130
-0.156962 0.792467 2.187000 123 97 124
-0.155024 0.786465 2.160000 147 128 129
-0.154091 0.785490 2.147000 164 151 133
-0.153087 0.784102 2.133000 182 162 145
-0.153087 0.787835 2.133000 194 189 156
-0.152154 0.786745 2.120000 207 177 154
-0.152154 0.790456 2.120000 195 169 153
-0.151221 0.789297 2.107000 183 158 153
-0.150359 0.788469 2.095000 169 157 153
-0.148493 0.782306 2.069000 156 147 146
-0.146771 0.776811 2.045000 160 172 139
-0.145048 0.771232 2.021000 165 145 134
-0.143398 0.765952 1.998000 151 138 129
-0.141747 0.760592 1.975000 137 120 132
-0.141747 0.764050 1.975000 133 113 135
-0.237368 0.973208 3.390000 174 157 147
-0.235057 0.969611 3.357000 175 153 150
-0.232746 0.965898 3.324000 176 151 148
-0.230576 0.962654 3.293000 180 157 146
-0.228405 0.959302 3.262000 183 163 151
-0.226235 0.955841 3.231000 184 163 156
-0.226235 0.961497 3.231000 185 158 155
-0.222103 0.949493 3.172000 182 161 154
-0.212371 0.913194 3.033000 180 163 154
-0.212371 0.918503 3.033000 181 160 155
-0.210480 0.915589 3.006000 183 154 156
-0.210480 0.920851 3.006000 185 155 157
-0.208660 0.918103 2.980000 187 147 156
-0.205159 0.907827 2.930000 196 167 156
-0.205159 0.912956 2.930000 205 163 159
-0.201728 0.902731 2.881000 202 181 163
-0.198437 0.892965 2.834000 198 170 157
-0.196756 0.890322 2.810000 195 175 152
-0.195216 0.888232 2.788000 191 165 152
-0.193605 0.885744 2.765000 190 164 153
-0.190594 0.876735 2.722000 189 160 150
-0.187654 0.867898 2.680000 184 163 147
-0.184783 0.859240 2.639000 179 150 149
-0.183382 0.857313 2.619000 179 159 151
-0.181982 0.855316 2.599000 178 162 154
-0.180652 0.853579 2.580000 180 160 157
-0.179251 0.851443 2.560000 182 155 158
-0.177991 0.849906 2.542000 188 162 159
-0.176660 0.847970 2.523000 195 166 164
-0.175400 0.846306 2.505000 199 176 169
-0.175400 0.850691 2.505000 203 164 167
-0.172879 0.842787 2.469000 203 180 166
-0.172879 0.847109 2.469000 203 166 165
-0.170429 0.839361 2.434000 206 188 165
-0.168048 0.831838 2.400000 209 173 160
-0.165737 0.824543 2.367000 189 177 156
-0.164617 0.823085 2.351000 169 151 148
-0.163497 0.821571 2.335000 136 123 140
-0.162446 0.820355 2.320000 104 85 115
-0.161326 0.818730 2.304000 129 97 91
-0.159225 0.812050 2.274000 155 133 110
-0.157125 0.805265 2.244000 130 124 129
-0.153134 0.788639 2.187000 105 101 124
-0.152223 0.787757 2.174000 124 109 120
-0.151243 0.786465 2.160000 144 131 121
-0.150333 0.785490 2.147000 164 140 123
-0.149353 0.784102 2.133000 184 138 133
-0.149353 0.787835 2.133000 191 168 144
-0.149353 0.791569 2.133000 198 174 146
-0.148442 0.790456 2.120000 184 167 148
