ply
format ascii 1.0
element vertex 1195
property float x
property float y
property float z
property uchar red
property uchar green
property uchar blue
end_header
-0.532917 0.801379 2.289000 233 205 185
-0.529425 0.800108 2.274000 224 217 186
-0.525932 0.798785 2.259000 215 188 181
-0.522440 0.797409 2.244000 205 178 176
-0.515689 0.790981 2.215000 195 171 177
-0.512429 0.789834 2.201000 194 176 178
-0.506143 0.783951 2.174000 194 169 178
-0.502884 0.782684 2.160000 199 176 179
-0.499857 0.781731 2.147000 205 167 176
-0.496598 0.780368 2.133000 199 168 173
-0.493571 0.779323 2.120000 193 173 169
-0.493571 0.783034 2.120000 189 187 166
-0.490544 0.781920 2.107000 186 159 166
-0.484724 0.776287 2.082000 186 161 167
-0.478904 0.770567 2.057000 186 154 165
-0.473316 0.765135 2.033000 179 156 163
-0.470522 0.764156 2.021000 173 145 161
-0.465167 0.758957 1.998000 170 140 160
-0.462374 0.757876 1.986000 168 141 158
-0.459813 0.757135 1.975000 165 143 157
-0.459813 0.760592 1.975000 162 133 154
-0.457252 0.759794 1.964000 159 127 150
-0.449569 0.750408 1.931000 156 128 150
-0.671247 0.889911 2.905000 213 185 189
-0.665701 0.887602 2.881000 212 178 189
-0.660156 0.885209 2.857000 218 191 189
-0.654841 0.883043 2.834000 223 192 187
-0.644212 0.873591 2.788000 217 194 185
-0.644212 0.878471 2.788000 211 180 185
-0.638898 0.876064 2.765000 212 184 185
-0.633814 0.873895 2.743000 212 181 176
-0.633814 0.878697 2.743000 210 182 168
-0.619257 0.863207 2.680000 209 181 173
-0.603545 0.845877 2.612000 210 185 178
-0.591529 0.833518 2.560000 212 186 180
-0.591529 0.838000 2.560000 215 189 182
-0.587370 0.836557 2.542000 219 193 181
-0.582980 0.834721 2.523000 214 185 180
-0.582980 0.839137 2.523000 210 180 181
-0.578820 0.837536 2.505000 210 181 182
-0.574661 0.835871 2.487000 210 178 185
-0.570502 0.834143 2.469000 212 184 188
-0.570502 0.838465 2.469000 214 185 174
-0.566343 0.836643 2.451000 214 188 161
-0.554559 0.823435 2.400000 213 183 162
-0.543236 0.810739 2.351000 215 190 163
-0.536073 0.804110 2.320000 217 172 171
-0.532376 0.802597 2.304000 219 195 180
-0.528910 0.801379 2.289000 222 199 179
-0.525444 0.800108 2.274000 218 201 179
-0.521978 0.798785 2.259000 214 177 175
-0.518512 0.797409 2.244000 203 176 171
-0.515277 0.796338 2.230000 192 166 172
-0.511811 0.794858 2.215000 191 165 174
-0.505341 0.788639 2.187000 190 159 171
-0.499103 0.782684 2.160000 192 164 169
-0.496099 0.781731 2.147000 195 161 164
-0.492864 0.780368 2.133000 193 162 160
-0.489860 0.779323 2.120000 192 159 163
-0.489860 0.783034 2.120000 187 159 166
-0.486856 0.781920 2.107000 182 143 162
-0.481079 0.776287 2.082000 179 149 159
-0.475303 0.770567 2.057000 176 145 160
-0.472530 0.769651 2.045000 172 145 161
-0.466984 0.764156 2.021000 168 139 159
-0.461670 0.758957 1.998000 166 137 157
-0.458897 0.757876 1.986000 164 137 156
-0.458897 0.761352 1.986000 161 136 155
-0.456355 0.760592 1.975000 158 132 151
-0.451041 0.755152 1.952000 156 130 147
-0.446188 0.750408 1.931000 154 132 146
-0.660658 0.882559 2.881000 203 181 170
-0.660658 0.887602 2.881000 200 179 173
-0.655155 0.885209 2.857000 210 181 176
-0.649880 0.883043 2.834000 220 185 173
-0.639332 0.873591 2.788000 217 213 169
-0.639332 0.878471 2.788000 214 188 173
-0.634058 0.876064 2.765000 210 184 178
-0.629013 0.873895 2.743000 206 177 172
-0.624197 0.871970 2.722000 206 179 166
-0.595991 0.837117 2.599000 206 178 171
-0.595991 0.841667 2.599000 209 186 177
-0.591634 0.840030 2.580000 212 184 176
-0.587048 0.838000 2.560000 213 188 175
-0.582920 0.836557 2.542000 214 187 174
-0.578563 0.834721 2.523000 209 180 174
-0.578563 0.839137 2.523000 205 176 173
-0.574435 0.837536 2.505000 207 180 173
-0.570308 0.835871 2.487000 209 177 173
-0.566180 0.834143 2.469000 210 180 173
-0.562052 0.832352 2.451000 212 183 165
-0.558154 0.830840 2.434000 208 196 157
-0.550357 0.823435 2.400000 205 182 160
-0.542790 0.816257 2.367000 206 197 162
-0.532012 0.804110 2.320000 207 182 167
-0.528343 0.802597 2.304000 209 204 172
-0.524903 0.801379 2.289000 211 190 167
-0.521464 0.800108 2.274000 212 214 162
-0.518024 0.798785 2.259000 214 187 166
-0.514584 0.797409 2.244000 201 184 169
-0.511374 0.796338 2.230000 189 164 170
-0.507934 0.794858 2.215000 188 162 171
-0.501513 0.788639 2.187000 187 160 171
-0.495322 0.782684 2.160000 186 163 171
-0.492341 0.781731 2.147000 185 160 165
-0.489130 0.780368 2.133000 188 160 158
-0.486149 0.779323 2.120000 191 155 160
-0.483168 0.778232 2.107000 185 150 162
-0.480416 0.777467 2.095000 179 147 159
-0.474454 0.771440 2.069000 173 150 157
-0.468950 0.766071 2.045000 167 144 157
-0.466199 0.765135 2.033000 165 141 157
-0.463447 0.764156 2.021000 164 137 154
-0.458173 0.758957 1.998000 162 134 152
-0.455421 0.757876 1.986000 160 135 151
-0.455421 0.761352 1.986000 157 135 151
-0.452898 0.760592 1.975000 155 129 148
-0.450376 0.759794 1.964000 154 129 145
-0.442808 0.750408 1.931000 153 130 144
-0.658346 0.886235 2.893000 200 179 151
-0.661076 0.894996 2.905000 200 179 157
-0.655615 0.892645 2.881000 203 175 164
-0.644919 0.883043 2.834000 207 156 159
-0.639458 0.880484 2.810000 206 184 154
-0.634451 0.878471 2.788000 205 175 162
-0.629217 0.876064 2.765000 202 174 171
-0.624211 0.873895 2.743000 199 167 168
-0.619432 0.871970 2.722000 201 170 165
-0.605095 0.856443 2.659000 204 168 170
-0.591441 0.841667 2.599000 204 179 176
-0.587118 0.840030 2.580000 205 177 172
-0.582566 0.838000 2.560000 206 187 168
-0.578470 0.836557 2.542000 208 188 168
-0.578470 0.841007 2.542000 204 182 169
-0.574147 0.839137 2.523000 201 164 166
-0.570050 0.837536 2.505000 202 178 164
-0.565954 0.835871 2.487000 203 171 161
-0.561858 0.834143 2.469000 203 176 158
-0.557762 0.832352 2.451000 204 172 156
-0.553893 0.830840 2.434000 201 177 154
-0.546156 0.823435 2.400000 199 155 158
-0.535005 0.810739 2.351000 199 171 162
-0.527951 0.804110 2.320000 200 156 163
-0.524310 0.802597 2.304000 202 172 164
-0.524310 0.806631 2.304000 204 144 155
-0.520896 0.805386 2.289000 206 179 146
-0.517483 0.804089 2.274000 209 175 157
-0.510656 0.797409 2.244000 197 171 168
-0.507470 0.796338 2.230000 185 146 168
-0.504057 0.794858 2.215000 184 156 168
-0.497685 0.788639 2.187000 183 157 171
-0.491540 0.782684 2.160000 183 159 174
-0.488582 0.781731 2.147000 184 159 165
-0.485396 0.780368 2.133000 183 157 157
-0.485396 0.784102 2.133000 183 151 158
-0.479479 0.778232 2.107000 178 148 159
-0.473790 0.772643 2.082000 174 147 157
-0.470832 0.771440 2.069000 169 147 155
-0.468101 0.770567 2.057000 164 141 154
-0.462640 0.765135 2.033000 163 139 153
-0.459909 0.764156 2.021000 161 136 150
-0.454675 0.758957 1.998000 159 133 147
-0.451944 0.757876 1.986000 157 135 147
-0.451944 0.761352 1.986000 154 132 147
-0.449441 0.760592 1.975000 152 123 145
-0.446938 0.759794 1.964000 150 125 143
-0.439428 0.750408 1.931000 148 129 142
-0.655991 0.889911 2.905000 196 183 155
-0.655991 0.894996 2.905000 201 174 158
-0.650572 0.892645 2.881000 197 187 161
-0.639958 0.883043 2.834000 194 171 156
-0.634539 0.880484 2.810000 195 195 151
-0.629571 0.878471 2.788000 196 175 160
-0.624377 0.876064 2.765000 194 170 170
-0.619409 0.873895 2.743000 192 165 164
-0.609925 0.865243 2.701000 197 169 158
-0.600441 0.856443 2.659000 202 170 160
-0.586892 0.841667 2.599000 200 186 162
-0.582602 0.840030 2.580000 198 178 163
-0.578085 0.838000 2.560000 200 198 163
-0.578085 0.842481 2.560000 202 180 159
-0.574021 0.841007 2.542000 200 197 155
-0.569730 0.839137 2.523000 198 170 154
-0.565665 0.837536 2.505000 197 198 154
-0.561601 0.835871 2.487000 197 174 158
-0.553472 0.828062 2.451000 197 182 162
-0.549633 0.826579 2.434000 197 172 161
-0.545794 0.825037 2.417000 195 186 160
-0.541955 0.823435 2.400000 193 164 159
-0.530890 0.810739 2.351000 193 179 157
-0.527277 0.809309 2.335000 194 163 161
-0.523890 0.808171 2.320000 195 186 164
-0.520277 0.806631 2.304000 197 163 158
-0.516890 0.805386 2.289000 201 184 152
-0.513502 0.804089 2.274000 205 172 154
-0.506728 0.797409 2.244000 193 180 157
-0.503566 0.796338 2.230000 181 155 159
-0.500179 0.794858 2.215000 180 159 161
-0.497018 0.793687 2.201000 180 155 160
-0.487759 0.782684 2.160000 181 158 160
-0.484824 0.781731 2.147000 183 154 158
-0.484824 0.785490 2.147000 179 158 156
-0.478727 0.779323 2.120000 176 147 156
-0.475791 0.778232 2.107000 172 145 157
-0.470146 0.772643 2.082000 169 145 155
-0.467210 0.771440 2.069000 165 150 153
-0.461791 0.766071 2.045000 162 142 152
-0.461791 0.769651 2.045000 160 141 150
-0.456371 0.764156 2.021000 159 134 147
-0.452307 0.760857 2.003000 156 129 144
-0.451177 0.762455 1.998000 154 133 143
-0.448468 0.761352 1.986000 152 136 143
-0.445984 0.760592 1.975000 150 125 143
-0.440790 0.755152 1.952000 146 122 143
-0.436048 0.750408 1.931000 143 124 142
-0.650906 0.889911 2.905000 184 160 159
-0.650906 0.894996 2.905000 186 150 158
-0.645528 0.892645 2.881000 186 161 158
-0.640151 0.890210 2.857000 186 146 153
-0.629620 0.880484 2.810000 187 169 149
-0.624690 0.878471 2.788000 188 161 159
-0.619537 0.876064 2.765000 185 165 169
-0.614608 0.873895 2.743000 182 156 160
-0.600492 0.858515 2.680000 185 165 151
-0.595786 0.856443 2.659000 189 160 150
-0.591305 0.854620 2.639000 188 167 149
-0.582342 0.846216 2.599000 187 153 154
-0.573604 0.838000 2.560000 187 164 159
-0.569571 0.836557 2.542000 187 140 150
-0.565313 0.834721 2.523000 185 155 141
-0.565313 0.839137 2.523000 183 122 142
-0.561280 0.837536 2.505000 184 153 144
-0.557247 0.835871 2.487000 185 148 155
-0.553214 0.834143 2.469000 186 159 166
-0.549181 0.832352 2.451000 187 149 166
-0.545372 0.830840 2.434000 186 155 167
-0.537754 0.823435 2.400000 184 136 160
-0.526774 0.810739 2.351000 182 148 153
-0.523189 0.809309 2.335000 180 134 159
-0.519829 0.808171 2.320000 182 151 165
-0.516244 0.806631 2.304000 185 138 162
-0.512883 0.805386 2.289000 187 159 159
-0.509522 0.804089 2.274000 189 151 152
-0.502800 0.797409 2.244000 181 159 146
-0.499663 0.796338 2.230000 173 137 150
-0.496302 0.794858 2.215000 174 146 154
-0.490028 0.788639 2.187000 175 148 150
-0.487115 0.787757 2.174000 173 149 146
-0.483978 0.786465 2.160000 170 143 150
-0.481065 0.785490 2.147000 168 144 155
-0.475016 0.779323 2.120000 166 136 155
-0.472103 0.778232 2.107000 164 138 155
-0.466501 0.772643 2.082000 163 141 153
-0.463588 0.771440 2.069000 160 142 152
-0.458211 0.766071 2.045000 157 137 150
-0.455522 0.765135 2.033000 155 135 148
-0.452833 0.764156 2.021000 153 131 144
-0.450145 0.763136 2.009000 151 131 141
-0.448800 0.764363 2.003000 150 133 140
-0.447456 0.765569 1.997000 147 129 140
-0.444991 0.764829 1.986000 145 122 141
-0.434908 0.750896 1.941000 143 120 143
-0.430203 0.746133 1.920000 140 122 142
-0.651379 0.897569 2.930000 173 166 152
-0.645821 0.894996 2.905000 172 150 152
-0.640485 0.892645 2.881000 175 163 152
-0.635150 0.890210 2.857000 179 153 150
-0.624701 0.880484 2.810000 180 176 148
-0.619810 0.878471 2.788000 181 160 153
-0.614697 0.876064 2.765000 176 176 159
-0.609806 0.873895 2.743000 172 159 156
-0.600469 0.865243 2.701000 174 176 154
-0.591132 0.856443 2.659000 177 158 153
-0.586685 0.854620 2.639000 177 169 153
-0.577793 0.846216 2.599000 177 153 153
-0.573569 0.844546 2.580000 174 165 154
-0.565121 0.836557 2.542000 172 147 150
-0.560897 0.834721 2.523000 170 164 146
-0.556895 0.833151 2.505000 169 140 146
-0.556895 0.837536 2.505000 171 147 146
-0.552894 0.835871 2.487000 174 148 151
-0.548892 0.834143 2.469000 176 159 157
-0.544890 0.832352 2.451000 178 149 159
-0.537332 0.825037 2.417000 177 150 162
-0.533552 0.823435 2.400000 176 141 156
-0.526216 0.816257 2.367000 171 144 150
-0.519102 0.809309 2.335000 166 140 151
-0.515767 0.808171 2.320000 169 148 151
-0.512210 0.806631 2.304000 173 146 151
-0.508876 0.805386 2.289000 173 165 151
-0.505541 0.804089 2.274000 173 151 146
-0.498872 0.797409 2.244000 169 168 142
-0.495759 0.796338 2.230000 165 143 146
-0.489312 0.789834 2.201000 168 142 151
-0.486200 0.788639 2.187000 171 143 149
-0.483310 0.787757 2.174000 164 150 147
-0.480197 0.786465 2.160000 158 141 150
-0.480197 0.790246 2.160000 157 141 153
-0.474195 0.784102 2.133000 156 135 152
-0.468415 0.778232 2.107000 156 131 152
-0.462857 0.772643 2.082000 157 135 150
-0.459967 0.771440 2.069000 155 141 149
-0.454631 0.766071 2.045000 153 134 147
-0.454631 0.769651 2.045000 150 131 145
-0.451963 0.768694 2.033000 148 128 143
-0.449296 0.767694 2.021000 147 133 141
-0.446628 0.766653 2.009000 146 128 141
-0.446628 0.770169 2.009000 143 126 140
-0.439069 0.760592 1.975000 141 120 140
-0.431511 0.750896 1.941000 139 117 139
-0.426842 0.746133 1.920000 138 119 139
-0.646250 0.897569 2.930000 162 137 146
-0.640736 0.894996 2.905000 161 124 146
-0.640736 0.900081 2.905000 163 135 146
-0.630149 0.890210 2.857000 166 127 146
-0.619782 0.880484 2.810000 167 142 147
-0.614930 0.878471 2.788000 169 129 148
-0.605004 0.869094 2.743000 168 142 149
-0.605004 0.873895 2.743000 167 129 153
-0.595741 0.865243 2.701000 166 140 157
-0.591109 0.863207 2.680000 165 127 157
-0.582066 0.854620 2.639000 163 139 158
-0.577655 0.852728 2.619000 162 127 153
-0.569053 0.844546 2.580000 160 135 149
-0.564641 0.842481 2.560000 159 122 150
-0.560671 0.841007 2.542000 160 138 152
-0.556481 0.839137 2.523000 160 130 150
-0.552510 0.837536 2.505000 162 138 149
-0.548540 0.835871 2.487000 165 140 148
-0.540600 0.828062 2.451000 167 144 148
-0.536850 0.826579 2.434000 170 141 152
-0.533101 0.825037 2.417000 167 142 157
-0.529351 0.823435 2.400000 165 136 152
-0.522073 0.816257 2.367000 163 136 148
-0.515015 0.809309 2.335000 161 136 143
-0.511706 0.808171 2.320000 161 139 138
-0.508177 0.806631 2.304000 162 135 141
-0.504869 0.805386 2.289000 162 138 144
-0.501560 0.804089 2.274000 162 120 141
-0.494944 0.797409 2.244000 161 137 138
-0.491856 0.796338 2.230000 160 128 143
-0.488547 0.794858 2.215000 160 136 148
-0.482371 0.788639 2.187000 161 134 148
-0.479504 0.787757 2.174000 157 138 149
-0.476416 0.786465 2.160000 154 133 150
-0.476416 0.790246 2.160000 153 134 151
-0.470461 0.784102 2.133000 152 132 150
-0.464726 0.778232 2.107000 152 129 149
-0.459212 0.772643 2.082000 152 127 147
-0.456345 0.771440 2.069000 149 130 146
-0.453698 0.770567 2.057000 147 128 144
-0.451051 0.769651 2.045000 145 125 142
-0.448405 0.768694 2.033000 143 120 142
-0.445758 0.767694 2.021000 142 123 142
-0.445758 0.771232 2.021000 141 122 141
-0.443111 0.770169 2.009000 139 120 141
-0.440685 0.769450 1.998000 137 115 138
-0.428113 0.750896 1.941000 136 115 136
-0.421055 0.741858 1.909000 135 118 136
-0.635650 0.900081 2.905000 152 129 146
-0.625147 0.890210 2.857000 153 130 146
-0.620115 0.888004 2.834000 155 137 146
-0.610049 0.878471 2.788000 157 136 146
-0.600203 0.869094 2.743000 159 137 147
-0.595608 0.867205 2.722000 162 133 149
-0.586418 0.858515 2.680000 158 131 151
-0.581822 0.856443 2.659000 154 132 151
-0.581822 0.861097 2.659000 150 135 151
-0.573070 0.852728 2.619000 147 129 149
-0.568694 0.850766 2.599000 147 128 147
-0.560160 0.842481 2.560000 147 127 149
-0.560160 0.846962 2.560000 149 137 150
-0.556221 0.845457 2.542000 152 132 149
-0.548125 0.837536 2.505000 154 138 147
-0.544187 0.835871 2.487000 156 135 147
-0.536309 0.828062 2.451000 159 137 147
-0.532590 0.826579 2.434000 163 137 149
-0.528870 0.825037 2.417000 158 143 151
-0.521649 0.817946 2.384000 154 136 148
-0.517929 0.816257 2.367000 155 131 144
-0.510927 0.809309 2.335000 156 133 142
-0.507645 0.808171 2.320000 154 137 140
-0.504144 0.806631 2.304000 152 132 143
-0.500862 0.805386 2.289000 152 133 146
-0.497580 0.804089 2.274000 152 127 144
-0.491015 0.797409 2.244000 154 133 142
-0.487952 0.796338 2.230000 156 132 144
-0.484670 0.794858 2.215000 153 140 145
-0.478543 0.788639 2.187000 151 134 145
-0.475698 0.787757 2.174000 150 137 144
-0.472635 0.786465 2.160000 150 132 146
-0.472635 0.790246 2.160000 149 133 148
-0.466727 0.784102 2.133000 148 128 146
-0.461038 0.778232 2.107000 147 126 145
-0.455568 0.772643 2.082000 147 126 143
-0.452723 0.771440 2.069000 144 127 141
-0.447472 0.766071 2.045000 142 124 141
-0.447472 0.769651 2.045000 140 124 140
-0.444846 0.768694 2.033000 139 120 139
-0.444846 0.772252 2.033000 137 117 139
-0.442220 0.771232 2.021000 136 118 138
-0.439594 0.770169 2.009000 135 117 137
-0.432155 0.760592 1.975000 134 114 136
-0.427122 0.755152 1.952000 133 112 134
-0.422527 0.750408 1.931000 133 114 134
-0.682226 0.929808 3.143000 148 120 139
-0.676148 0.926977 3.115000 151 120 140
-0.630565 0.900081 2.905000 150 126 146
-0.625356 0.897688 2.881000 151 128 145
-0.615154 0.888004 2.834000 153 135 145
-0.605169 0.878471 2.788000 154 141 145
-0.600177 0.876064 2.765000 156 138 145
-0.595401 0.873895 2.743000 157 136 145
-0.586285 0.865243 2.701000 154 134 146
-0.577168 0.856443 2.659000 152 135 145
-0.572827 0.854620 2.639000 149 133 144
-0.568485 0.852728 2.619000 146 127 145
-0.560020 0.844546 2.580000 146 124 146
-0.555679 0.842481 2.560000 145 122 147
-0.555679 0.846962 2.560000 147 126 149
-0.551772 0.845457 2.542000 150 125 147
-0.543740 0.837536 2.505000 151 130 146
-0.539833 0.835871 2.487000 153 128 146
-0.532019 0.828062 2.451000 153 130 147
-0.524639 0.820806 2.417000 153 127 146
-0.524639 0.825037 2.417000 151 134 146
-0.520949 0.823435 2.400000 150 134 143
-0.513786 0.816257 2.367000 150 131 141
-0.506840 0.809309 2.335000 150 128 141
-0.503584 0.808171 2.320000 150 127 142
-0.500111 0.806631 2.304000 150 123 145
-0.496855 0.805386 2.289000 150 125 148
-0.493599 0.804089 2.274000 150 124 147
-0.487087 0.797409 2.244000 150 126 147
-0.484048 0.796338 2.230000 151 127 145
-0.477754 0.789834 2.201000 149 131 143
-0.474715 0.788639 2.187000 148 127 141
-0.471893 0.787757 2.174000 147 128 140
-0.468854 0.786465 2.160000 146 126 142
-0.468854 0.790246 2.160000 144 126 145
-0.462993 0.784102 2.133000 143 121 143
-0.457350 0.778232 2.107000 143 124 141
-0.451923 0.772643 2.082000 143 127 139
-0.449101 0.771440 2.069000 141 123 137
-0.443892 0.766071 2.045000 140 118 138
-0.441287 0.765135 2.033000 138 118 139
-0.441287 0.768694 2.033000 136 119 137
-0.438682 0.767694 2.021000 135 118 136
-0.438682 0.771232 2.021000 133 118 135
-0.436078 0.770169 2.009000 132 116 134
-0.428698 0.760592 1.975000 131 114 133
-0.423705 0.755152 1.952000 131 112 133
-0.416759 0.746133 1.920000 131 112 133
-0.676724 0.929808 3.143000 146 114 135
-0.670695 0.926977 3.115000 148 119 136
-0.615145 0.890210 2.857000 150 127 144
-0.610193 0.888004 2.834000 151 134 144
-0.605025 0.885403 2.810000 152 133 143
-0.595336 0.876064 2.765000 152 138 143
-0.590599 0.873895 2.743000 153 134 142
-0.581556 0.865243 2.701000 151 135 142
-0.572513 0.856443 2.659000 150 131 142
-0.572513 0.861097 2.659000 148 136 143
-0.568207 0.859240 2.639000 146 126 143
-0.559595 0.850766 2.599000 145 121 143
-0.555504 0.849063 2.580000 144 121 143
-0.551197 0.846962 2.560000 146 120 143
-0.547322 0.845457 2.542000 148 123 143
-0.543231 0.843554 2.523000 149 130 143
-0.535480 0.835871 2.487000 151 126 143
-0.527728 0.828062 2.451000 147 129 143
-0.524068 0.826579 2.434000 143 126 143
-0.516748 0.819234 2.400000 145 132 144
-0.513303 0.817946 2.384000 147 129 141
-0.506197 0.810739 2.351000 146 133 139
-0.502752 0.809309 2.335000 145 125 140
-0.499523 0.808171 2.320000 146 120 141
-0.496078 0.806631 2.304000 148 121 142
-0.492848 0.805386 2.289000 148 123 143
-0.489618 0.804089 2.274000 148 122 143
-0.483159 0.797409 2.244000 147 122 143
-0.480145 0.796338 2.230000 147 125 142
-0.473901 0.789834 2.201000 146 132 141
-0.470886 0.788639 2.187000 145 126 137
-0.468087 0.787757 2.174000 143 122 133
-0.462274 0.781731 2.147000 142 123 137
-0.462274 0.785490 2.147000 140 124 142
-0.459259 0.784102 2.133000 139 121 139
-0.451078 0.773800 2.095000 139 122 136
-0.451078 0.777467 2.095000 140 123 135
-0.445479 0.771440 2.069000 139 122 133
-0.442896 0.770567 2.057000 138 116 134
-0.440312 0.769651 2.045000 136 113 135
-0.437728 0.768694 2.033000 134 116 135
-0.437728 0.772252 2.033000 132 119 136
-0.435145 0.771232 2.021000 131 117 135
-0.430192 0.765952 1.998000 130 117 133
-0.427609 0.764829 1.986000 129 114 133
-0.417920 0.750896 1.941000 129 110 134
-0.413398 0.746133 1.920000 129 111 132
-0.671222 0.929808 3.143000 141 116 132
-0.665243 0.926977 3.115000 143 121 132
-0.659263 0.924049 3.087000 144 121 132
-0.610144 0.890210 2.857000 146 122 144
-0.605232 0.888004 2.834000 146 124 144
-0.600106 0.885403 2.810000 147 122 142
-0.590496 0.876064 2.765000 147 128 141
-0.585798 0.873895 2.743000 148 127 139
-0.576828 0.865243 2.701000 146 127 138
-0.572344 0.863207 2.680000 145 121 140
-0.567859 0.861097 2.659000 143 123 143
-0.563588 0.859240 2.639000 141 121 142
-0.555045 0.850766 2.599000 141 120 141
-0.550987 0.849063 2.580000 141 121 139
-0.546716 0.846962 2.560000 142 119 138
-0.542872 0.845457 2.542000 144 120 139
-0.534970 0.837536 2.505000 145 121 141
-0.531126 0.835871 2.487000 146 117 140
-0.527282 0.834143 2.469000 144 120 139
-0.519807 0.826579 2.434000 142 119 140
-0.516177 0.825037 2.417000 143 122 142
-0.512546 0.823435 2.400000 144 120 140
-0.502082 0.810739 2.351000 142 123 138
-0.495462 0.804110 2.320000 141 121 139
-0.492045 0.802597 2.304000 142 119 140
-0.492045 0.806631 2.304000 143 121 139
-0.488841 0.805386 2.289000 143 121 138
-0.482434 0.798785 2.259000 143 122 139
-0.479231 0.797409 2.244000 142 121 140
-0.476241 0.796338 2.230000 142 121 140
-0.473038 0.794858 2.215000 141 124 140
-0.467058 0.788639 2.187000 140 124 133
-0.464282 0.787757 2.174000 139 121 126
-0.458516 0.781731 2.147000 138 121 132
-0.458516 0.785490 2.147000 137 120 139
-0.455526 0.784102 2.133000 136 118 135
-0.447410 0.773800 2.095000 137 120 132
-0.447410 0.777467 2.095000 138 124 131
-0.441858 0.771440 2.069000 136 119 130
-0.439295 0.770567 2.057000 135 114 130
-0.436732 0.769651 2.045000 134 113 131
-0.434170 0.768694 2.033000 132 116 134
-0.431607 0.767694 2.021000 130 116 137
-0.429044 0.766653 2.009000 129 117 135
-0.426695 0.765952 1.998000 128 116 133
-0.424132 0.764829 1.986000 128 116 134
-0.421783 0.764050 1.975000 128 112 135
-0.416871 0.758569 1.952000 127 112 132
-0.659790 0.921525 3.115000 136 115 129
-0.659790 0.926977 3.115000 138 117 130
-0.653859 0.924049 3.087000 139 119 131
-0.605143 0.890210 2.857000 143 119 137
-0.600271 0.888004 2.834000 142 120 138
-0.590528 0.878471 2.788000 142 121 138
-0.585656 0.876064 2.765000 142 126 137
-0.580996 0.873895 2.743000 143 124 136
-0.572100 0.865243 2.701000 141 127 135
-0.567652 0.863207 2.680000 140 120 137
-0.563204 0.861097 2.659000 138 117 140
-0.558968 0.859240 2.639000 137 119 138
-0.554732 0.857313 2.619000 137 119 136
-0.546471 0.849063 2.580000 138 119 135
-0.538422 0.841007 2.542000 139 118 135
-0.534398 0.839137 2.523000 141 118 136
-0.530585 0.837536 2.505000 141 118 137
-0.526773 0.835871 2.487000 141 117 137
-0.522960 0.834143 2.469000 141 116 136
-0.519148 0.832352 2.451000 142 118 136
-0.511946 0.825037 2.417000 141 118 137
-0.504956 0.817946 2.384000 141 119 136
-0.494578 0.805221 2.335000 139 120 136
-0.491401 0.804110 2.320000 137 118 137
-0.488012 0.802597 2.304000 137 117 138
-0.484834 0.801379 2.289000 138 118 137
-0.484834 0.805386 2.289000 138 118 137
-0.478480 0.798785 2.259000 138 119 137
-0.475303 0.797409 2.244000 138 120 138
-0.472338 0.796338 2.230000 138 120 138
-0.466195 0.789834 2.201000 137 120 138
-0.463230 0.788639 2.187000 136 120 134
-0.457511 0.782684 2.160000 135 119 130
-0.454757 0.781731 2.147000 134 118 133
-0.451792 0.780368 2.133000 133 117 137
-0.449038 0.779323 2.120000 133 116 134
-0.443743 0.773800 2.095000 134 116 132
-0.440990 0.772643 2.082000 136 118 131
-0.438236 0.771440 2.069000 134 119 130
-0.433153 0.766071 2.045000 133 114 130
-0.430611 0.765135 2.033000 132 111 130
-0.428069 0.764156 2.021000 131 113 133
-0.428069 0.767694 2.021000 129 114 136
-0.423197 0.762455 1.998000 127 114 135
-0.423197 0.765952 1.998000 127 115 133
-0.420656 0.764829 1.986000 128 113 133
-0.418326 0.764050 1.975000 127 111 133
-0.413454 0.758569 1.952000 126 109 132
-0.654337 0.921525 3.115000 134 113 127
-0.648455 0.918645 3.087000 135 113 128
-0.642574 0.915668 3.059000 135 114 130
-0.637112 0.913194 3.033000 136 116 130
-0.631440 0.910327 3.006000 135 117 131
-0.625979 0.907670 2.980000 134 117 131
-0.615476 0.897569 2.930000 134 116 131
-0.610224 0.894996 2.905000 133 118 130
-0.595310 0.878082 2.834000 136 118 130
-0.600141 0.890210 2.857000 139 121 131
-0.595310 0.888004 2.834000 138 119 133
-0.590269 0.885403 2.810000 138 117 133
-0.580816 0.876064 2.765000 138 119 134
-0.576195 0.873895 2.743000 138 117 133
-0.567372 0.865243 2.701000 137 119 133
-0.562961 0.863207 2.680000 136 118 135
-0.558550 0.861097 2.659000 135 117 137
-0.554348 0.859240 2.639000 134 119 134
-0.550147 0.857313 2.619000 134 119 132
-0.541955 0.849063 2.580000 135 120 132
-0.533973 0.841007 2.542000 135 118 132
-0.533973 0.845457 2.542000 136 118 133
-0.533973 0.849906 2.542000 137 118 134
-0.518638 0.829821 2.469000 137 118 134
-0.514857 0.828062 2.451000 137 117 134
-0.511286 0.826579 2.434000 138 119 133
-0.504144 0.819234 2.400000 137 118 132
-0.493851 0.806624 2.351000 137 119 133
-0.490490 0.805221 2.335000 136 117 135
-0.483978 0.798564 2.304000 135 117 135
-0.483978 0.802597 2.304000 135 116 136
-0.480827 0.801379 2.289000 136 117 136
-0.477677 0.800108 2.274000 135 116 136
-0.474526 0.798785 2.259000 135 117 136
-0.471375 0.797409 2.244000 135 118 137
-0.468434 0.796338 2.230000 136 122 136
-0.465283 0.794858 2.215000 135 119 136
-0.462342 0.793687 2.201000 135 117 135
-0.456670 0.787757 2.174000 133 116 134
-0.448058 0.776634 2.133000 132 118 134
-0.450999 0.785490 2.147000 131 115 135
-0.445327 0.779323 2.120000 130 114 133
-0.437345 0.768998 2.082000 131 113 132
-0.434614 0.767819 2.069000 133 116 131
-0.432093 0.766966 2.057000 131 115 130
-0.429573 0.766071 2.045000 130 114 129
-0.427052 0.765135 2.033000 129 112 129
-0.424531 0.764156 2.021000 128 112 132
-0.419700 0.758957 1.998000 127 112 136
-0.417179 0.757876 1.986000 126 113 135
-0.417179 0.761352 1.986000 126 111 134
-0.414869 0.760592 1.975000 126 110 133
-0.412558 0.759794 1.964000 125 108 132
-0.410037 0.758569 1.952000 124 108 132
-0.643052 0.913241 3.087000 131 112 127
-0.643052 0.918645 3.087000 132 111 127
-0.637219 0.915668 3.059000 132 110 128
-0.631803 0.913194 3.033000 133 112 128
-0.626178 0.910327 3.006000 131 114 129
-0.620762 0.907670 2.980000 130 113 128
-0.615555 0.905227 2.955000 130 113 128
-0.605139 0.894996 2.905000 130 116 125
-0.595140 0.885209 2.857000 132 121 123
-0.595140 0.890210 2.857000 135 120 126
-0.590349 0.888004 2.834000 135 118 130
-0.585350 0.885403 2.810000 135 117 130
-0.575976 0.876064 2.765000 134 118 131
-0.567019 0.867205 2.722000 133 116 131
-0.562644 0.865243 2.701000 132 116 130
-0.553895 0.856443 2.659000 132 116 132
-0.549729 0.854620 2.639000 131 115 134
-0.549729 0.859240 2.639000 131 117 133
-0.545563 0.857313 2.619000 131 120 131
-0.541396 0.855316 2.599000 132 117 131
-0.533273 0.846962 2.560000 132 119 131
-0.529523 0.845457 2.542000 132 118 131
-0.525565 0.843554 2.523000 133 118 131
-0.518066 0.835871 2.487000 134 117 132
-0.514316 0.834143 2.469000 134 116 132
-0.507025 0.826579 2.434000 134 117 131
-0.503484 0.825037 2.417000 134 119 130
-0.489736 0.806624 2.351000 134 117 131
-0.483278 0.800049 2.320000 133 114 132
-0.479945 0.798564 2.304000 133 114 133
-0.476821 0.797372 2.289000 133 114 134
-0.476821 0.801379 2.289000 134 115 133
-0.473696 0.800108 2.274000 133 113 132
-0.470571 0.798785 2.259000 132 112 134
-0.467447 0.797409 2.244000 133 115 135
-0.464530 0.796338 2.230000 134 118 136
-0.461406 0.794858 2.215000 134 118 137
-0.455573 0.788639 2.187000 135 115 135
-0.452865 0.787757 2.174000 132 113 133
-0.444324 0.776634 2.133000 130 114 133
-0.438908 0.770856 2.107000 129 112 133
-0.436408 0.770133 2.095000 128 111 131
-0.433700 0.768998 2.082000 129 108 130
-0.430992 0.767819 2.069000 130 112 130
-0.428493 0.766966 2.057000 129 113 130
-0.423493 0.761576 2.033000 128 112 128
-0.423493 0.765135 2.033000 127 112 127
-0.418494 0.759619 2.009000 126 111 129
-0.416202 0.758957 1.998000 126 111 131
-0.413703 0.757876 1.986000 126 111 131
-0.413703 0.761352 1.986000 125 109 130
-0.411411 0.760592 1.975000 124 108 130
-0.409120 0.759794 1.964000 123 106 131
-0.404329 0.754294 1.941000 123 106 130
-0.643431 0.921525 3.115000 128 110 127
-0.637648 0.918645 3.087000 128 112 126
-0.637648 0.924049 3.087000 129 110 126
-0.631864 0.921022 3.059000 131 110 126
-0.620916 0.910327 3.006000 129 110 127
-0.615546 0.907670 2.980000 128 110 126
-0.605218 0.897569 2.930000 127 111 125
-0.600054 0.894996 2.905000 126 113 121
-0.590139 0.885209 2.857000 129 117 117
-0.590139 0.890210 2.857000 132 120 122
-0.585388 0.888004 2.834000 132 118 127
-0.580431 0.885403 2.810000 132 118 128
-0.571136 0.876064 2.765000 132 116 129
-0.562254 0.867205 2.722000 131 116 128
-0.553578 0.858515 2.680000 131 116 128
-0.549240 0.856443 2.659000 130 117 130
-0.545109 0.854620 2.639000 128 116 132
-0.540978 0.852728 2.619000 126 116 131
-0.536847 0.850766 2.599000 128 114 131
-0.532922 0.849063 2.580000 130 111 130
-0.528791 0.846962 2.560000 128 115 130
-0.525073 0.845457 2.542000 127 118 129
-0.521148 0.843554 2.523000 129 117 129
-0.513712 0.835871 2.487000 130 118 130
-0.506276 0.828062 2.451000 131 116 131
-0.502765 0.826579 2.434000 131 117 130
-0.499253 0.825037 2.417000 131 117 129
-0.485620 0.806624 2.351000 132 116 129
-0.479217 0.800049 2.320000 131 113 130
-0.475912 0.798564 2.304000 131 114 131
-0.472814 0.797372 2.289000 131 115 132
-0.472814 0.801379 2.289000 131 116 130
-0.469715 0.800108 2.274000 131 111 129
-0.466617 0.798785 2.259000 131 106 131
-0.463518 0.797409 2.244000 131 114 134
-0.460627 0.796338 2.230000 132 117 136
-0.457528 0.794858 2.215000 132 115 139
-0.454636 0.793687 2.201000 133 115 135
-0.449059 0.787757 2.174000 131 113 132
-0.446167 0.786465 2.160000 129 113 131
-0.440590 0.780368 2.133000 127 111 131
-0.432741 0.770133 2.095000 126 111 129
-0.430056 0.768998 2.082000 127 110 128
-0.427371 0.767819 2.069000 127 111 129
-0.424892 0.766966 2.057000 126 111 130
-0.422413 0.766071 2.045000 125 110 128
-0.419934 0.765135 2.033000 124 109 126
-0.414977 0.759619 2.009000 123 110 126
-0.412705 0.758957 1.998000 124 110 127
-0.410226 0.757876 1.986000 125 111 127
-0.407954 0.757135 1.975000 124 108 127
-0.407954 0.760592 1.975000 123 107 128
-0.405682 0.759794 1.964000 122 105 130
-0.400931 0.754294 1.941000 122 106 128
-0.668085 0.947882 3.262000 127 110 122
-0.661736 0.944530 3.231000 126 109 119
-0.643713 0.924306 3.143000 126 109 121
-0.637979 0.921525 3.115000 125 110 124
-0.632244 0.918645 3.087000 124 109 123
-0.632244 0.924049 3.087000 127 108 122
-0.621184 0.913194 3.033000 130 109 124
-0.621184 0.918503 3.033000 128 109 126
-0.615654 0.915589 3.006000 126 108 126
-0.600089 0.897569 2.930000 124 108 126
-0.594969 0.894996 2.905000 123 112 124
-0.580427 0.878082 2.834000 126 115 122
-0.580427 0.883043 2.834000 129 117 127
-0.580427 0.888004 2.834000 129 118 132
-0.575512 0.885403 2.810000 130 115 128
-0.571006 0.883351 2.788000 130 112 125
-0.557489 0.867205 2.722000 130 113 126
-0.548887 0.858515 2.680000 129 115 127
-0.544586 0.856443 2.659000 129 115 129
-0.540490 0.854620 2.639000 125 117 132
-0.540490 0.859240 2.639000 122 114 131
-0.536394 0.857313 2.619000 125 111 130
-0.528406 0.849063 2.580000 128 111 130
-0.524310 0.846962 2.560000 125 113 129
-0.520623 0.845457 2.542000 123 114 129
-0.513045 0.837536 2.505000 125 116 128
-0.509359 0.835871 2.487000 127 115 128
-0.505672 0.834143 2.469000 128 113 129
-0.501986 0.832352 2.451000 129 113 127
-0.498504 0.830840 2.434000 129 118 126
-0.481505 0.806624 2.351000 130 114 127
-0.475156 0.800049 2.320000 129 111 128
-0.471879 0.798564 2.304000 129 114 129
-0.468807 0.797372 2.289000 129 117 130
-0.468807 0.801379 2.289000 129 114 128
-0.465735 0.800108 2.274000 129 110 126
-0.462662 0.798785 2.259000 130 111 129
-0.459590 0.797409 2.244000 130 118 133
-0.456723 0.796338 2.230000 131 115 134
-0.453651 0.794858 2.215000 131 113 136
-0.450784 0.793687 2.201000 131 114 134
-0.445254 0.787757 2.174000 129 114 132
-0.442386 0.786465 2.160000 128 112 130
-0.439724 0.785490 2.147000 126 110 129
-0.429074 0.770133 2.095000 125 109 128
-0.426411 0.768998 2.082000 125 110 128
-0.423749 0.767819 2.069000 125 109 128
-0.421291 0.766966 2.057000 124 110 128
-0.418833 0.766071 2.045000 123 108 126
-0.416376 0.765135 2.033000 122 105 125
-0.413918 0.764156 2.021000 121 107 126
-0.409207 0.758957 1.998000 122 109 127
-0.406750 0.757876 1.986000 124 109 126
-0.404497 0.757135 1.975000 123 108 125
-0.402244 0.756356 1.964000 122 106 127
-0.399786 0.755152 1.952000 121 103 128
-0.397533 0.754294 1.941000 121 104 127
-0.662375 0.947882 3.262000 125 109 121
-0.662375 0.953592 3.262000 126 108 117
-0.649989 0.941363 3.201000 127 108 119
-0.632526 0.921525 3.115000 127 108 122
-0.626840 0.918645 3.087000 128 108 120
-0.621155 0.915668 3.059000 128 108 119
-0.615875 0.913194 3.033000 129 110 122
-0.610393 0.910327 3.006000 127 108 126
-0.605113 0.907670 2.980000 125 106 126
-0.594960 0.897569 2.930000 124 108 127
-0.589884 0.894996 2.905000 124 112 127
-0.585010 0.892645 2.881000 126 114 127
-0.580137 0.890210 2.857000 129 116 132
-0.575467 0.888004 2.834000 129 115 138
-0.570593 0.885403 2.810000 129 114 129
-0.566126 0.883351 2.788000 128 112 121
-0.552724 0.867205 2.722000 128 111 124
-0.548460 0.865243 2.701000 128 113 127
-0.539931 0.856443 2.659000 128 113 129
-0.535870 0.854620 2.639000 126 114 132
-0.531809 0.852728 2.619000 124 113 131
-0.531809 0.857313 2.619000 125 111 130
-0.523890 0.849063 2.580000 127 110 129
-0.519829 0.846962 2.560000 126 110 129
-0.512316 0.839137 2.523000 125 110 128
-0.505005 0.831517 2.487000 125 112 128
-0.501350 0.829821 2.469000 126 114 127
-0.501350 0.834143 2.469000 126 110 127
-0.494243 0.826579 2.434000 127 106 125
-0.490791 0.825037 2.417000 128 111 124
-0.480638 0.812113 2.367000 129 112 125
-0.471095 0.800049 2.320000 129 112 127
-0.467846 0.798564 2.304000 129 115 127
-0.464800 0.797372 2.289000 128 116 128
-0.464800 0.801379 2.289000 128 113 125
-0.461754 0.800108 2.274000 128 111 123
-0.458708 0.798785 2.259000 128 113 127
-0.452819 0.792434 2.230000 128 113 132
-0.452819 0.796338 2.230000 128 112 133
-0.449774 0.794858 2.215000 129 113 134
-0.444088 0.788639 2.187000 129 117 133
-0.444088 0.792467 2.187000 128 113 132
-0.441448 0.791562 2.174000 126 111 129
-0.438605 0.790246 2.160000 125 109 127
-0.422767 0.765354 2.082000 125 108 127
-0.422767 0.768998 2.082000 124 108 128
-0.420127 0.767819 2.069000 124 108 127
-0.415254 0.762492 2.045000 123 107 126
-0.412817 0.761576 2.033000 122 107 125
-0.412817 0.765135 2.033000 121 105 125
-0.410380 0.764156 2.021000 121 104 126
-0.405710 0.758957 1.998000 123 106 127
-0.403273 0.757876 1.986000 125 108 125
-0.401040 0.757135 1.975000 123 106 124
-0.398806 0.756356 1.964000 121 106 125
-0.396369 0.755152 1.952000 120 103 127
-0.394136 0.754294 1.941000 120 103 127
-0.656665 0.947882 3.262000 124 108 125
-0.650425 0.944530 3.231000 126 109 120
-0.644385 0.941363 3.201000 128 108 122
-0.627073 0.921525 3.115000 130 109 124
-0.621436 0.918645 3.087000 133 108 126
-0.615800 0.915668 3.059000 130 108 129
-0.610566 0.913194 3.033000 128 108 127
-0.605130 0.910327 3.006000 126 108 126
-0.599896 0.907670 2.980000 125 107 124
-0.589831 0.897569 2.930000 125 108 122
-0.584798 0.894996 2.905000 125 110 123
-0.579967 0.892645 2.881000 127 113 125
-0.575136 0.890210 2.857000 129 113 129
-0.570505 0.888004 2.834000 128 112 133
-0.565674 0.885403 2.810000 128 113 128
-0.561245 0.883351 2.788000 127 112 123
-0.547959 0.867205 2.722000 126 112 125
-0.543732 0.865243 2.701000 127 114 127
-0.535277 0.856443 2.659000 128 113 127
-0.531251 0.854620 2.639000 127 113 127
-0.531251 0.859240 2.639000 126 112 128
-0.527224 0.857313 2.619000 126 111 130
-0.523198 0.855316 2.599000 126 109 129
-0.515347 0.846962 2.560000 126 108 129
-0.507899 0.839137 2.523000 127 109 126
-0.500652 0.831517 2.487000 126 111 124
-0.497028 0.829821 2.469000 126 111 125
-0.493405 0.828062 2.451000 125 110 127
-0.489982 0.826579 2.434000 125 108 126
-0.486560 0.825037 2.417000 126 109 126
-0.479917 0.817946 2.384000 128 111 128
-0.473274 0.810739 2.351000 128 113 130
-0.467033 0.804110 2.320000 129 115 129
-0.463813 0.802597 2.304000 128 120 128
-0.460793 0.801379 2.289000 128 111 126
-0.457773 0.800108 2.274000 127 108 125
-0.454754 0.798785 2.259000 127 111 128
-0.451734 0.797409 2.244000 126 112 131
-0.448916 0.796338 2.230000 126 112 131
-0.445896 0.794858 2.215000 127 113 132
-0.443078 0.793687 2.201000 128 114 130
-0.440260 0.792467 2.187000 126 112 128
-0.440260 0.796296 2.187000 125 111 127
-0.434824 0.790246 2.160000 125 108 126
-0.419122 0.765354 2.082000 125 107 125
-0.419122 0.768998 2.082000 124 106 124
-0.416505 0.767819 2.069000 124 106 127
-0.411674 0.762492 2.045000 123 106 130
-0.409258 0.761576 2.033000 122 105 128
-0.409258 0.765135 2.033000 121 105 127
-0.406842 0.764156 2.021000 121 105 127
-0.403219 0.760857 2.003000 124 106 127
-0.402212 0.762455 1.998000 127 106 126
-0.397582 0.757135 1.975000 124 105 124
-0.395368 0.756356 1.964000 121 104 125
-0.392952 0.755152 1.952000 120 102 126
-0.390738 0.754294 1.941000 119 102 127
-0.644769 0.944530 3.231000 125 108 123
-0.638782 0.941363 3.201000 126 109 124
-0.621620 0.921525 3.115000 127 109 126
-0.616033 0.918645 3.087000 129 110 132
-0.610445 0.915668 3.059000 127 109 139
-0.605256 0.913194 3.033000 126 109 133
-0.599868 0.910327 3.006000 124 108 127
-0.579713 0.889911 2.905000 123 108 118
-0.579713 0.894996 2.905000 125 108 120
-0.570134 0.885209 2.857000 126 111 123
-0.570134 0.890210 2.857000 127 113 125
-0.565545 0.888004 2.834000 127 113 128
-0.560755 0.885403 2.810000 126 114 126
-0.556365 0.883351 2.788000 124 113 125
-0.543194 0.867205 2.722000 122 114 126
-0.539004 0.865243 2.701000 124 113 128
-0.530622 0.856443 2.659000 127 114 125
-0.526631 0.854620 2.639000 127 113 123
-0.526631 0.859240 2.639000 128 113 126
-0.518649 0.850766 2.599000 125 111 130
-0.514857 0.849063 2.580000 123 110 129
-0.510866 0.846962 2.560000 124 108 129
-0.503482 0.839137 2.523000 125 107 125
-0.496298 0.831517 2.487000 123 109 121
-0.492706 0.829821 2.469000 121 110 124
-0.489114 0.828062 2.451000 122 110 127
-0.485722 0.826579 2.434000 124 110 127
-0.482329 0.825037 2.417000 125 111 128
-0.475744 0.817946 2.384000 126 113 131
-0.472351 0.816257 2.367000 126 113 134
-0.462972 0.804110 2.320000 127 114 131
-0.459779 0.802597 2.304000 126 112 128
-0.456786 0.801379 2.289000 126 105 127
-0.453793 0.800108 2.274000 126 108 127
-0.450799 0.798785 2.259000 126 113 129
-0.445012 0.792434 2.230000 125 113 131
-0.445012 0.796338 2.230000 124 114 130
-0.442019 0.794858 2.215000 125 114 130
-0.436431 0.788639 2.187000 126 114 127
-0.436431 0.792467 2.187000 124 113 125
-0.436431 0.796296 2.187000 123 113 125
-0.433837 0.795368 2.174000 123 109 125
-0.415478 0.765354 2.082000 124 108 122
-0.415478 0.768998 2.082000 124 106 120
-0.410489 0.763365 2.057000 124 105 127
-0.408094 0.762492 2.045000 123 105 135
-0.408094 0.766071 2.045000 122 105 132
-0.405699 0.765135 2.033000 121 105 129
-0.403305 0.764156 2.021000 120 106 128
-0.400910 0.763136 2.009000 121 105 128
-0.396320 0.757876 1.986000 123 106 126
-0.394125 0.757135 1.975000 121 105 125
-0.391930 0.756356 1.964000 120 104 125
-0.389535 0.755152 1.952000 119 102 126
-0.387340 0.754294 1.941000 118 101 127
-0.639113 0.944530 3.231000 125 105 123
-0.631201 0.938422 3.191000 125 108 124
-0.610629 0.913241 3.087000 125 110 125
-0.610629 0.918645 3.087000 125 110 128
-0.605090 0.915668 3.059000 124 112 132
-0.599947 0.913194 3.033000 124 109 129
-0.594606 0.910327 3.006000 122 109 127
-0.569881 0.887602 2.881000 125 110 122
-0.565133 0.885209 2.857000 125 113 124
-0.565133 0.890210 2.857000 126 113 125
-0.560584 0.888004 2.834000 125 114 126
-0.555836 0.885403 2.810000 125 113 125
-0.551485 0.883351 2.788000 121 112 124
-0.538429 0.867205 2.722000 118 112 126
-0.534275 0.865243 2.701000 122 112 128
-0.525967 0.856443 2.659000 127 112 127
-0.525967 0.861097 2.659000 128 112 125
-0.522011 0.859240 2.639000 130 111 128
-0.514099 0.850766 2.599000 125 112 130
-0.510341 0.849063 2.580000 120 111 130
-0.502824 0.841007 2.542000 121 110 131
-0.495505 0.833151 2.505000 123 110 127
-0.491945 0.831517 2.487000 119 111 124
-0.488384 0.829821 2.469000 116 111 127
-0.484824 0.828062 2.451000 120 110 130
-0.481461 0.826579 2.434000 124 111 129
-0.478098 0.825037 2.417000 124 113 128
-0.474736 0.823435 2.400000 124 113 129
-0.468208 0.816257 2.367000 125 113 130
-0.458911 0.804110 2.320000 126 112 126
-0.455746 0.802597 2.304000 125 110 122
-0.455746 0.806631 2.304000 124 108 124
-0.452779 0.805386 2.289000 125 109 127
-0.446845 0.798785 2.259000 126 111 129
-0.443878 0.797409 2.244000 124 114 132
-0.441108 0.796338 2.230000 123 114 131
-0.432603 0.784811 2.187000 123 116 130
-0.432603 0.788639 2.187000 124 114 127
-0.430031 0.787757 2.174000 122 115 125
-0.430031 0.791562 2.174000 121 111 126
-0.427262 0.790246 2.160000 122 107 127
-0.411833 0.765354 2.082000 124 106 125
-0.411833 0.768998 2.082000 124 105 124
-0.409262 0.767819 2.069000 125 105 127
-0.406888 0.766966 2.057000 123 105 131
-0.404514 0.766071 2.045000 122 106 127
-0.402141 0.765135 2.033000 121 106 123
-0.399767 0.764156 2.021000 120 106 125
-0.397393 0.763136 2.009000 119 105 127
-0.392844 0.757876 1.986000 119 105 128
-0.390668 0.757135 1.975000 119 105 130
-0.388492 0.756356 1.964000 119 103 128
-0.386118 0.755152 1.952000 118 102 125
-0.383942 0.754294 1.941000 118 101 126
-0.633457 0.944530 3.231000 125 108 123
-0.623654 0.935481 3.181000 126 109 123
-0.605225 0.913241 3.087000 126 110 124
-0.560132 0.880208 2.857000 125 112 124
-0.560132 0.885209 2.857000 126 112 125
-0.555623 0.883043 2.834000 127 113 125
-0.550917 0.880484 2.810000 126 113 125
-0.546604 0.878471 2.788000 125 112 124
-0.546604 0.883351 2.788000 123 111 123
-0.533665 0.867205 2.722000 121 110 126
-0.529547 0.865243 2.701000 124 111 129
-0.525430 0.863207 2.680000 127 110 128
-0.521313 0.861097 2.659000 127 110 128
-0.517392 0.859240 2.639000 128 109 129
-0.509550 0.850766 2.599000 126 111 131
-0.505825 0.849063 2.580000 123 112 132
-0.494649 0.834721 2.523000 124 111 133
-0.491120 0.833151 2.505000 125 112 130
-0.487591 0.831517 2.487000 122 113 128
-0.484062 0.829821 2.469000 120 115 130
-0.484062 0.834143 2.469000 122 112 133
-0.477200 0.826579 2.434000 125 111 131
-0.473867 0.825037 2.417000 124 111 129
-0.467398 0.817946 2.384000 124 113 127
-0.460928 0.810739 2.351000 124 112 126
-0.457791 0.809309 2.335000 125 113 121
-0.451713 0.802597 2.304000 124 110 116
-0.451713 0.806631 2.304000 123 108 121
-0.448772 0.805386 2.289000 125 108 127
-0.442891 0.798785 2.259000 127 108 130
-0.437205 0.792434 2.230000 127 112 134
-0.437205 0.796338 2.230000 128 115 132
-0.428775 0.784811 2.187000 126 113 130
-0.428775 0.788639 2.187000 125 113 128
-0.426226 0.787757 2.174000 124 112 126
-0.426226 0.791562 2.174000 123 111 127
-0.423481 0.790246 2.160000 123 108 129
-0.410737 0.770133 2.095000 124 106 128
-0.408189 0.768998 2.082000 126 105 128
-0.405640 0.767819 2.069000 127 105 128
-0.403287 0.766966 2.057000 125 106 128
-0.398582 0.761576 2.033000 122 108 123
-0.398582 0.765135 2.033000 121 107 118
-0.396229 0.764156 2.021000 120 108 122
-0.393877 0.763136 2.009000 118 105 126
-0.391720 0.762455 1.998000 116 104 131
-0.389367 0.761352 1.986000 117 103 136
-0.387211 0.760592 1.975000 118 103 130
-0.385054 0.759794 1.964000 117 102 125
-0.380545 0.754294 1.941000 117 102 125
-0.627801 0.944530 3.231000 126 112 123
-0.616337 0.932835 3.172000 127 112 123
-0.599821 0.913241 3.087000 127 112 124
-0.550662 0.878082 2.834000 126 112 125
-0.550662 0.883043 2.834000 128 114 124
-0.545999 0.880484 2.810000 127 115 124
-0.541724 0.878471 2.788000 126 113 125
-0.537255 0.876064 2.765000 125 111 127
-0.528900 0.867205 2.722000 125 111 128
-0.524819 0.865243 2.701000 126 112 129
-0.516658 0.856443 2.659000 127 111 130
-0.516658 0.861097 2.659000 127 110 131
-0.508886 0.852728 2.619000 127 110 130
-0.505000 0.850766 2.599000 127 112 129
-0.497422 0.842481 2.560000 127 113 130
-0.490233 0.834721 2.523000 127 113 132
-0.483238 0.827164 2.487000 127 113 130
-0.479740 0.825499 2.469000 125 114 129
-0.479740 0.829821 2.469000 124 114 129
-0.476243 0.828062 2.451000 125 115 130
-0.472940 0.826579 2.434000 126 113 130
-0.466333 0.819234 2.400000 125 110 129
-0.463224 0.817946 2.384000 124 111 128
-0.459921 0.816257 2.367000 124 110 127
-0.453703 0.809309 2.335000 124 111 124
-0.450789 0.808171 2.320000 123 110 122
-0.447680 0.806631 2.304000 122 108 124
-0.444765 0.805386 2.289000 125 108 126
-0.441851 0.804089 2.274000 128 110 126
-0.433301 0.792434 2.230000 130 111 127
-0.430387 0.790981 2.215000 133 112 128
-0.427667 0.789834 2.201000 129 111 129
-0.424946 0.788639 2.187000 126 110 126
-0.422420 0.787757 2.174000 125 109 123
-0.422420 0.791562 2.174000 125 110 124
-0.419700 0.790246 2.160000 125 108 126
-0.409402 0.774544 2.107000 125 106 125
-0.407070 0.773800 2.095000 127 106 124
-0.402018 0.767819 2.069000 130 106 127
-0.399687 0.766966 2.057000 126 107 131
-0.397355 0.766071 2.045000 123 107 126
-0.395023 0.765135 2.033000 121 108 122
-0.392692 0.764156 2.021000 120 107 124
-0.390360 0.763136 2.009000 117 106 126
-0.388222 0.762455 1.998000 114 104 128
-0.385891 0.761352 1.986000 115 102 131
-0.383753 0.760592 1.975000 117 102 127
-0.381616 0.759794 1.964000 116 101 124
-0.379284 0.758569 1.952000 116 102 123
-0.672595 0.984434 3.493000 127 110 121
-0.659116 0.976690 3.423000 127 110 127
-0.550130 0.885209 2.857000 130 115 125
-0.550130 0.890210 2.857000 129 117 124
-0.541080 0.880484 2.810000 128 116 124
-0.532415 0.871224 2.765000 128 115 127
-0.532415 0.876064 2.765000 127 113 131
-0.524135 0.867205 2.722000 127 112 130
-0.520091 0.865243 2.701000 127 113 130
-0.516047 0.863207 2.680000 128 114 132
-0.512004 0.861097 2.659000 128 112 134
-0.508153 0.859240 2.639000 128 112 130
-0.500450 0.850766 2.599000 128 113 127
-0.496792 0.849063 2.580000 128 115 129
-0.485816 0.834721 2.523000 128 113 131
-0.478884 0.827164 2.487000 129 113 130
-0.475418 0.825499 2.469000 127 113 130
-0.471952 0.823771 2.451000 126 115 129
-0.471952 0.828062 2.451000 127 115 128
-0.468679 0.826579 2.434000 128 116 129
-0.462132 0.819234 2.400000 126 113 130
-0.459051 0.817946 2.384000 125 113 129
-0.452697 0.810739 2.351000 125 111 129
-0.446728 0.804110 2.320000 125 111 128
-0.446728 0.808171 2.320000 124 110 128
-0.443647 0.806631 2.304000 124 108 127
-0.443647 0.810664 2.304000 126 109 126
-0.437870 0.804089 2.274000 128 113 123
-0.432093 0.797409 2.244000 129 112 120
-0.429398 0.796338 2.230000 131 112 124
-0.421118 0.784811 2.187000 127 111 129
-0.418615 0.783951 2.174000 124 110 124
-0.415919 0.782684 2.160000 125 111 120
-0.415919 0.786465 2.160000 126 112 122
-0.413416 0.785490 2.147000 126 108 124
-0.408217 0.779323 2.120000 125 106 122
-0.403403 0.773800 2.095000 126 106 121
-0.398396 0.767819 2.069000 127 107 127
-0.393775 0.762492 2.045000 125 107 134
-0.391464 0.761576 2.033000 123 107 130
-0.391464 0.765135 2.033000 122 107 126
-0.389154 0.764156 2.021000 120 109 126
-0.389154 0.767694 2.021000 118 106 126
-0.385688 0.764363 2.003000 116 105 126
-0.382414 0.761352 1.986000 116 103 126
-0.380296 0.760592 1.975000 116 102 124
-0.378178 0.759794 1.964000 115 102 123
-0.373749 0.754294 1.941000 115 104 122
-0.666480 0.978320 3.493000 128 110 123
-0.666480 0.984434 3.493000 128 111 124
-0.659802 0.980623 3.458000 129 112 127
-0.653124 0.976690 3.423000 128 112 130
-0.559057 0.897569 2.930000 133 113 130
-0.549708 0.892645 2.881000 133 118 126
-0.545129 0.890210 2.857000 131 117 126
-0.536161 0.880484 2.810000 130 118 126
-0.531963 0.878471 2.788000 130 116 128
-0.527575 0.876064 2.765000 129 115 130
