ply
format ascii 1.0
element vertex 1309
property float x
property float y
property float z
property uchar red
property uchar green
property uchar blue
end_header
-0.049294 0.846962 2.560000 82 71 87
-0.049294 0.851443 2.560000 83 71 84
-0.048582 0.843554 2.523000 80 70 81
-0.047542 0.829821 2.469000 77 70 86
-0.047195 0.828062 2.451000 79 70 91
-0.046868 0.826579 2.434000 82 70 88
-0.046868 0.830840 2.434000 83 68 86
-0.046541 0.829268 2.417000 84 70 86
-0.046213 0.827637 2.400000 82 73 86
-0.045578 0.820400 2.367000 81 70 85
-0.044962 0.813396 2.335000 80 67 85
-0.044673 0.812232 2.320000 80 69 86
-0.044076 0.805386 2.289000 79 72 87
-0.043498 0.798785 2.259000 78 71 87
-0.043209 0.797409 2.244000 79 71 88
-0.042940 0.796338 2.230000 80 72 87
-0.042651 0.794858 2.215000 80 74 87
-0.042381 0.793687 2.201000 80 74 87
-0.042112 0.792467 2.187000 77 73 87
-0.041592 0.786465 2.160000 74 71 88
-0.041342 0.785490 2.147000 76 69 89
-0.041072 0.784102 2.133000 79 71 89
-0.040822 0.783034 2.120000 78 72 89
-0.040571 0.781920 2.107000 78 72 90
-0.040090 0.776287 2.082000 77 73 91
-0.040090 0.779932 2.082000 77 72 92
-0.039840 0.778684 2.069000 74 71 93
-0.039609 0.777768 2.057000 71 70 94
-0.039378 0.776811 2.045000 75 67 95
-0.038915 0.771232 2.021000 79 65 91
-0.038473 0.765952 1.998000 79 64 88
-0.038242 0.764829 1.986000 80 66 91
-0.038030 0.764050 1.975000 80 67 94
-0.058764 0.957858 3.357000 82 70 92
-0.058187 0.954261 3.324000 82 72 87
-0.058187 0.960079 3.324000 83 71 83
-0.057644 0.956890 3.293000 84 72 82
-0.057101 0.953592 3.262000 83 69 82
-0.057101 0.959302 3.262000 81 70 81
-0.056559 0.955841 3.231000 82 73 81
-0.055526 0.943940 3.172000 83 74 84
-0.055526 0.949493 3.172000 83 71 88
-0.055018 0.946313 3.143000 84 70 83
-0.055018 0.951815 3.143000 82 71 79
-0.054528 0.948789 3.115000 81 73 81
-0.051290 0.897569 2.930000 81 74 83
-0.050852 0.894996 2.905000 81 75 89
-0.050432 0.892645 2.881000 79 74 95
-0.050432 0.897688 2.881000 77 73 91
-0.050012 0.895211 2.857000 79 73 88
-0.049189 0.885403 2.810000 81 71 87
-0.048401 0.876064 2.765000 80 69 87
-0.048401 0.880904 2.765000 80 69 88
-0.048016 0.878697 2.743000 80 70 90
-0.047649 0.876735 2.722000 81 72 88
-0.046546 0.861097 2.659000 80 72 87
-0.045495 0.846216 2.599000 79 73 87
-0.045163 0.844546 2.580000 79 73 88
-0.045163 0.849063 2.580000 80 74 87
-0.044813 0.846962 2.560000 81 73 87
-0.044813 0.851443 2.560000 82 73 86
-0.044165 0.843554 2.523000 80 71 85
-0.043535 0.835871 2.487000 78 72 90
-0.043220 0.834143 2.469000 79 72 95
-0.042905 0.832352 2.451000 81 74 90
-0.042607 0.830840 2.434000 80 72 85
-0.042310 0.829268 2.417000 80 73 85
-0.041732 0.822119 2.384000 80 72 86
-0.041434 0.820400 2.367000 80 69 85
-0.040874 0.813396 2.335000 80 68 85
-0.040874 0.817484 2.335000 80 69 86
-0.040069 0.805386 2.289000 79 71 88
-0.039806 0.804089 2.274000 78 72 91
-0.039281 0.797409 2.244000 79 72 95
-0.039036 0.796338 2.230000 81 73 92
-0.038529 0.789834 2.201000 81 72 89
-0.038529 0.793687 2.201000 82 73 88
-0.038283 0.792467 2.187000 80 72 88
-0.037811 0.786465 2.160000 77 71 88
-0.037583 0.785490 2.147000 79 72 88
-0.037338 0.784102 2.133000 80 76 90
-0.037111 0.783034 2.120000 80 70 93
-0.036883 0.781920 2.107000 80 67 91
-0.036445 0.776287 2.082000 79 69 90
-0.036445 0.779932 2.082000 78 71 91
-0.036218 0.778684 2.069000 76 70 93
-0.036008 0.777768 2.057000 74 71 93
-0.035588 0.772252 2.033000 77 68 93
-0.035378 0.771232 2.021000 81 65 92
-0.034765 0.761352 1.986000 80 65 92
-0.034572 0.760592 1.975000 80 67 95
-0.034380 0.759794 1.964000 79 66 98
-0.052888 0.957858 3.357000 82 72 87
-0.052368 0.954261 3.324000 82 72 84
-0.051880 0.951126 3.293000 82 73 82
-0.051391 0.947882 3.262000 82 71 81
-0.051391 0.953592 3.262000 81 69 80
-0.051391 0.959302 3.262000 80 71 80
-0.050903 0.955841 3.231000 82 74 80
-0.050430 0.952570 3.201000 84 72 82
-0.049973 0.949493 3.172000 83 68 85
-0.049973 0.955045 3.172000 83 69 81
-0.049516 0.951815 3.143000 82 72 77
-0.049075 0.948789 3.115000 82 72 78
-0.046161 0.897569 2.930000 82 72 79
-0.046161 0.902698 2.930000 82 73 85
-0.045767 0.900081 2.905000 79 74 90
-0.045389 0.897688 2.881000 76 73 88
-0.045011 0.895211 2.857000 79 74 87
-0.043924 0.878471 2.788000 82 71 86
-0.043561 0.876064 2.765000 81 68 85
-0.043561 0.880904 2.765000 80 68 86
-0.043215 0.878697 2.743000 81 71 87
-0.042884 0.876735 2.722000 82 71 85
-0.042884 0.881499 2.722000 79 72 84
-0.040946 0.846216 2.599000 77 72 85
-0.040647 0.844546 2.580000 78 73 86
-0.040332 0.842481 2.560000 79 74 86
-0.040332 0.846962 2.560000 80 76 86
-0.040048 0.845457 2.542000 81 74 85
-0.039749 0.843554 2.523000 80 72 85
-0.039182 0.835871 2.487000 79 71 87
-0.038898 0.834143 2.469000 79 74 89
-0.038614 0.832352 2.451000 80 73 87
-0.038079 0.825037 2.417000 78 74 84
-0.037811 0.823435 2.400000 77 73 85
-0.037559 0.822119 2.384000 78 74 86
-0.037291 0.820400 2.367000 79 70 88
-0.036787 0.813396 2.335000 80 68 90
-0.036787 0.817484 2.335000 81 70 88
-0.036062 0.805386 2.289000 80 72 87
-0.035826 0.804089 2.274000 79 72 87
-0.035353 0.797409 2.244000 80 73 88
-0.035133 0.796338 2.230000 82 72 88
-0.034896 0.794858 2.215000 83 71 88
-0.034676 0.793687 2.201000 85 71 89
-0.034455 0.792467 2.187000 83 71 90
-0.034030 0.786465 2.160000 81 70 89
-0.033825 0.785490 2.147000 81 73 88
-0.033604 0.784102 2.133000 82 71 89
-0.033400 0.783034 2.120000 82 68 91
-0.033195 0.781920 2.107000 83 67 89
-0.032801 0.776287 2.082000 81 67 88
-0.032801 0.779932 2.082000 80 69 89
-0.032596 0.778684 2.069000 79 70 91
-0.032407 0.777768 2.057000 78 69 90
-0.032029 0.772252 2.033000 80 69 90
-0.031651 0.766653 2.009000 83 68 90
-0.031288 0.761352 1.986000 81 67 90
-0.031115 0.760592 1.975000 80 67 91
-0.030942 0.759794 1.964000 79 66 93
-0.047474 0.961340 3.390000 81 73 78
-0.047011 0.957858 3.357000 81 71 82
-0.047011 0.963734 3.357000 81 71 82
-0.046549 0.960079 3.324000 80 72 82
-0.046115 0.956890 3.293000 79 73 80
-0.045681 0.953592 3.262000 79 72 79
-0.045681 0.959302 3.262000 80 72 79
-0.045247 0.955841 3.231000 82 73 80
-0.044421 0.943940 3.172000 84 72 81
-0.044421 0.949493 3.172000 85 69 82
-0.044015 0.946313 3.143000 85 68 79
-0.044015 0.951815 3.143000 83 70 76
-0.043622 0.948789 3.115000 81 72 76
-0.041382 0.905227 2.955000 82 73 76
-0.041032 0.902698 2.930000 84 74 81
-0.040682 0.900081 2.905000 81 72 86
-0.040345 0.897688 2.881000 78 71 86
-0.040009 0.895211 2.857000 80 71 86
-0.039351 0.885403 2.810000 82 72 85
-0.038721 0.876064 2.765000 82 69 84
-0.038721 0.880904 2.765000 81 67 84
-0.038721 0.885744 2.765000 83 69 84
-0.038413 0.883499 2.743000 84 72 83
-0.038119 0.881499 2.722000 81 72 82
-0.036130 0.840030 2.580000 78 72 83
-0.036130 0.844546 2.580000 79 73 85
-0.035850 0.842481 2.560000 80 74 85
-0.035598 0.841007 2.542000 80 75 86
-0.035598 0.845457 2.542000 81 76 85
-0.035332 0.843554 2.523000 80 72 85
-0.035080 0.841921 2.505000 79 69 84
-0.034828 0.840224 2.487000 79 70 84
-0.034324 0.832352 2.451000 79 72 84
-0.034086 0.830840 2.434000 78 72 84
-0.033848 0.829268 2.417000 77 72 85
-0.033386 0.822119 2.384000 78 72 86
-0.033147 0.820400 2.367000 80 72 90
-0.032489 0.808171 2.320000 79 70 95
-0.032265 0.806631 2.304000 79 71 91
-0.032055 0.805386 2.289000 78 71 87
-0.031845 0.804089 2.274000 76 71 84
-0.031425 0.797409 2.244000 78 72 81
-0.031229 0.796338 2.230000 80 73 84
-0.031019 0.794858 2.215000 82 71 88
-0.030823 0.793687 2.201000 83 70 90
-0.030627 0.792467 2.187000 82 70 92
-0.030445 0.791562 2.174000 80 68 90
-0.030249 0.790246 2.160000 80 70 89
-0.030067 0.789248 2.147000 80 68 89
-0.029688 0.783034 2.120000 80 68 89
-0.029338 0.777467 2.095000 80 68 88
-0.029156 0.776287 2.082000 80 69 87
-0.029156 0.779932 2.082000 79 71 88
-0.028974 0.778684 2.069000 78 69 89
-0.028806 0.777768 2.057000 77 69 88
-0.028470 0.772252 2.033000 77 69 87
-0.027980 0.762455 1.998000 77 71 87
-0.027812 0.761352 1.986000 78 68 88
-0.027658 0.760592 1.975000 79 68 88
-0.027504 0.759794 1.964000 78 67 89
-0.042802 0.978320 3.493000 85 72 79
-0.041539 0.955406 3.390000 82 72 76
-0.041539 0.961340 3.390000 79 71 79
-0.041539 0.967274 3.390000 80 71 82
-0.041135 0.963734 3.357000 81 71 81
-0.041135 0.969611 3.357000 78 72 80
-0.040731 0.965898 3.324000 76 73 78
-0.039971 0.953592 3.262000 78 74 75
-0.039971 0.959302 3.262000 81 73 76
-0.039224 0.946967 3.201000 83 74 77
-0.038868 0.943940 3.172000 85 72 79
-0.038513 0.940812 3.143000 86 70 81
-0.038513 0.946313 3.143000 88 69 82
-0.038170 0.943336 3.115000 84 71 83
-0.038170 0.948789 3.115000 80 71 81
-0.037165 0.929122 3.033000 83 74 80
-0.035596 0.894996 2.905000 87 74 85
-0.035596 0.900081 2.905000 84 72 91
-0.035302 0.897688 2.881000 81 70 88
-0.035008 0.895211 2.857000 82 69 86
-0.034163 0.878471 2.788000 83 71 84
-0.033881 0.876064 2.765000 83 69 83
-0.033881 0.880904 2.765000 83 69 83
-0.033881 0.885744 2.765000 85 69 84
-0.033611 0.883499 2.743000 87 70 82
-0.033354 0.881499 2.722000 83 73 80
-0.031614 0.840030 2.580000 80 72 84
-0.031614 0.844546 2.580000 81 73 88
-0.031369 0.842481 2.560000 82 73 87
-0.031148 0.841007 2.542000 81 75 86
-0.031148 0.845457 2.542000 81 74 86
-0.030916 0.843554 2.523000 80 72 86
-0.030695 0.841921 2.505000 80 69 82
-0.030474 0.840224 2.487000 79 68 77
-0.030254 0.838465 2.469000 78 71 82
-0.029825 0.830840 2.434000 77 72 87
-0.029617 0.829268 2.417000 77 70 86
-0.029212 0.822119 2.384000 79 70 85
-0.029004 0.820400 2.367000 81 70 87
-0.028428 0.808171 2.320000 79 70 89
-0.028232 0.806631 2.304000 78 71 88
-0.028048 0.805386 2.289000 76 71 87
-0.027864 0.804089 2.274000 74 70 85
-0.027497 0.797409 2.244000 76 71 83
-0.027325 0.796338 2.230000 79 71 86
-0.026970 0.789834 2.201000 80 71 89
-0.026798 0.788639 2.187000 82 71 89
-0.026798 0.792467 2.187000 81 72 89
-0.026639 0.791562 2.174000 80 69 88
-0.026137 0.780368 2.133000 79 71 88
-0.026308 0.789248 2.147000 78 71 88
-0.025977 0.783034 2.120000 78 71 88
-0.025671 0.777467 2.095000 78 70 87
-0.025512 0.776287 2.082000 78 71 86
-0.025512 0.779932 2.082000 79 68 85
-0.025353 0.778684 2.069000 78 67 83
-0.025205 0.777768 2.057000 77 69 85
-0.024911 0.772252 2.033000 74 70 87
-0.024483 0.762455 1.998000 72 69 89
-0.024335 0.761352 1.986000 75 69 92
-0.024201 0.760592 1.975000 78 68 90
-0.024066 0.759794 1.964000 78 69 88
-0.037832 1.002543 3.602000 82 70 79
-0.037055 0.988122 3.528000 84 72 78
-0.036320 0.974570 3.458000 82 71 77
-0.035952 0.970698 3.423000 80 71 79
-0.035605 0.967274 3.390000 81 70 82
-0.035605 0.973208 3.390000 82 71 80
-0.035259 0.969611 3.357000 82 71 79
-0.034912 0.965898 3.324000 82 74 75
-0.034587 0.962654 3.293000 81 73 72
-0.034261 0.959302 3.262000 81 72 73
-0.033620 0.946967 3.201000 82 73 75
-0.033316 0.943940 3.172000 84 72 77
-0.033011 0.940812 3.143000 85 70 80
-0.033011 0.946313 3.143000 86 69 85
-0.032717 0.943336 3.115000 83 69 91
-0.032423 0.940260 3.087000 81 69 87
-0.032129 0.937087 3.059000 82 73 84
-0.030774 0.902698 2.930000 84 76 90
-0.030774 0.907827 2.930000 82 73 96
-0.030511 0.905166 2.905000 81 71 91
-0.030007 0.895211 2.857000 81 72 87
-0.029282 0.878471 2.788000 82 75 84
-0.029041 0.876064 2.765000 81 72 82
-0.029041 0.880904 2.765000 80 71 83
-0.029041 0.885744 2.765000 82 69 84
-0.028810 0.883499 2.743000 85 69 81
-0.028369 0.874699 2.701000 82 71 78
-0.027098 0.840030 2.580000 80 73 85
-0.027098 0.844546 2.580000 81 72 92
-0.026888 0.842481 2.560000 83 71 89
-0.026699 0.841007 2.542000 82 72 87
-0.026699 0.845457 2.542000 81 74 87
-0.026499 0.843554 2.523000 80 70 88
-0.026310 0.841921 2.505000 80 67 79
-0.026121 0.840224 2.487000 79 69 71
-0.025932 0.838465 2.469000 78 73 80
-0.025743 0.836643 2.451000 77 71 90
-0.025386 0.829268 2.417000 77 69 87
-0.025039 0.822119 2.384000 79 69 85
-0.024861 0.820400 2.367000 81 68 84
-0.024693 0.818970 2.351000 80 70 84
-0.024525 0.817484 2.335000 79 72 85
-0.024041 0.805386 2.289000 77 69 87
-0.023884 0.804089 2.274000 75 67 86
-0.023569 0.797409 2.244000 77 70 86
-0.023264 0.790981 2.215000 78 72 88
-0.023117 0.789834 2.201000 79 71 90
-0.022970 0.788639 2.187000 80 71 88
-0.022970 0.792467 2.187000 81 70 86
-0.022834 0.791562 2.174000 81 68 87
-0.022687 0.790246 2.160000 79 70 88
-0.022550 0.789248 2.147000 77 74 87
-0.022266 0.783034 2.120000 77 72 87
-0.022004 0.777467 2.095000 77 71 86
-0.021867 0.776287 2.082000 74 69 86
-0.021867 0.779932 2.082000 72 66 82
-0.021731 0.778684 2.069000 74 68 78
-0.021605 0.777768 2.057000 77 71 82
-0.021353 0.772252 2.033000 77 70 87
-0.020859 0.757876 1.986000 78 69 91
-0.020744 0.757135 1.975000 78 68 96
-0.020628 0.756356 1.964000 78 68 92
-0.020628 0.759794 1.964000 77 69 88
-0.031203 0.986004 3.565000 80 69 76
-0.030572 0.972205 3.493000 81 69 74
-0.030572 0.978320 3.493000 83 71 76
-0.030266 0.974570 3.458000 82 72 78
-0.029960 0.970698 3.423000 82 71 80
-0.029671 0.967274 3.390000 83 70 82
-0.029382 0.963734 3.357000 84 70 81
-0.029382 0.969611 3.357000 86 70 80
-0.029093 0.965898 3.324000 88 72 77
-0.028551 0.953592 3.262000 84 73 75
-0.028279 0.950186 3.231000 81 73 76
-0.027763 0.938387 3.172000 82 74 77
-0.027509 0.935310 3.143000 84 72 79
-0.027019 0.924049 3.087000 84 72 81
-0.027019 0.929453 3.087000 84 70 84
-0.026774 0.926377 3.059000 83 68 87
-0.026546 0.923813 3.033000 83 70 85
-0.026310 0.920851 3.006000 82 74 84
-0.025426 0.894996 2.905000 81 75 87
-0.025426 0.900081 2.905000 81 73 90
-0.025216 0.897688 2.881000 82 73 87
-0.025006 0.895211 2.857000 81 76 85
-0.024402 0.878471 2.788000 81 75 83
-0.024201 0.876064 2.765000 79 73 81
-0.024008 0.873895 2.743000 78 71 83
-0.024008 0.878697 2.743000 80 69 84
-0.023824 0.876735 2.722000 83 69 82
-0.023457 0.867898 2.680000 81 71 80
-0.022923 0.852728 2.619000 80 73 84
-0.022406 0.838000 2.560000 82 72 89
-0.022406 0.842481 2.560000 84 71 87
-0.022249 0.841007 2.542000 82 70 85
-0.022249 0.845457 2.542000 81 70 86
-0.022083 0.843554 2.523000 81 69 86
-0.021767 0.835871 2.487000 81 68 82
-0.021610 0.834143 2.469000 79 68 78
-0.021452 0.832352 2.451000 78 70 84
-0.021155 0.825037 2.417000 77 70 89
-0.020866 0.817946 2.384000 77 69 87
-0.020577 0.810739 2.351000 79 69 85
-0.020437 0.809309 2.335000 81 68 82
-0.020306 0.808171 2.320000 80 70 79
-0.020306 0.812232 2.320000 80 69 82
-0.020166 0.810664 2.304000 78 69 85
-0.020034 0.809393 2.289000 77 68 85
-0.019772 0.802739 2.259000 77 70 86
-0.019264 0.785982 2.201000 78 70 88
-0.019142 0.784811 2.187000 78 70 90
-0.019028 0.783951 2.174000 79 70 86
-0.018905 0.782684 2.160000 81 72 83
-0.018792 0.781731 2.147000 83 70 85
-0.018792 0.785490 2.147000 79 69 87
-0.018669 0.784102 2.133000 76 72 87
-0.018442 0.778232 2.107000 76 73 88
-0.018223 0.772643 2.082000 76 71 88
-0.018109 0.771440 2.069000 71 70 89
-0.018004 0.770567 2.057000 66 68 86
-0.017899 0.769651 2.045000 71 71 83
-0.017689 0.764156 2.021000 77 71 84
-0.017584 0.763136 2.009000 81 72 85
-0.017382 0.757876 1.986000 85 69 89
-0.017286 0.757135 1.975000 81 68 92
-0.017190 0.756356 1.964000 78 68 88
-0.017085 0.755152 1.952000 77 70 85
-0.024458 0.972205 3.493000 81 69 69
-0.024458 0.978320 3.493000 83 71 74
-0.024213 0.974570 3.458000 83 71 79
-0.023968 0.970698 3.423000 83 71 80
-0.023737 0.967274 3.390000 83 70 82
-0.023737 0.973208 3.390000 83 72 82
-0.023737 0.979142 3.390000 84 70 82
-0.023506 0.975487 3.357000 85 71 80
-0.023058 0.962654 3.293000 83 71 78
-0.022841 0.959302 3.262000 81 73 79
-0.022413 0.946967 3.201000 82 72 80
-0.022007 0.935310 3.143000 83 72 81
-0.021615 0.924049 3.087000 83 71 83
-0.021615 0.929453 3.087000 83 71 83
-0.021419 0.926377 3.059000 83 70 84
-0.021237 0.923813 3.033000 83 72 84
-0.020866 0.912886 2.980000 82 74 84
-0.020341 0.894996 2.905000 81 77 84
-0.020341 0.900081 2.905000 81 75 84
-0.020173 0.897688 2.881000 82 74 84
-0.020005 0.895211 2.857000 81 75 84
-0.019676 0.885403 2.810000 81 76 82
-0.019361 0.876064 2.765000 81 73 81
-0.019361 0.880904 2.765000 81 72 83
-0.019207 0.878697 2.743000 81 70 85
-0.019060 0.876735 2.722000 82 70 83
-0.018765 0.867898 2.680000 81 71 82
-0.018338 0.852728 2.619000 80 76 84
-0.017925 0.838000 2.560000 80 72 86
-0.017925 0.842481 2.560000 81 71 85
-0.017799 0.841007 2.542000 80 69 84
-0.017799 0.845457 2.542000 78 67 84
-0.017666 0.843554 2.523000 79 69 85
-0.017414 0.835871 2.487000 81 70 85
-0.017414 0.840224 2.487000 80 69 86
-0.017162 0.832352 2.451000 79 69 87
-0.016924 0.825037 2.417000 78 69 89
-0.016462 0.806624 2.351000 77 69 87
-0.016350 0.805221 2.335000 80 68 86
-0.016245 0.804110 2.320000 84 68 80
-0.016245 0.808171 2.320000 82 68 75
-0.016133 0.806631 2.304000 80 68 79
-0.016028 0.805386 2.289000 79 68 83
-0.016028 0.809393 2.289000 78 69 85
-0.015713 0.797409 2.244000 78 70 87
-0.015509 0.790981 2.215000 78 71 88
-0.015313 0.784811 2.187000 78 70 90
-0.015222 0.783951 2.174000 78 69 85
-0.015124 0.782684 2.160000 79 70 81
-0.015124 0.786465 2.160000 81 72 83
-0.015033 0.785490 2.147000 78 72 86
-0.015033 0.789248 2.147000 76 74 88
-0.014844 0.783034 2.120000 76 72 90
-0.014487 0.767819 2.069000 77 72 91
-0.014487 0.771440 2.069000 74 69 92
-0.014487 0.775062 2.069000 71 67 90
-0.014319 0.769651 2.045000 74 69 89
-0.014235 0.768694 2.033000 77 70 86
-0.014067 0.763136 2.009000 79 70 84
-0.013906 0.757876 1.986000 81 70 86
-0.013829 0.757135 1.975000 79 69 89
-0.013752 0.756356 1.964000 77 69 85
-0.013668 0.755152 1.952000 76 69 82
-0.018527 0.981947 3.528000 81 68 73
-0.018343 0.978320 3.493000 83 69 76
-0.018160 0.974570 3.458000 83 70 79
-0.018160 0.980623 3.458000 84 70 81
-0.017976 0.976690 3.423000 83 68 83
-0.017976 0.982682 3.423000 82 69 83
-0.017803 0.979142 3.390000 82 68 84
-0.017629 0.975487 3.357000 83 69 82
-0.017293 0.962654 3.293000 82 69 80
-0.017130 0.959302 3.262000 82 71 80
-0.016810 0.946967 3.201000 82 71 81
-0.016658 0.943940 3.172000 83 70 81
-0.016211 0.924049 3.087000 82 69 82
-0.016211 0.929453 3.087000 82 70 83
-0.016064 0.926377 3.059000 82 71 84
-0.015928 0.923813 3.033000 83 71 84
-0.015649 0.912886 2.980000 82 73 84
-0.015256 0.894996 2.905000 81 74 84
-0.015130 0.892645 2.881000 82 76 84
-0.015130 0.897688 2.881000 83 74 83
-0.015003 0.895211 2.857000 82 77 82
-0.014757 0.885403 2.810000 81 74 83
-0.014520 0.876064 2.765000 83 72 84
-0.014405 0.873895 2.743000 85 70 87
-0.014295 0.871970 2.722000 83 72 90
-0.014184 0.869971 2.701000 81 71 86
-0.014074 0.867898 2.680000 80 69 83
-0.013754 0.852728 2.619000 80 71 84
-0.013549 0.844546 2.580000 79 72 85
-0.013444 0.842481 2.560000 79 71 84
-0.013349 0.841007 2.542000 77 69 84
-0.013250 0.839137 2.523000 76 69 83
-0.013155 0.837536 2.505000 78 72 83
-0.013060 0.835871 2.487000 81 70 84
-0.013060 0.840224 2.487000 80 69 85
-0.012871 0.832352 2.451000 80 68 88
-0.012693 0.825037 2.417000 78 68 92
-0.012346 0.806624 2.351000 77 67 90
-0.012262 0.805221 2.335000 82 67 89
-0.012183 0.804110 2.320000 87 68 87
-0.012099 0.802597 2.304000 83 66 86
-0.012099 0.806631 2.304000 80 67 85
-0.012021 0.805386 2.289000 80 67 84
-0.011942 0.804089 2.274000 80 68 85
-0.011711 0.792434 2.230000 79 71 86
-0.011632 0.790981 2.215000 78 70 90
-0.011485 0.784811 2.187000 78 71 93
-0.011417 0.783951 2.174000 78 70 88
-0.011343 0.782684 2.160000 78 69 84
-0.011343 0.786465 2.160000 79 72 84
-0.011275 0.785490 2.147000 78 74 85
-0.011201 0.784102 2.133000 77 72 86
-0.011065 0.778232 2.107000 77 72 88
-0.010865 0.767819 2.069000 78 70 89
-0.010934 0.776287 2.082000 77 69 90
-0.010865 0.775062 2.069000 76 68 92
-0.010739 0.769651 2.045000 76 70 94
-0.010613 0.764156 2.021000 77 69 88
-0.010492 0.758957 1.998000 77 71 83
-0.010429 0.757876 1.986000 78 70 85
-0.010372 0.757135 1.975000 77 70 88
-0.010314 0.756356 1.964000 77 68 86
-0.010251 0.755152 1.952000 74 68 85
-0.012229 0.978320 3.493000 83 69 78
-0.012107 0.974570 3.458000 84 70 79
-0.011984 0.970698 3.423000 85 72 82
-0.011984 0.976690 3.423000 83 69 85
-0.011868 0.973208 3.390000 82 68 85
-0.011753 0.969611 3.357000 82 68 86
-0.011753 0.975487 3.357000 82 69 84
-0.011637 0.971717 3.324000 82 70 82
-0.011529 0.968419 3.293000 81 71 82
-0.011529 0.974183 3.293000 82 69 82
-0.011105 0.943940 3.172000 83 68 82
-0.010906 0.932430 3.115000 83 69 82
-0.010710 0.921022 3.059000 84 72 83
-0.010619 0.918503 3.033000 83 71 84
-0.010524 0.915589 3.006000 83 71 84
-0.010433 0.912886 2.980000 82 72 85
-0.010170 0.894996 2.905000 80 73 85
-0.010086 0.892645 2.881000 81 72 85
-0.010002 0.890210 2.857000 82 72 83
-0.009922 0.888004 2.834000 82 74 81
-0.009761 0.878471 2.788000 82 74 84
-0.009680 0.876064 2.765000 82 70 88
-0.009603 0.873895 2.743000 83 67 91
-0.009530 0.871970 2.722000 81 71 95
-0.009383 0.863207 2.680000 80 74 89
-0.009239 0.854620 2.639000 80 70 84
-0.009099 0.846216 2.599000 80 69 84
-0.009033 0.844546 2.580000 79 71 84
-0.008963 0.842481 2.560000 79 72 84
-0.008900 0.841007 2.542000 80 69 84
-0.008833 0.839137 2.523000 81 69 83
-0.008770 0.837536 2.505000 81 70 82
-0.008707 0.835871 2.487000 81 72 83
-0.008707 0.840224 2.487000 80 69 84
-0.008644 0.838465 2.469000 80 67 89
-0.008462 0.825037 2.417000 78 66 95
-0.008231 0.806624 2.351000 76 65 93
-0.008175 0.805221 2.335000 79 67 92
-0.008175 0.809309 2.335000 82 71 94
-0.008066 0.802597 2.304000 80 68 97
-0.008066 0.806631 2.304000 78 69 91
-0.008014 0.805386 2.289000 79 68 86
-0.008014 0.809393 2.289000 80 67 86
-0.007807 0.792434 2.230000 79 68 86
-0.007755 0.790981 2.215000 79 68 91
-0.007657 0.784811 2.187000 80 70 97
-0.007611 0.783951 2.174000 81 72 92
-0.007562 0.782684 2.160000 79 70 87
-0.007562 0.786465 2.160000 77 74 86
-0.007517 0.785490 2.147000 77 73 85
-0.007468 0.784102 2.133000 77 70 85
-0.007422 0.783034 2.120000 77 71 86
-0.007335 0.777467 2.095000 78 70 87
-0.007289 0.776287 2.082000 77 69 89
-0.007244 0.775062 2.069000 76 69 94
-0.007160 0.769651 2.045000 78 69 99
-0.007076 0.764156 2.021000 79 68 91
-0.006995 0.758957 1.998000 78 68 83
-0.006915 0.753678 1.975000 78 69 85
-0.006876 0.752918 1.964000 77 68 87
-0.006834 0.751735 1.952000 77 68 87
-0.006834 0.755152 1.952000 75 68 88
-0.006053 0.974570 3.458000 85 69 80
-0.006053 0.980623 3.458000 87 69 82
-0.005992 0.976690 3.423000 84 70 84
-0.005934 0.973208 3.390000 82 68 83
-0.005877 0.969611 3.357000 82 67 83
-0.005877 0.975487 3.357000 82 69 81
-0.005819 0.971717 3.324000 81 73 80
-0.005765 0.968419 3.293000 81 71 80
-0.005765 0.974183 3.293000 82 68 79
-0.005656 0.961497 3.231000 83 68 81
-0.005453 0.932430 3.115000 84 69 83
-0.005404 0.929453 3.087000 86 71 84
-0.005309 0.918503 3.033000 85 72 85
-0.005262 0.915589 3.006000 84 71 87
-0.005217 0.912886 2.980000 82 72 89
-0.005085 0.894996 2.905000 80 72 85
-0.005043 0.892645 2.881000 80 70 82
-0.005001 0.890210 2.857000 81 71 82
-0.004961 0.888004 2.834000 82 73 82
-0.004881 0.878471 2.788000 83 71 84
-0.004881 0.883351 2.788000 82 69 86
-0.004840 0.880904 2.765000 81 69 88
-0.004765 0.871970 2.722000 80 71 89
-0.004691 0.863207 2.680000 79 71 86
-0.004620 0.854620 2.639000 79 69 84
-0.004585 0.852728 2.619000 80 70 84
-0.004516 0.844546 2.580000 80 71 85
-0.004481 0.842481 2.560000 80 70 86
-0.004450 0.841007 2.542000 83 69 87
-0.004417 0.839137 2.523000 86 69 83
-0.004385 0.837536 2.505000 83 70 79
-0.004354 0.835871 2.487000 81 70 81
-0.004354 0.840224 2.487000 80 69 83
-0.004322 0.838465 2.469000 80 67 86
-0.004201 0.819234 2.400000 78 65 90
-0.004144 0.812113 2.367000 76 66 89
-0.004116 0.810739 2.351000 77 68 89
-0.004088 0.809309 2.335000 78 69 89
-0.004061 0.808171 2.320000 77 68 90
-0.004033 0.806631 2.304000 77 68 85
-0.004007 0.805386 2.289000 78 69 81
-0.004007 0.809393 2.289000 80 69 82
-0.003928 0.797409 2.244000 80 68 84
-0.003904 0.796338 2.230000 81 68 88
-0.003853 0.789834 2.201000 83 71 91
-0.003806 0.783951 2.174000 85 69 89
-0.003781 0.782684 2.160000 80 68 88
-0.003758 0.781731 2.147000 75 72 87
-0.003734 0.780368 2.133000 76 74 86
-0.003734 0.784102 2.133000 78 71 85
-0.003688 0.778232 2.107000 78 72 85
-0.003667 0.777467 2.095000 78 71 84
-0.003645 0.776287 2.082000 77 71 84
-0.003622 0.775062 2.069000 77 69 88
-0.003601 0.774167 2.057000 79 69 92
-0.003559 0.768694 2.033000 82 66 89
-0.003498 0.758957 1.998000 80 64 85
-0.003457 0.753678 1.975000 78 65 86
-0.003438 0.752918 1.964000 77 65 88
-0.003417 0.751735 1.952000 77 67 89
-0.003417 0.755152 1.952000 77 68 90
-0.000000 0.980623 3.458000 85 68 82
-0.000000 0.967274 3.390000 83 68 84
-0.000000 0.963734 3.357000 81 70 82
-0.000000 0.969611 3.357000 81 68 80
-0.000000 0.965898 3.324000 81 68 79
-0.000000 0.971717 3.324000 80 72 79
-0.000000 0.968419 3.293000 79 74 78
-0.000000 0.974183 3.293000 81 69 77
-0.000000 0.961497 3.231000 82 68 80
-0.000000 0.932430 3.115000 83 69 84
-0.000000 0.921022 3.059000 84 71 85
-0.000000 0.910327 3.006000 83 70 86
-0.000000 0.907670 2.980000 83 70 89
-0.000000 0.912886 2.980000 82 72 93
-0.000000 0.902698 2.930000 81 76 86
-0.000000 0.892645 2.881000 81 70 79
-0.000000 0.883043 2.834000 82 69 81
-0.000000 0.880484 2.810000 82 70 84
-0.000000 0.878471 2.788000 82 71 84
-0.000000 0.883351 2.788000 81 69 85
-0.000000 0.873895 2.743000 80 69 84
-0.000000 0.865243 2.701000 79 70 84
-0.000000 0.863207 2.680000 78 73 84
-0.000000 0.854620 2.639000 79 71 84
-0.000000 0.852728 2.619000 79 71 85
-0.000000 0.844546 2.580000 79 70 87
-0.000000 0.842481 2.560000 80 68 88
-0.000000 0.834721 2.523000 82 68 90
-0.000000 0.839137 2.523000 84 68 83
-0.000000 0.837536 2.505000 82 69 77
-0.000000 0.835871 2.487000 80 70 79
-0.000000 0.840224 2.487000 80 69 82
-0.000000 0.820806 2.417000 80 69 84
-0.000000 0.819234 2.400000 78 67 86
-0.000000 0.806624 2.351000 77 67 86
-0.000000 0.810739 2.351000 78 67 86
-0.000000 0.804110 2.320000 79 69 85
-0.000000 0.802597 2.304000 78 68 84
-0.000000 0.806631 2.304000 77 68 80
-0.000000 0.805386 2.289000 78 68 76
-0.000000 0.809393 2.289000 79 72 79
-0.000000 0.797409 2.244000 79 69 83
-0.000000 0.796338 2.230000 80 68 84
-0.000000 0.789834 2.201000 81 68 86
-0.000000 0.788639 2.187000 82 68 87
-0.000000 0.782684 2.160000 79 70 89
-0.000000 0.781731 2.147000 76 72 88
-0.000000 0.780368 2.133000 78 71 87
-0.000000 0.779323 2.120000 80 69 85
-0.000000 0.778232 2.107000 79 70 84
-0.000000 0.777467 2.095000 78 71 81
-0.000000 0.781134 2.095000 77 70 79
-0.000000 0.779932 2.082000 77 67 82
-0.000000 0.774167 2.057000 78 67 86
-0.000000 0.773231 2.045000 79 65 87
-0.000000 0.758957 1.998000 78 65 88
-0.000000 0.753678 1.975000 78 65 88
-0.000000 0.752918 1.964000 77 66 89
-0.000000 0.756356 1.964000 77 68 90
-0.000000 0.755152 1.952000 77 67 92
0.005876 0.957858 3.357000 81 67 80
0.005876 0.963734 3.357000 80 69 74
0.005819 0.960079 3.324000 80 68 69
0.005819 0.965898 3.324000 80 70 73
0.005819 0.971717 3.324000 79 74 77
0.005764 0.968419 3.293000 78 72 77
0.005764 0.974183 3.293000 80 69 78
0.005656 0.961497 3.231000 82 68 80
0.005355 0.915668 3.059000 82 68 82
0.005355 0.921022 3.059000 83 69 83
0.005262 0.910327 3.006000 82 70 85
0.005262 0.915589 3.006000 82 71 86
0.005173 0.905227 2.955000 82 73 88
0.005129 0.902698 2.930000 82 73 84
0.005043 0.892645 2.881000 82 68 81
0.005001 0.890210 2.857000 83 69 82
0.004961 0.888004 2.834000 82 69 83
0.004919 0.885403 2.810000 81 69 83
0.004880 0.883351 2.788000 80 69 84
0.004802 0.873895 2.743000 80 69 82
0.004728 0.865243 2.701000 79 70 81
0.004691 0.863207 2.680000 78 72 81
0.004620 0.854620 2.639000 78 73 81
0.004550 0.846216 2.599000 79 72 83
0.004481 0.838000 2.560000 79 72 84
0.004481 0.842481 2.560000 80 69 85
0.004417 0.834721 2.523000 81 68 87
0.004417 0.839137 2.523000 82 68 83
0.004385 0.837536 2.505000 81 69 79
0.004354 0.835871 2.487000 80 70 80
0.004354 0.840224 2.487000 80 71 81
0.004231 0.820806 2.417000 80 69 83
0.004173 0.813773 2.384000 79 67 84
0.004143 0.812113 2.367000 79 66 82
0.004087 0.805221 2.335000 79 67 80
0.004061 0.804110 2.320000 80 67 81
0.004033 0.802597 2.304000 79 69 82
0.004033 0.806631 2.304000 78 68 81
0.004007 0.805386 2.289000 78 66 79
0.004007 0.809393 2.289000 78 68 81
0.003928 0.797409 2.244000 79 68 83
0.003928 0.801337 2.244000 80 68 84
0.003877 0.794858 2.215000 80 68 86
0.003828 0.788639 2.187000 80 70 88
0.003781 0.782684 2.160000 79 72 91
0.003758 0.781731 2.147000 78 71 89
0.003734 0.780368 2.133000 80 72 88
0.003711 0.779323 2.120000 83 70 89
0.003688 0.778232 2.107000 80 71 90
0.003667 0.777467 2.095000 78 71 87
0.003667 0.781134 2.095000 77 71 84
0.003645 0.779932 2.082000 77 69 85
0.003601 0.774167 2.057000 77 70 86
0.003580 0.773231 2.045000 77 67 87
0.003477 0.754399 1.986000 77 67 88
0.003457 0.753678 1.975000 78 66 88
0.003438 0.752918 1.964000 77 68 88
0.003417 0.751735 1.952000 77 68 88
0.003398 0.750896 1.941000 77 67 89
0.011868 0.967274 3.390000 80 69 77
0.011753 0.963734 3.357000 79 74 67
0.011753 0.969611 3.357000 79 70 58
0.011637 0.965898 3.324000 80 70 67
0.011637 0.971717 3.324000 79 72 76
0.011529 0.968419 3.293000 79 74 77
0.011637 0.983354 3.324000 80 71 79
0.010709 0.910313 3.059000 81 69 80
0.010524 0.905065 3.006000 82 69 82
0.010524 0.910327 3.006000 82 70 84
0.010433 0.907670 2.980000 81 73 83
0.010345 0.905227 2.955000 81 73 83
0.010258 0.902698 2.930000 81 75 83
0.010086 0.892645 2.881000 81 71 84
0.010002 0.890210 2.857000 82 71 83
0.009922 0.888004 2.834000 80 69 82
0.009838 0.885403 2.810000 79 70 83
0.009680 0.876064 2.765000 79 69 84
0.009603 0.873895 2.743000 80 70 81
0.009456 0.865243 2.701000 79 70 78
0.009383 0.863207 2.680000 78 73 78
0.009239 0.854620 2.639000 78 73 79
0.009099 0.846216 2.599000 78 74 80
0.009033 0.844546 2.580000 78 72 82
0.008963 0.842481 2.560000 79 71 83
0.008833 0.834721 2.523000 80 69 84
0.008770 0.833151 2.505000 81 68 82
0.008707 0.831517 2.487000 79 69 81
0.008707 0.835871 2.487000 78 71 81
0.008644 0.834143 2.469000 79 71 81
0.008462 0.820806 2.417000 80 71 82
0.008402 0.819234 2.400000 80 67 83
0.008287 0.812113 2.367000 80 65 79
0.008175 0.805221 2.335000 80 65 75
0.008122 0.804110 2.320000 79 65 78
0.008066 0.802597 2.304000 78 68 81
0.008014 0.801379 2.289000 77 71 82
0.008014 0.805386 2.289000 77 69 83
0.007961 0.804089 2.274000 78 69 83
0.007856 0.797409 2.244000 78 68 83
0.007856 0.801337 2.244000 78 68 85
0.007755 0.794858 2.215000 78 69 87
0.007706 0.793687 2.201000 79 72 90
0.007611 0.787757 2.174000 77 70 93
0.007562 0.786465 2.160000 76 69 91
0.007468 0.780368 2.133000 78 69 90
0.007422 0.779323 2.120000 80 68 93
0.007377 0.778232 2.107000 78 71 96
0.007335 0.777467 2.095000 77 73 92
0.007335 0.781134 2.095000 74 70 89
0.007289 0.779932 2.082000 72 69 87
0.007244 0.778684 2.069000 74 68 86
0.007075 0.764156 2.021000 77 69 87
0.006953 0.754399 1.986000 78 68 88
0.006914 0.753678 1.975000 80 67 88
0.006876 0.752918 1.964000 76 69 88
0.006834 0.751735 1.952000 72 69 87
0.006795 0.750896 1.941000 73 67 86
0.017629 0.957858 3.357000 79 69 79
0.017629 0.963734 3.357000 78 71 76
0.017629 0.969611 3.357000 79 70 73
0.017629 0.975487 3.357000 80 70 75
0.017456 0.971717 3.324000 80 71 78
0.017293 0.968419 3.293000 81 72 79
0.017456 0.983354 3.324000 81 72 80
0.015518 0.900055 2.955000 81 70 84
0.015387 0.897569 2.930000 80 73 85
0.015387 0.902698 2.930000 80 73 84
0.015130 0.892645 2.881000 80 73 83
0.015003 0.890210 2.857000 81 70 82
0.014883 0.888004 2.834000 79 69 82
0.014757 0.885403 2.810000 77 69 82
0.014520 0.876064 2.765000 78 70 83
0.014295 0.867205 2.722000 80 69 79
0.014184 0.865243 2.701000 79 70 74
0.014074 0.863207 2.680000 78 71 77
0.013859 0.854620 2.639000 78 72 79
0.013649 0.846216 2.599000 78 72 80
0.013444 0.838000 2.560000 78 71 81
0.013444 0.842481 2.560000 78 70 83
0.013250 0.834721 2.523000 79 69 85
0.013155 0.833151 2.505000 80 68 82
0.013060 0.831517 2.487000 78 69 79
0.013060 0.835871 2.487000 77 70 80
0.012782 0.822318 2.434000 78 72 82
0.012693 0.820806 2.417000 80 70 83
0.012604 0.819234 2.400000 81 68 85
0.012430 0.812113 2.367000 82 65 82
0.012262 0.805221 2.335000 80 64 78
0.012183 0.804110 2.320000 79 66 80
0.012099 0.802597 2.304000 78 70 82
0.012021 0.801379 2.289000 77 70 83
0.012021 0.805386 2.289000 77 71 85
0.011942 0.804089 2.274000 78 68 85
0.011784 0.797409 2.244000 77 68 85
0.011711 0.796338 2.230000 77 68 86
0.011632 0.794858 2.215000 77 69 88
0.011559 0.793687 2.201000 78 69 89
0.011417 0.787757 2.174000 76 69 91
0.011275 0.781731 2.147000 75 69 89
0.011133 0.775612 2.120000 76 70 87
0.011133 0.779323 2.120000 78 69 88
0.011065 0.778232 2.107000 77 72 89
0.011002 0.777467 2.095000 76 71 88
0.011002 0.781134 2.095000 72 70 87
0.010934 0.779932 2.082000 68 68 87
0.010802 0.774167 2.057000 72 67 86
0.010613 0.764156 2.021000 77 68 87
0.010429 0.754399 1.986000 80 71 88
0.010372 0.753678 1.975000 83 69 87
0.010314 0.752918 1.964000 75 72 87
0.010251 0.751735 1.952000 67 69 85
0.010193 0.750896 1.941000 69 66 84
0.023737 0.955406 3.390000 81 68 88
0.023737 0.961340 3.390000 80 69 84
0.023506 0.957858 3.357000 79 69 81
0.023506 0.963734 3.357000 79 71 84
0.023506 0.969611 3.357000 80 69 88
0.023275 0.965898 3.324000 81 69 84
0.023275 0.971717 3.324000 81 70 81
0.023058 0.968419 3.293000 81 71 81
0.023506 0.993117 3.357000 81 72 82
0.020516 0.892440 2.930000 82 67 86
0.020516 0.897569 2.930000 81 70 87
0.020341 0.894996 2.905000 81 72 84
0.020173 0.892645 2.881000 81 71 82
0.019844 0.883043 2.834000 81 70 82
0.019676 0.880484 2.810000 80 68 82
0.019522 0.878471 2.788000 79 67 82
0.019361 0.876064 2.765000 79 67 83
0.019206 0.873895 2.743000 80 67 77
0.018912 0.865243 2.701000 79 69 71
0.018765 0.863207 2.680000 78 72 75
0.018478 0.854620 2.639000 78 71 80
0.018338 0.852728 2.619000 78 72 80
0.018198 0.850766 2.599000 76 71 81
0.017925 0.842481 2.560000 75 72 84
0.017540 0.828766 2.505000 79 70 87
0.017540 0.833151 2.505000 83 69 82
0.017414 0.831517 2.487000 80 68 77
0.017414 0.835871 2.487000 78 68 80
0.017414 0.840224 2.487000 79 69 83
0.016924 0.820806 2.417000 80 69 85
0.016805 0.819234 2.400000 82 67 88
0.016574 0.812113 2.367000 84 65 85
0.016350 0.805221 2.335000 81 65 82
0.016245 0.804110 2.320000 79 68 83
0.016133 0.802597 2.304000 77 69 84
0.016028 0.801379 2.289000 75 71 85
0.016028 0.805386 2.289000 76 69 87
0.015923 0.804089 2.274000 78 67 87
0.015614 0.792434 2.230000 78 67 88
0.015614 0.796338 2.230000 78 68 88
0.015509 0.794858 2.215000 78 68 89
0.015313 0.788639 2.187000 78 69 89
0.015222 0.787757 2.174000 78 69 89
0.015033 0.781731 2.147000 77 70 87
0.014844 0.775612 2.120000 78 69 85
0.014844 0.779323 2.120000 78 69 83
0.014753 0.778232 2.107000 79 70 82
0.014753 0.781920 2.107000 80 72 84
0.014669 0.781134 2.095000 76 69 86
0.014578 0.779932 2.082000 72 66 86
0.014403 0.774167 2.057000 74 66 87
0.014151 0.764156 2.021000 76 68 87
0.013906 0.754399 1.986000 77 68 88
0.013829 0.753678 1.975000 79 67 87
0.013752 0.752918 1.964000 74 69 86
0.013752 0.756356 1.964000 70 71 84
0.013668 0.755152 1.952000 71 67 83
0.029671 0.955406 3.390000 81 69 84
0.029671 0.961340 3.390000 80 69 82
0.029382 0.957858 3.357000 80 70 79
0.029093 0.954261 3.324000 80 70 81
0.029093 0.960079 3.324000 81 69 84
0.029093 0.965898 3.324000 83 68 82
0.029093 0.971717 3.324000 82 69 81
0.029093 0.977535 3.324000 81 71 81
0.025216 0.877515 2.881000 84 69 86
0.025216 0.882559 2.881000 83 71 88
0.025426 0.894996 2.905000 82 72 85
0.025006 0.885209 2.857000 81 72 83
0.024805 0.883043 2.834000 81 70 83
0.024595 0.880484 2.810000 81 66 84
0.024402 0.878471 2.788000 82 67 86
0.024201 0.876064 2.765000 81 67 89
0.024008 0.873895 2.743000 80 67 82
0.023824 0.871970 2.722000 79 68 75
0.023641 0.869971 2.701000 78 69 80
0.023273 0.861097 2.659000 78 69 84
0.022923 0.852728 2.619000 78 70 83
0.022748 0.850766 2.599000 75 71 83
0.022406 0.842481 2.560000 73 70 84
0.022083 0.834721 2.523000 79 71 85
0.021925 0.833151 2.505000 86 69 82
0.021767 0.831517 2.487000 82 67 78
0.021767 0.835871 2.487000 79 67 81
0.021767 0.840224 2.487000 79 68 84
0.021610 0.838465 2.469000 80 68 84
0.021006 0.819234 2.400000 83 68 84
0.020717 0.812113 2.367000 86 66 82
0.020577 0.810739 2.351000 82 63 80
0.020437 0.809309 2.335000 79 66 82
0.020166 0.802597 2.304000 76 67 85
0.020034 0.801379 2.289000 74 69 86
0.020034 0.805386 2.289000 76 69 88
0.020034 0.809393 2.289000 78 66 86
0.019641 0.797409 2.244000 79 67 84
0.019518 0.796338 2.230000 80 67 86
0.019387 0.794858 2.215000 79 66 89
0.019142 0.788639 2.187000 79 68 88
0.019028 0.787757 2.174000 79 71 87
0.018905 0.786465 2.160000 80 68 86
0.018555 0.775612 2.120000 79 67 86
0.018555 0.779323 2.120000 79 67 89
0.018442 0.778232 2.107000 81 68 92
0.018442 0.781920 2.107000 84 69 90
0.018336 0.781134 2.095000 80 69 88
0.018336 0.784802 2.095000 77 67 87
0.018109 0.778684 2.069000 76 65 87
0.017689 0.764156 2.021000 76 66 87
0.017382 0.754399 1.986000 75 68 87
0.017286 0.753678 1.975000 75 66 88
0.017286 0.757135 1.975000 74 66 90
0.017190 0.756356 1.964000 74 67 87
0.017085 0.755152 1.952000 74 66 85
0.035962 0.964988 3.424000 81 69 81
0.035952 0.970698 3.423000 80 71 79
0.035259 0.957858 3.357000 79 70 78
0.034912 0.954261 3.324000 78 72 79
0.034912 0.960079 3.324000 79 70 80
0.030259 0.882559 2.881000 81 71 89
0.030259 0.887602 2.881000 79 73 87
0.030007 0.885209 2.857000 79 72 85
0.029766 0.883043 2.834000 80 72 85
0.029513 0.880484 2.810000 81 68 86
0.029282 0.878471 2.788000 82 68 90
0.029041 0.876064 2.765000 82 67 95
0.028589 0.867205 2.722000 83 68 87
0.028369 0.865243 2.701000 81 68 80
0.028369 0.869971 2.701000 79 68 84
0.028148 0.867898 2.680000 79 69 89
0.026888 0.833518 2.560000 80 68 87
0.027098 0.844546 2.580000 78 67 85
0.026888 0.842481 2.560000 76 68 84
0.026699 0.841007 2.542000 79 70 84
0.026499 0.839137 2.523000 83 71 82
0.026310 0.837536 2.505000 81 68 80
0.026121 0.835871 2.487000 79 67 83
0.025932 0.834143 2.469000 79 67 86
0.025743 0.832352 2.451000 79 69 83
0.025564 0.830840 2.434000 81 68 81
0.024861 0.812113 2.367000 84 68 80
0.024693 0.810739 2.351000 81 66 79
0.024525 0.809309 2.335000 79 68 82
0.024367 0.808171 2.320000 77 68 86
0.024199 0.806631 2.304000 75 70 88
0.024199 0.810664 2.304000 77 68 90
0.024041 0.809393 2.289000 78 64 85
0.023569 0.797409 2.244000 80 66 81
0.023264 0.790981 2.215000 82 69 85
0.023117 0.789834 2.201000 79 67 89
0.022970 0.788639 2.187000 77 66 87
0.022834 0.787757 2.174000 80 68 85
0.022686 0.786465 2.160000 83 66 86
0.022403 0.780368 2.133000 81 66 88
0.022266 0.779323 2.120000 80 67 95
0.022130 0.778232 2.107000 80 67 102
0.022130 0.781920 2.107000 81 67 96
0.022004 0.781134 2.095000 79 68 90
0.021867 0.779932 2.082000 77 69 88
0.021731 0.778684 2.069000 77 66 87
0.021479 0.773231 2.045000 77 65 87
0.020859 0.754399 1.986000 76 66 87
0.020743 0.753678 1.975000 76 65 90
0.020743 0.757135 1.975000 75 66 94
0.020628 0.756356 1.964000 75 68 90
0.020502 0.755152 1.952000 75 65 87
0.042373 0.974570 3.458000 81 69 80
0.042373 0.980623 3.458000 80 69 79
0.041135 0.957858 3.357000 78 70 78
0.040731 0.954261 3.324000 77 70 78
0.040731 0.960079 3.324000 76 72 79
0.035302 0.882559 2.881000 80 69 86
0.035302 0.887602 2.881000 77 71 84
0.035302 0.892645 2.881000 78 73 81
0.035008 0.890210 2.857000 79 71 82
0.034432 0.880484 2.810000 80 69 83
0.034163 0.878471 2.788000 82 69 85
0.033881 0.876064 2.765000 84 68 88
0.033611 0.873895 2.743000 87 68 82
0.033354 0.871970 2.722000 84 68 76
0.033097 0.869971 2.701000 81 69 80
0.032839 0.867898 2.680000 81 71 84
0.031614 0.840030 2.580000 82 67 84
0.031614 0.844546 2.580000 80 64 85
0.031369 0.842481 2.560000 79 67 83
0.031148 0.841007 2.542000 79 70 82
0.030916 0.839137 2.523000 80 69 81
0.030695 0.837536 2.505000 80 68 80
0.030474 0.835871 2.487000 80 68 82
0.030254 0.834143 2.469000 79 67 84
0.030033 0.832352 2.451000 79 68 83
0.029825 0.830840 2.434000 80 70 81
0.029408 0.823435 2.400000 82 68 81
0.028808 0.810739 2.351000 81 67 80
0.028612 0.809309 2.335000 80 68 82
0.028428 0.808171 2.320000 78 70 84
0.028232 0.806631 2.304000 77 69 86
0.028232 0.810664 2.304000 78 70 88
0.028048 0.809393 2.289000 79 66 86
0.027497 0.797409 2.244000 81 66 84
0.027141 0.790981 2.215000 84 67 88
0.026970 0.789834 2.201000 80 67 92
0.026798 0.788639 2.187000 76 68 86
0.026639 0.787757 2.174000 81 70 81
0.026468 0.786465 2.160000 86 67 83
0.026308 0.785490 2.147000 83 65 85
0.026137 0.784102 2.133000 81 65 90
0.025977 0.783034 2.120000 80 66 94
0.025818 0.781920 2.107000 79 66 90
0.025671 0.781134 2.095000 78 68 86
0.025512 0.779932 2.082000 77 66 84
0.025205 0.774167 2.057000 77 65 82
0.025058 0.773231 2.045000 78 66 83
0.024335 0.754399 1.986000 77 69 85
0.024201 0.753678 1.975000 77 66 87
0.024201 0.757135 1.975000 77 67 89
0.024066 0.756356 1.964000 77 66 87
0.023919 0.755152 1.952000 77 64 85
0.050442 1.002543 3.602000 80 68 77
0.050442 1.008848 3.602000 79 69 78
0.049406 0.994298 3.528000 79 68 79
0.049406 1.000474 3.528000 80 67 79
0.047474 0.967274 3.390000 78 67 79
0.047011 0.963734 3.357000 77 67 78
0.040345 0.882559 2.881000 81 70 84
0.040345 0.887602 2.881000 79 72 81
0.040009 0.885209 2.857000 79 71 78
0.039687 0.883043 2.834000 79 72 79
0.039351 0.880484 2.810000 80 71 80
0.039043 0.878471 2.788000 81 72 80
0.038721 0.876064 2.765000 81 69 81
0.038413 0.873895 2.743000 82 68 77
0.038119 0.871970 2.722000 81 68 73
0.037825 0.869971 2.701000 80 71 76
0.037825 0.874699 2.701000 79 70 79
0.037531 0.872589 2.680000 79 68 82
0.036396 0.850766 2.599000 79 66 85
0.036130 0.849063 2.580000 79 66 82
0.035332 0.834721 2.523000 79 67 80
0.035080 0.833151 2.505000 79 69 80
0.034828 0.831517 2.487000 79 69 81
0.034576 0.829821 2.469000 78 71 82
0.034324 0.828062 2.451000 78 69 83
0.034086 0.826579 2.434000 78 67 82
0.034086 0.830840 2.434000 79 68 82
0.033610 0.823435 2.400000 80 68 82
0.032923 0.810739 2.351000 80 67 82
0.032699 0.809309 2.335000 81 70 82
0.032489 0.808171 2.320000 79 69 83
0.032265 0.806631 2.304000 77 68 84
0.032055 0.805386 2.289000 77 67 86
0.032055 0.809393 2.289000 78 65 87
0.031425 0.797409 2.244000 79 67 88
0.031229 0.796338 2.230000 80 69 92
0.030823 0.789834 2.201000 78 68 96
0.030445 0.783951 2.174000 76 69 86
0.030445 0.787757 2.174000 79 69 77
0.030249 0.786465 2.160000 83 69 80
0.030249 0.790246 2.160000 81 66 83
0.029871 0.784102 2.133000 79 65 85
0.029688 0.783034 2.120000 78 65 87
0.029506 0.781920 2.107000 78 65 84
0.029338 0.781134 2.095000 78 66 82
0.029156 0.779932 2.082000 77 65 80
0.028974 0.778684 2.069000 78 65 78
0.028806 0.777768 2.057000 80 65 80
0.027980 0.758957 1.998000 78 66 83
0.027812 0.757876 1.986000 77 66 84
0.027658 0.757135 1.975000 77 66 85
0.027504 0.756356 1.964000 76 67 84
0.027336 0.755152 1.952000 75 64 84
0.056748 1.002543 3.602000 78 68 73
0.056748 1.008848 3.602000 77 69 75
0.055582 0.994298 3.528000 78 67 77
0.055582 1.000474 3.528000 80 67 77
0.052888 0.957858 3.357000 79 67 78
0.045767 0.889911 2.905000 82 72 82
0.045389 0.887602 2.881000 81 70 81
0.045011 0.885209 2.857000 80 70 79
0.044648 0.883043 2.834000 80 71 80
0.044270 0.880484 2.810000 80 73 81
0.043924 0.878471 2.788000 81 71 80
0.043561 0.876064 2.765000 79 69 79
0.043215 0.873895 2.743000 77 69 77
0.042884 0.871970 2.722000 78 67 75
0.042553 0.869971 2.701000 80 70 77
0.042553 0.874699 2.701000 78 71 80
0.042222 0.872589 2.680000 76 68 83
0.041576 0.863860 2.639000 77 66 87
0.041261 0.861897 2.619000 79 66 84
0.040048 0.841007 2.542000 79 66 81
0.039749 0.839137 2.523000 79 68 79
0.039465 0.837536 2.505000 78 70 77
0.039181 0.835871 2.487000 77 70 79
0.038898 0.834143 2.469000 77 71 82
0.038614 0.832352 2.451000 78 68 81
0.038614 0.836643 2.451000 78 68 81
0.037811 0.823435 2.400000 79 66 81
0.037291 0.816257 2.367000 80 64 81
0.036787 0.809309 2.335000 82 67 82
0.036550 0.808171 2.320000 80 69 83
0.036298 0.806631 2.304000 78 68 82
0.036298 0.810664 2.304000 77 68 82
0.036062 0.809393 2.289000 77 67 85
0.035353 0.797409 2.244000 77 68 87
0.035133 0.796338 2.230000 77 68 89
0.034455 0.784811 2.187000 77 68 92
0.034250 0.783951 2.174000 77 68 85
0.034030 0.782684 2.160000 78 68 79
0.034030 0.786465 2.160000 80 69 81
0.033825 0.785490 2.147000 78 68 83
0.033604 0.784102 2.133000 77 66 83
0.033400 0.783034 2.120000 77 64 84
0.033195 0.781920 2.107000 78 65 84
0.033006 0.781134 2.095000 78 68 85
0.032801 0.779932 2.082000 78 66 83
0.032596 0.778684 2.069000 80 65 80
0.032407 0.777768 2.057000 82 65 82
0.031477 0.758957 1.998000 80 64 83
0.031115 0.753678 1.975000 78 64 83
0.031115 0.757135 1.975000 77 65 83
0.030942 0.756356 1.964000 76 65 81
0.030753 0.755152 1.952000 73 64 80
0.063053 1.002543 3.602000 79 69 70
0.063053 1.008848 3.602000 77 73 73
0.061758 0.994298 3.528000 78 69 76
0.061758 1.000474 3.528000 80 68 76
0.061758 1.006650 3.528000 79 67 77
0.054528 0.926977 3.115000 81 71 80
0.050852 0.889911 2.905000 82 68 81
0.050432 0.887602 2.881000 81 68 81
0.050432 0.892645 2.881000 81 69 81
0.049609 0.883043 2.834000 80 71 81
0.049189 0.880484 2.810000 80 71 82
0.048401 0.871224 2.765000 80 71 80
0.048016 0.869094 2.743000 79 71 78
0.047649 0.867205 2.722000 77 73 78
0.047649 0.871970 2.722000 78 70 78
0.047281 0.869971 2.701000 80 72 79
0.047281 0.874699 2.701000 79 70 81
0.046913 0.872589 2.680000 79 69 85
0.046196 0.863860 2.639000 79 66 89
0.045846 0.861897 2.619000 79 67 85
0.044498 0.841007 2.542000 79 66 82
0.044165 0.839137 2.523000 79 67 78
0.043535 0.831517 2.487000 79 68 74
0.043220 0.829821 2.469000 80 70 77
0.043220 0.834143 2.469000 79 68 81
0.042905 0.832352 2.451000 78 67 80
0.042607 0.830840 2.434000 78 67 80
0.042310 0.829268 2.417000 78 67 80
0.041732 0.822119 2.384000 81 65 81
0.041434 0.820400 2.367000 83 67 82
0.040874 0.813396 2.335000 80 68 83
0.040332 0.806631 2.304000 77 68 81
0.040332 0.810664 2.304000 75 67 79
0.040069 0.809393 2.289000 74 67 83
0.039544 0.802739 2.259000 75 67 87
0.039036 0.796338 2.230000 77 68 87
0.038529 0.789834 2.201000 77 68 88
0.038283 0.788639 2.187000 78 69 85
0.038056 0.787757 2.174000 78 69 82
0.037811 0.786465 2.160000 79 71 83
0.037811 0.790246 2.160000 77 69 84
0.037338 0.784102 2.133000 75 70 82
0.037111 0.783034 2.120000 76 67 81
0.036883 0.781920 2.107000 77 66 85
0.036673 0.781134 2.095000 77 68 89
0.036445 0.779932 2.082000 77 69 86
0.036218 0.778684 2.069000 78 67 83
0.036008 0.777768 2.057000 79 67 83
0.035588 0.772252 2.033000 76 65 84
0.034765 0.757876 1.986000 74 63 83
0.034572 0.757135 1.975000 74 65 82
0.034380 0.756356 1.964000 74 65 79
0.034170 0.755152 1.952000 73 64 76
0.069358 1.002543 3.602000 80 71 68
0.068646 0.998485 3.565000 78 70 70
0.067933 0.994298 3.528000 79 69 73
0.067933 1.000474 3.528000 80 67 73
0.067933 1.006650 3.528000 80 67 73
0.060520 0.918804 3.143000 82 68 78
0.060520 0.924306 3.143000 82 69 75
0.060520 0.929808 3.143000 81 75 72
0.059981 0.926977 3.115000 81 71 79
0.059981 0.932430 3.115000 81 69 85
0.055937 0.879740 2.905000 83 69 72
0.055937 0.889911 2.905000 83 67 79
0.055475 0.887602 2.881000 82 68 80
0.055475 0.892645 2.881000 81 69 81
0.054570 0.883043 2.834000 81 70 81
0.054108 0.880484 2.810000 80 69 81
0.053241 0.871224 2.765000 80 70 78
0.052818 0.869094 2.743000 79 72 75
0.052413 0.867205 2.722000 78 71 77
0.052009 0.865243 2.701000 79 70 79
0.052009 0.869971 2.701000 80 71 78
0.051605 0.867898 2.680000 81 70 78
0.051200 0.865752 2.659000 82 67 81
0.050815 0.863860 2.639000 80 65 85
0.050430 0.861897 2.619000 79 65 83
0.048948 0.841007 2.542000 79 67 82
0.048582 0.839137 2.523000 80 66 79
0.047888 0.831517 2.487000 81 67 76
0.047542 0.829821 2.469000 83 67 78
0.047195 0.828062 2.451000 81 65 81
0.046868 0.826579 2.434000 79 66 81
0.046541 0.825037 2.417000 78 66 81
0.046213 0.823435 2.400000 78 66 79
0.045578 0.816257 2.367000 81 64 77
0.045270 0.814854 2.351000 85 66 80
0.044962 0.813396 2.335000 80 68 83
0.044365 0.806631 2.304000 76 68 82
0.044076 0.805386 2.289000 73 67 81
0.044076 0.809393 2.289000 71 67 84
0.043209 0.797409 2.244000 74 66 87
0.042940 0.796338 2.230000 77 67 89
0.042381 0.789834 2.201000 78 70 91
0.042112 0.788639 2.187000 79 68 87
0.041861 0.787757 2.174000 78 69 84
0.041592 0.786465 2.160000 78 70 83
0.041592 0.790246 2.160000 76 70 83
0.041342 0.789248 2.147000 74 69 82
0.040822 0.783034 2.120000 75 68 81
0.040571 0.781920 2.107000 76 66 84
0.040090 0.776287 2.082000 76 69 86
0.040090 0.779932 2.082000 77 68 83
0.039840 0.778684 2.069000 76 68 80
0.039609 0.777768 2.057000 76 67 82
