ply
format ascii 1.0
element vertex 1301
property float x
property float y
property float z
property uchar red
property uchar green
property uchar blue
end_header
0.630810 -0.561995 1.638000 49 26 23
0.627729 -0.556396 1.630000 49 26 21
0.627729 -0.553543 1.630000 50 28 15
0.630810 -0.553393 1.638000 52 28 10
0.630810 -0.550525 1.638000 55 30 15
0.627729 -0.544983 1.630000 51 29 21
0.627729 -0.542130 1.630000 47 30 15
0.630810 -0.541923 1.638000 47 29 9
0.627729 -0.536423 1.630000 48 29 18
0.627729 -0.533570 1.630000 46 28 27
0.630810 -0.533321 1.638000 44 28 24
0.630810 -0.530454 1.638000 47 26 21
0.630810 -0.527587 1.638000 50 24 32
0.627729 -0.522157 1.630000 48 26 44
0.627729 -0.519303 1.630000 46 26 33
0.630810 -0.518985 1.638000 47 27 22
0.630810 -0.516117 1.638000 48 26 29
0.630810 -0.513250 1.638000 49 25 37
0.627729 -0.507890 1.630000 50 25 29
0.627729 -0.505037 1.630000 50 26 21
0.627729 -0.502183 1.630000 51 27 21
0.627729 -0.499330 1.630000 51 28 22
0.627729 -0.496477 1.630000 52 30 28
0.627729 -0.493624 1.630000 49 29 34
0.627729 -0.490770 1.630000 47 29 27
0.627729 -0.487917 1.630000 48 27 21
0.627729 -0.485064 1.630000 50 26 21
0.627729 -0.482210 1.630000 50 29 22
0.627729 -0.479357 1.630000 51 31 20
0.627729 -0.476504 1.630000 50 30 18
0.627729 -0.473650 1.630000 50 30 18
0.627729 -0.470797 1.630000 52 30 18
0.627729 -0.467944 1.630000 54 31 18
0.627729 -0.465090 1.630000 55 31 19
0.627729 -0.462237 1.630000 57 33 19
0.627729 -0.459384 1.630000 53 32 19
0.627729 -0.456530 1.630000 49 33 22
0.627729 -0.453677 1.630000 50 32 25
0.627729 -0.450824 1.630000 51 33 22
0.627729 -0.447970 1.630000 54 32 20
0.627729 -0.445117 1.630000 58 31 16
0.627729 -0.442264 1.630000 56 28 12
0.627729 -0.439411 1.630000 55 29 15
0.627729 -0.436557 1.630000 55 30 19
0.627729 -0.433704 1.630000 55 32 19
0.627729 -0.430851 1.630000 56 31 19
0.627729 -0.427997 1.630000 57 31 19
0.627729 -0.425144 1.630000 55 29 19
0.627729 -0.422291 1.630000 53 29 22
0.627729 -0.419437 1.630000 54 30 26
0.630810 -0.418629 1.638000 55 31 26
0.630810 -0.415761 1.638000 54 30 26
0.630810 -0.412894 1.638000 53 30 25
0.627729 -0.408024 1.630000 50 31 25
0.627729 -0.405171 1.630000 48 34 23
0.627729 -0.402317 1.630000 53 34 21
0.627729 -0.399464 1.630000 58 35 25
0.627729 -0.396611 1.630000 56 33 30
0.627729 -0.393757 1.630000 54 32 24
0.624648 -0.388986 1.622000 53 32 19
0.624648 -0.386146 1.622000 53 33 20
0.624648 -0.383307 1.622000 54 32 21
0.627729 -0.382344 1.630000 54 32 23
0.627729 -0.379491 1.630000 54 32 26
0.627729 -0.376638 1.630000 55 34 26
0.627729 -0.373784 1.630000 57 33 27
0.627729 -0.370931 1.630000 59 34 24
0.627729 -0.368078 1.630000 57 32 21
0.627729 -0.365224 1.630000 54 32 21
0.624648 -0.360593 1.622000 55 33 21
0.624648 -0.357753 1.622000 57 33 21
0.624648 -0.354914 1.622000 55 33 21
0.624648 -0.352075 1.622000 54 33 20
0.624648 -0.349235 1.622000 54 32 20
0.624648 -0.346396 1.622000 55 34 21
0.624648 -0.343557 1.622000 56 34 22
0.624648 -0.340717 1.622000 57 34 21
0.624648 -0.337878 1.622000 56 33 21
0.624648 -0.335039 1.622000 55 38 19
0.624648 -0.332199 1.622000 56 36 17
0.624648 -0.329360 1.622000 57 36 19
0.624648 -0.326521 1.622000 56 34 21
0.624648 -0.323681 1.622000 56 31 28
0.624648 -0.320842 1.622000 58 32 35
0.624648 -0.318003 1.622000 61 31 26
0.624648 -0.315164 1.622000 59 33 18
0.624648 -0.312324 1.622000 57 33 20
0.624648 -0.309485 1.622000 55 34 22
0.624648 -0.306646 1.622000 54 38 24
0.627729 -0.305305 1.630000 56 37 26
0.627729 -0.302451 1.630000 59 36 29
0.627729 -0.299598 1.630000 57 38 33
0.627729 -0.296745 1.630000 56 39 38
0.624648 -0.292449 1.622000 56 35 44
0.624648 -0.289610 1.622000 56 34 38
0.624648 -0.286770 1.622000 57 35 32
0.624648 -0.283931 1.622000 58 38 26
0.624648 -0.281092 1.622000 58 36 20
0.624648 -0.278252 1.622000 58 35 24
0.624648 -0.275413 1.622000 57 34 29
0.624648 -0.272574 1.622000 55 34 25
0.624648 -0.269735 1.622000 56 33 21
0.621953 -0.265743 1.615000 58 34 15
0.621953 -0.262916 1.615000 57 35 10
0.621953 -0.260089 1.615000 56 37 16
0.621953 -0.257262 1.615000 56 33 22
0.621953 -0.254435 1.615000 57 32 22
0.621953 -0.251608 1.615000 56 33 23
0.621953 -0.248781 1.615000 55 33 33
0.621953 -0.245954 1.615000 55 32 43
0.624648 -0.244181 1.622000 55 34 33
0.624648 -0.241341 1.622000 55 36 23
0.621953 -0.237473 1.615000 56 39 21
0.621953 -0.234646 1.615000 56 37 20
0.621953 -0.231819 1.615000 57 36 21
0.621953 -0.228992 1.615000 56 34 22
0.621953 -0.226165 1.615000 55 36 22
0.621953 -0.223338 1.615000 58 34 23
0.621953 -0.220511 1.615000 60 32 26
0.621953 -0.217683 1.615000 58 34 30
0.621953 -0.214856 1.615000 57 38 38
0.621953 -0.212029 1.615000 55 31 46
0.621953 -0.209202 1.615000 54 27 39
0.621953 -0.206375 1.615000 53 32 33
0.621953 -0.203548 1.615000 52 34 27
0.621953 -0.200721 1.615000 53 33 21
0.621953 -0.197894 1.615000 54 32 20
0.621953 -0.195067 1.615000 54 33 20
0.621953 -0.192240 1.615000 55 32 30
0.618872 -0.188475 1.607000 55 30 40
0.618872 -0.185662 1.607000 56 31 30
0.618872 -0.182848 1.607000 54 33 21
0.618872 -0.180035 1.607000 52 36 21
0.618872 -0.177222 1.607000 53 36 22
0.618872 -0.174409 1.607000 54 39 22
0.618872 -0.171596 1.607000 54 35 23
0.618872 -0.168783 1.607000 55 35 26
0.618872 -0.165970 1.607000 57 33 29
0.618872 -0.163157 1.607000 59 34 27
0.618872 -0.160344 1.607000 57 36 26
0.618872 -0.157531 1.607000 56 36 24
0.618872 -0.154718 1.607000 58 35 23
0.618872 -0.151905 1.607000 59 38 24
0.618872 -0.149092 1.607000 57 35 25
0.618872 -0.146279 1.607000 55 34 27
0.618872 -0.143466 1.607000 55 34 29
0.618872 -0.140653 1.607000 55 36 26
0.621953 -0.138526 1.615000 58 36 23
0.621953 -0.135699 1.615000 60 36 22
0.621953 -0.132872 1.615000 58 35 22
0.621953 -0.130045 1.615000 56 34 24
0.621953 -0.127218 1.615000 56 37 26
0.621953 -0.124391 1.615000 57 37 35
0.621953 -0.121563 1.615000 56 34 45
0.621953 -0.118736 1.615000 55 34 31
0.621953 -0.115909 1.615000 55 37 17
0.621953 -0.113082 1.615000 55 41 17
0.621953 -0.110255 1.615000 56 38 18
0.621953 -0.107428 1.615000 57 36 17
0.621953 -0.104601 1.615000 58 36 16
0.621953 -0.101774 1.615000 59 37 19
0.618872 -0.098457 1.607000 58 37 23
0.618872 -0.095644 1.607000 57 36 19
0.618872 -0.092831 1.607000 59 35 16
0.618872 -0.090018 1.607000 61 34 19
0.618872 -0.087205 1.607000 57 35 23
0.618872 -0.084392 1.607000 54 34 22
0.618872 -0.081579 1.607000 56 33 21
0.618872 -0.078765 1.607000 58 31 22
0.618872 -0.075952 1.607000 61 33 23
0.618872 -0.073139 1.607000 64 36 23
0.618872 -0.070326 1.607000 62 34 23
0.618872 -0.067513 1.607000 60 34 19
0.618872 -0.064700 1.607000 61 37 15
0.618872 -0.061887 1.607000 62 39 17
0.618872 -0.059074 1.607000 58 39 20
0.618872 -0.056261 1.607000 55 41 21
0.618872 -0.053448 1.607000 55 39 22
0.618872 -0.050635 1.607000 56 39 15
0.618872 -0.047822 1.607000 55 38 9
0.618872 -0.045009 1.607000 55 34 17
0.618872 -0.042196 1.607000 59 38 26
0.618872 -0.039383 1.607000 63 39 19
0.618872 -0.036570 1.607000 62 39 13
0.618872 -0.033757 1.607000 60 39 19
0.618872 -0.030944 1.607000 63 37 26
0.618872 -0.028131 1.607000 65 36 23
0.618872 -0.025317 1.607000 61 38 21
0.618872 -0.022504 1.607000 58 41 31
0.616176 -0.019606 1.600000 60 40 41
0.618872 -0.016878 1.607000 63 41 33
0.618872 -0.014065 1.607000 59 39 26
0.618872 -0.011252 1.607000 56 38 23
0.618872 -0.008439 1.607000 56 40 20
0.621953 -0.005654 1.615000 56 43 22
0.621953 -0.002827 1.615000 55 40 25
0.618872 -0.000000 1.607000 54 40 34
0.618872 0.002813 1.607000 55 38 43
0.618872 0.005626 1.607000 56 40 38
0.618872 0.008439 1.607000 56 39 34
0.616176 0.011203 1.600000 57 40 30
0.616176 0.014004 1.600000 59 39 26
0.616176 0.016805 1.600000 62 41 23
0.616176 0.019606 1.600000 61 41 21
0.616176 0.022406 1.600000 60 43 19
0.616176 0.025207 1.600000 58 41 17
0.616176 0.028008 1.600000 57 41 14
0.616176 0.030809 1.600000 55 40 11
0.616176 0.033610 1.600000 54 41 22
0.616176 0.036410 1.600000 53 40 34
0.616176 0.039211 1.600000 53 41 30
0.616176 0.042012 1.600000 53 39 27
0.616176 0.044813 1.600000 52 39 26
0.616176 0.047614 1.600000 48 39 25
0.618872 0.050635 1.607000 45 42 28
0.618872 0.053448 1.607000 50 38 32
0.618872 0.056261 1.607000 56 35 27
0.618872 0.059074 1.607000 54 35 23
0.618872 0.061887 1.607000 51 39 22
0.616176 0.064418 1.600000 49 36 22
0.616176 0.067219 1.600000 47 38 22
0.618872 0.070326 1.607000 46 34 22
0.618872 0.073139 1.607000 45 34 22
0.618872 0.075953 1.607000 41 35 22
0.621953 0.081985 1.615000 40 34 29
0.618872 0.090018 1.607000 40 34 19
0.616176 0.092426 1.600000 37 31 17
0.616176 0.095227 1.600000 35 32 21
0.616176 0.098028 1.600000 37 30 25
0.616176 0.100829 1.600000 39 28 20
0.616176 0.103630 1.600000 38 28 15
0.616176 0.106430 1.600000 38 26 9
0.842236 0.784811 2.187000 52 43 51
0.837229 0.783951 2.174000 48 43 37
0.831838 0.782684 2.160000 50 42 23
0.831838 0.786465 2.160000 53 41 32
0.831838 0.790246 2.160000 53 42 41
0.826831 0.789248 2.147000 53 43 41
0.831838 0.797808 2.160000 52 41 41
0.782929 0.754459 2.033000 50 40 43
0.782929 0.758017 2.033000 53 41 45
0.782929 0.761576 2.033000 55 39 50
0.782929 0.765135 2.033000 54 41 56
0.778307 0.764156 2.021000 54 43 50
0.773686 0.763136 2.009000 53 45 44
0.764829 0.757876 1.986000 52 46 45
0.764829 0.761352 1.986000 54 43 47
0.756356 0.756356 1.964000 56 43 44
0.751735 0.755152 1.952000 53 43 41
0.747499 0.754294 1.941000 50 47 31
0.743647 0.753788 1.931000 38 33 21
0.630583 -0.636289 1.630000 45 25 15
0.630583 -0.633436 1.630000 47 23 13
0.630583 -0.630583 1.630000 49 23 12
0.630583 -0.627729 1.630000 52 24 9
0.630583 -0.624876 1.630000 50 24 5
0.630583 -0.622023 1.630000 49 25 9
0.630583 -0.619169 1.630000 49 28 13
0.633678 -0.619341 1.638000 49 26 11
0.633678 -0.616474 1.638000 48 24 10
0.633678 -0.613606 1.638000 47 23 12
0.633678 -0.610739 1.638000 48 26 14
0.630583 -0.604903 1.630000 49 26 17
0.630583 -0.602050 1.630000 53 26 19
0.630583 -0.599196 1.630000 57 24 24
0.630583 -0.596343 1.630000 54 23 29
0.630583 -0.593490 1.630000 51 26 21
0.630583 -0.590636 1.630000 53 28 14
0.630583 -0.587783 1.630000 55 26 17
0.630583 -0.584930 1.630000 52 26 21
0.633678 -0.584933 1.638000 49 24 27
0.630583 -0.579223 1.630000 49 22 34
0.630583 -0.576370 1.630000 49 23 28
0.630583 -0.573516 1.630000 46 25 23
0.633678 -0.573464 1.638000 43 26 17
0.633678 -0.570597 1.638000 48 26 11
0.630583 -0.564956 1.630000 54 27 14
0.630583 -0.562103 1.630000 52 30 17
0.630583 -0.559250 1.630000 51 27 16
0.630583 -0.556396 1.630000 50 27 15
0.627488 -0.550826 1.622000 50 27 11
0.630583 -0.550690 1.630000 50 27 7
0.630583 -0.547836 1.630000 50 29 12
0.633678 -0.547658 1.638000 45 31 18
0.633678 -0.544791 1.638000 41 30 13
0.633678 -0.541923 1.638000 44 30 9
0.630583 -0.536423 1.630000 47 29 16
0.630583 -0.533570 1.630000 46 28 23
0.630583 -0.530717 1.630000 46 26 22
0.630583 -0.527863 1.630000 48 26 21
0.630583 -0.525010 1.630000 51 27 26
0.630583 -0.522157 1.630000 49 29 32
0.630583 -0.519303 1.630000 47 28 25
0.630583 -0.516450 1.630000 48 30 19
0.630583 -0.513597 1.630000 50 26 22
0.630583 -0.510743 1.630000 50 26 26
0.630583 -0.507890 1.630000 51 26 22
0.630583 -0.505037 1.630000 51 26 18
0.630583 -0.502183 1.630000 51 27 18
0.630583 -0.499330 1.630000 52 30 19
0.630583 -0.496477 1.630000 53 29 20
0.630583 -0.493624 1.630000 50 28 21
0.630583 -0.490770 1.630000 47 27 20
0.630583 -0.487917 1.630000 49 26 20
0.630583 -0.485064 1.630000 51 26 23
0.630583 -0.482210 1.630000 54 28 26
0.630583 -0.479357 1.630000 57 27 24
0.630583 -0.476504 1.630000 54 27 23
0.627488 -0.471326 1.622000 51 27 20
0.630583 -0.470797 1.630000 53 28 17
0.630583 -0.467944 1.630000 55 28 17
0.630583 -0.465090 1.630000 57 29 18
0.630583 -0.462237 1.630000 60 30 14
0.630583 -0.459384 1.630000 56 30 10
0.630583 -0.456530 1.630000 53 31 17
0.630583 -0.453677 1.630000 51 32 24
0.630583 -0.450824 1.630000 49 30 26
0.627488 -0.445772 1.622000 51 30 27
0.627488 -0.442933 1.622000 54 30 22
0.627488 -0.440093 1.622000 55 30 17
0.627488 -0.437254 1.622000 56 29 16
0.627488 -0.434415 1.622000 55 30 15
0.627488 -0.431575 1.622000 54 31 17
0.627488 -0.428736 1.622000 55 30 18
0.630583 -0.427997 1.630000 56 30 18
0.630583 -0.425144 1.630000 55 30 19
0.630583 -0.422291 1.630000 54 30 26
0.630583 -0.419437 1.630000 54 30 34
0.630583 -0.416584 1.630000 54 30 29
0.630583 -0.413731 1.630000 53 30 25
0.630583 -0.410877 1.630000 53 29 25
0.630583 -0.408024 1.630000 51 30 25
0.630583 -0.405171 1.630000 50 32 23
0.630583 -0.402317 1.630000 55 34 21
0.630583 -0.399464 1.630000 61 32 21
0.627488 -0.394664 1.622000 57 31 21
0.627488 -0.391825 1.622000 54 31 20
0.624780 -0.387307 1.615000 56 32 19
0.624780 -0.384480 1.615000 58 32 19
0.624780 -0.381653 1.615000 56 32 20
0.627488 -0.380468 1.622000 54 32 20
0.627488 -0.377628 1.622000 54 31 20
0.627488 -0.374789 1.622000 55 33 23
0.627488 -0.371950 1.622000 59 34 26
0.627488 -0.369110 1.622000 63 32 25
0.627488 -0.366271 1.622000 59 30 23
0.627488 -0.363432 1.622000 55 32 25
0.627488 -0.360593 1.622000 57 34 26
0.627488 -0.357753 1.622000 59 33 24
0.627488 -0.354914 1.622000 57 34 21
0.624780 -0.350555 1.615000 55 33 20
0.624780 -0.347728 1.615000 55 33 20
0.624780 -0.344901 1.615000 55 34 20
0.624780 -0.342074 1.615000 57 35 21
0.624780 -0.339247 1.615000 60 33 22
0.624780 -0.336420 1.615000 58 31 23
0.624780 -0.333593 1.615000 56 33 25
0.627488 -0.332199 1.622000 56 34 27
0.627488 -0.329360 1.622000 56 34 24
0.624780 -0.325112 1.615000 57 33 21
0.624780 -0.322285 1.615000 58 33 23
0.624780 -0.319458 1.615000 60 36 25
0.624780 -0.316630 1.615000 63 33 21
0.624780 -0.313803 1.615000 60 33 17
0.624780 -0.310976 1.615000 58 32 20
0.624780 -0.308149 1.615000 57 33 24
0.624780 -0.305322 1.615000 56 34 24
0.627488 -0.303806 1.622000 56 35 23
0.627488 -0.300967 1.622000 56 35 27
0.627488 -0.298128 1.622000 57 38 32
0.627488 -0.295288 1.622000 58 37 30
0.627488 -0.292449 1.622000 57 33 28
0.627488 -0.289610 1.622000 56 34 27
0.627488 -0.286770 1.622000 57 34 27
0.627488 -0.283931 1.622000 59 35 22
0.627488 -0.281092 1.622000 60 34 17
0.624780 -0.277052 1.615000 61 34 21
0.624780 -0.274225 1.615000 58 33 25
0.624780 -0.271398 1.615000 55 34 23
0.624780 -0.268570 1.615000 55 33 21
0.624780 -0.265743 1.615000 55 34 18
0.621685 -0.261614 1.607000 55 37 15
0.621685 -0.258801 1.607000 56 35 18
0.621685 -0.255988 1.607000 58 33 21
0.624780 -0.254435 1.615000 60 33 22
0.624780 -0.251608 1.615000 57 34 23
0.624780 -0.248781 1.615000 55 32 30
0.624780 -0.245954 1.615000 55 31 38
0.624780 -0.243127 1.615000 55 33 30
0.624780 -0.240300 1.615000 55 36 23
0.624780 -0.237473 1.615000 55 36 19
0.624780 -0.234646 1.615000 55 37 15
0.621685 -0.230670 1.607000 55 35 18
0.621685 -0.227857 1.607000 55 34 21
0.624780 -0.226165 1.615000 55 34 23
0.621685 -0.222231 1.607000 60 33 26
0.624780 -0.220511 1.615000 65 33 27
0.624780 -0.217683 1.615000 60 32 29
0.621685 -0.213792 1.607000 56 33 35
0.621685 -0.210979 1.607000 55 31 40
0.621685 -0.208166 1.607000 54 30 37
0.621685 -0.205353 1.607000 53 32 33
0.621685 -0.202540 1.607000 52 33 29
0.621685 -0.199727 1.607000 52 33 24
0.621685 -0.196914 1.607000 53 32 24
0.621685 -0.194101 1.607000 54 33 23
0.621685 -0.191288 1.607000 55 32 30
0.621685 -0.188475 1.607000 56 30 36
0.621685 -0.185662 1.607000 58 31 30
0.621685 -0.182848 1.607000 54 33 23
0.621685 -0.180035 1.607000 50 34 22
0.621685 -0.177222 1.607000 51 36 21
0.621685 -0.174409 1.607000 52 35 20
0.621685 -0.171596 1.607000 53 33 20
0.618977 -0.168048 1.600000 55 33 22
0.621685 -0.165970 1.607000 55 34 25
0.621685 -0.163157 1.607000 56 35 24
0.621685 -0.160344 1.607000 55 38 24
0.621685 -0.157531 1.607000 55 36 23
0.621685 -0.154718 1.607000 56 34 22
0.621685 -0.151905 1.607000 58 35 23
0.621685 -0.149092 1.607000 56 36 24
0.621685 -0.146279 1.607000 55 34 24
0.621685 -0.143466 1.607000 55 32 25
0.621685 -0.140653 1.607000 55 35 20
0.621685 -0.137840 1.607000 54 39 16
0.621685 -0.135027 1.607000 54 36 23
0.621685 -0.132213 1.607000 55 35 30
0.621685 -0.129400 1.607000 56 34 28
0.621685 -0.126587 1.607000 58 36 27
0.621685 -0.123774 1.607000 61 33 31
0.621685 -0.120961 1.607000 58 30 35
0.621685 -0.118148 1.607000 55 33 26
0.621685 -0.115335 1.607000 55 37 17
0.618977 -0.112032 1.600000 56 38 17
0.618977 -0.109231 1.600000 56 37 17
0.621685 -0.106896 1.607000 56 37 15
0.621685 -0.104083 1.607000 55 37 12
0.621685 -0.101270 1.607000 55 37 16
0.618977 -0.098028 1.600000 55 37 20
0.621685 -0.095644 1.607000 56 36 17
0.618977 -0.092426 1.600000 56 35 15
0.621685 -0.090018 1.607000 56 34 20
0.621685 -0.087205 1.607000 53 35 25
0.618977 -0.084024 1.600000 50 34 26
0.618977 -0.081223 1.600000 54 34 28
0.618977 -0.078422 1.600000 58 31 25
0.621685 -0.075952 1.607000 58 32 22
0.618977 -0.072821 1.600000 59 33 20
0.618977 -0.070020 1.600000 59 33 19
0.621685 -0.067513 1.607000 59 33 16
0.621685 -0.064700 1.607000 58 34 14
0.621685 -0.061887 1.607000 58 34 22
0.621685 -0.059074 1.607000 56 36 30
0.621685 -0.056261 1.607000 55 38 26
0.621685 -0.053448 1.607000 51 38 21
0.621685 -0.050635 1.607000 47 38 16
0.621685 -0.047822 1.607000 51 39 12
0.621685 -0.045009 1.607000 56 35 19
0.621685 -0.042196 1.607000 57 35 27
0.621685 -0.039383 1.607000 59 36 26
0.621685 -0.036570 1.607000 60 37 26
0.621685 -0.033757 1.607000 62 37 26
0.618977 -0.030809 1.600000 61 36 26
0.618977 -0.028008 1.600000 61 36 20
0.618977 -0.025207 1.600000 59 36 15
0.618977 -0.022406 1.600000 58 37 24
0.618977 -0.019606 1.600000 63 37 33
0.621685 -0.016878 1.607000 68 38 27
0.621685 -0.014065 1.607000 63 39 21
0.621685 -0.011252 1.607000 58 39 17
0.621685 -0.008439 1.607000 60 41 13
0.624780 -0.005654 1.615000 63 40 18
0.621685 -0.002813 1.607000 60 39 23
0.621685 -0.000000 1.607000 58 38 29
0.621685 0.002813 1.607000 58 39 35
0.621685 0.005626 1.607000 59 40 29
0.621685 0.008439 1.607000 60 39 23
0.618977 0.011203 1.600000 61 38 22
0.615882 0.013934 1.592000 63 39 22
0.618977 0.016805 1.600000 65 40 18
0.618977 0.019606 1.600000 62 41 15
0.618977 0.022406 1.600000 60 42 17
0.618977 0.025207 1.600000 59 43 19
0.618977 0.028008 1.600000 58 40 23
0.618977 0.030809 1.600000 56 39 28
0.618977 0.033610 1.600000 55 39 30
0.615882 0.036228 1.592000 54 39 32
0.615882 0.039015 1.592000 54 39 30
0.618977 0.042012 1.600000 56 41 29
0.618977 0.044813 1.600000 58 38 28
0.618977 0.047614 1.600000 59 39 27
0.618977 0.050414 1.600000 60 39 30
0.621685 0.053448 1.607000 65 40 33
0.621685 0.056261 1.607000 70 38 28
0.618977 0.058817 1.600000 64 37 24
0.618977 0.061618 1.600000 58 38 24
0.618977 0.064418 1.600000 54 40 24
0.618977 0.067219 1.600000 50 39 24
0.618977 0.070020 1.600000 49 39 24
0.621685 0.073139 1.607000 49 38 24
0.621685 0.075953 1.607000 49 39 24
0.624780 0.079158 1.615000 50 39 31
0.621685 0.081579 1.607000 49 41 38
0.621685 0.084392 1.607000 49 37 31
0.621685 0.087205 1.607000 47 38 23
0.618977 0.089626 1.600000 46 35 24
0.615882 0.091964 1.592000 46 31 24
0.615882 0.094751 1.592000 46 33 23
0.615882 0.097538 1.592000 45 34 22
0.615882 0.100325 1.592000 45 32 19
0.615882 0.103111 1.592000 44 30 17
0.615882 0.105898 1.592000 44 31 14
0.615882 0.108685 1.592000 43 32 11
0.615882 0.111472 1.592000 42 29 14
0.615882 0.169995 1.592000 32 17 18
0.610466 0.174024 1.578000 29 25 15
0.615882 0.178355 1.592000 26 23 16
0.846064 0.784811 2.187000 53 43 45
0.841035 0.783951 2.174000 49 43 38
0.841035 0.787757 2.174000 51 43 32
0.835619 0.786465 2.160000 53 42 38
0.835619 0.790246 2.160000 53 42 44
0.835619 0.794027 2.160000 53 42 45
0.835619 0.797808 2.160000 51 42 46
0.810473 0.777467 2.095000 50 42 46
0.781845 0.753543 2.021000 54 44 46
0.781845 0.757081 2.021000 58 40 49
0.786487 0.765135 2.033000 56 41 53
0.777203 0.759619 2.009000 54 42 49
0.777203 0.763136 2.009000 54 44 45
0.772947 0.762455 1.998000 55 44 45
0.768305 0.761352 1.986000 57 44 45
0.764050 0.760592 1.975000 60 43 40
0.755152 0.755152 1.952000 55 43 35
0.750896 0.754294 1.941000 50 40 29
0.747028 0.753788 1.931000 35 28 24
0.633436 -0.636289 1.630000 46 23 4
0.633436 -0.633436 1.630000 47 21 7
0.636545 -0.633678 1.638000 48 22 11
0.636545 -0.630810 1.638000 50 23 7
0.636545 -0.627943 1.638000 49 24 3
0.636545 -0.625076 1.638000 49 26 8
0.636545 -0.622208 1.638000 49 26 14
0.636545 -0.619341 1.638000 49 25 15
0.636545 -0.616474 1.638000 48 23 17
0.636545 -0.613606 1.638000 47 21 17
0.633436 -0.607756 1.630000 47 23 17
0.630327 -0.601934 1.622000 48 26 18
0.630327 -0.599095 1.622000 49 25 20
0.630327 -0.596255 1.622000 51 28 20
0.630327 -0.593416 1.622000 51 25 21
0.630327 -0.590577 1.622000 50 25 17
0.630327 -0.587737 1.622000 51 26 14
0.633436 -0.587783 1.630000 52 26 17
0.633436 -0.584930 1.630000 50 26 21
0.633436 -0.582076 1.630000 48 23 32
0.633436 -0.579223 1.630000 48 23 44
0.633436 -0.576370 1.630000 49 24 32
0.633436 -0.573516 1.630000 48 26 20
0.633436 -0.570663 1.630000 46 30 14
0.633436 -0.567810 1.630000 49 27 8
0.633436 -0.564956 1.630000 53 26 9
0.630327 -0.559344 1.622000 52 28 10
0.630327 -0.556505 1.622000 51 28 10
0.630327 -0.553666 1.622000 50 28 10
0.630327 -0.550826 1.622000 50 28 7
0.633436 -0.550690 1.630000 51 28 4
0.633436 -0.547836 1.630000 52 28 9
0.633436 -0.544983 1.630000 48 29 15
0.633436 -0.542130 1.630000 44 30 12
0.633436 -0.539277 1.630000 45 30 10
0.633436 -0.536423 1.630000 47 31 15
0.633436 -0.533570 1.630000 47 28 20
0.633436 -0.530717 1.630000 48 25 20
0.633436 -0.527863 1.630000 48 27 21
0.633436 -0.525010 1.630000 48 30 21
0.630327 -0.519594 1.622000 48 28 21
0.630327 -0.516755 1.622000 49 27 18
0.630327 -0.513915 1.622000 49 27 16
0.633436 -0.513597 1.630000 50 25 15
0.633436 -0.510743 1.630000 50 27 15
0.633436 -0.507890 1.630000 51 30 15
0.630327 -0.502558 1.622000 51 28 16
0.630327 -0.499719 1.622000 51 27 16
0.633436 -0.499330 1.630000 52 28 16
0.633436 -0.496477 1.630000 53 29 12
0.630327 -0.491201 1.622000 49 27 8
0.630327 -0.488362 1.622000 46 27 14
0.630327 -0.485522 1.622000 48 26 20
0.630327 -0.482683 1.622000 50 26 25
0.633436 -0.482210 1.630000 52 25 30
0.630327 -0.477004 1.622000 54 23 29
0.630327 -0.474165 1.622000 52 25 28
0.630327 -0.471326 1.622000 50 26 22
0.630327 -0.468486 1.622000 52 27 17
0.630327 -0.465647 1.622000 54 26 17
0.630327 -0.462808 1.622000 54 28 17
0.630327 -0.459968 1.622000 55 29 9
0.630327 -0.457129 1.622000 53 29 1
0.630327 -0.454290 1.622000 51 30 12
0.630327 -0.451450 1.622000 50 29 24
0.627607 -0.446675 1.615000 50 26 29
0.627607 -0.443848 1.615000 51 28 35
0.627607 -0.441021 1.615000 52 30 28
0.627607 -0.438194 1.615000 53 28 22
0.627607 -0.435367 1.615000 55 29 17
0.627607 -0.432540 1.615000 54 30 12
0.627607 -0.429713 1.615000 54 32 15
0.630327 -0.428736 1.622000 54 30 18
0.630327 -0.425897 1.622000 54 31 18
0.630327 -0.423057 1.622000 54 30 19
0.630327 -0.420218 1.622000 53 31 30
0.630327 -0.417379 1.622000 53 30 42
0.630327 -0.414539 1.622000 53 30 33
0.630327 -0.411700 1.622000 55 28 25
0.633436 -0.410877 1.630000 56 26 25
0.630327 -0.406021 1.622000 54 29 25
0.630327 -0.403182 1.622000 51 31 23
0.630327 -0.400343 1.622000 54 31 21
0.630327 -0.397504 1.622000 57 31 17
0.630327 -0.394664 1.622000 55 30 13
0.630327 -0.391825 1.622000 54 30 16
0.627607 -0.387307 1.615000 54 31 19
0.627607 -0.384480 1.615000 55 32 19
0.627607 -0.381653 1.615000 53 32 20
0.627607 -0.378826 1.615000 50 35 17
0.630327 -0.377628 1.622000 52 33 14
0.627607 -0.373172 1.615000 54 33 20
0.627607 -0.370345 1.615000 56 31 26
0.630327 -0.369110 1.622000 58 30 26
0.630327 -0.366271 1.622000 55 31 26
0.630327 -0.363432 1.622000 53 34 29
0.627607 -0.359036 1.615000 54 33 32
0.627607 -0.356209 1.615000 55 33 27
0.627607 -0.353382 1.615000 54 33 22
0.627607 -0.350555 1.615000 54 34 21
0.627607 -0.347728 1.615000 53 34 20
0.627607 -0.344901 1.615000 52 36 20
0.627607 -0.342074 1.615000 54 34 21
0.627607 -0.339247 1.615000 57 34 23
0.627607 -0.336420 1.615000 56 31 26
0.627607 -0.333593 1.615000 55 30 32
0.627607 -0.330766 1.615000 55 32 38
0.627607 -0.327939 1.615000 55 34 29
0.627607 -0.325112 1.615000 56 33 21
0.627607 -0.322285 1.615000 56 34 18
0.627607 -0.319458 1.615000 58 34 16
0.627607 -0.316630 1.615000 61 34 16
0.627607 -0.313803 1.615000 59 33 16
0.627607 -0.310976 1.615000 58 31 21
0.627607 -0.308149 1.615000 59 32 27
0.627607 -0.305322 1.615000 60 33 24
0.630327 -0.303806 1.622000 57 33 21
0.627607 -0.299668 1.615000 55 34 26
0.627607 -0.296841 1.615000 56 36 31
0.630327 -0.295288 1.622000 58 38 21
0.627607 -0.291187 1.615000 57 35 12
0.627607 -0.288360 1.615000 56 35 17
0.627607 -0.285533 1.615000 56 34 22
0.627607 -0.282706 1.615000 57 34 18
0.627607 -0.279879 1.615000 57 34 14
0.627607 -0.277052 1.615000 58 34 18
0.627607 -0.274225 1.615000 56 34 22
0.624498 -0.270053 1.607000 55 36 22
0.624498 -0.267240 1.607000 55 34 22
0.624498 -0.264427 1.607000 55 34 21
0.624498 -0.261614 1.607000 55 34 21
0.624498 -0.258801 1.607000 56 34 21
0.624498 -0.255988 1.607000 56 33 21
0.624498 -0.253175 1.607000 57 33 22
0.624498 -0.250362 1.607000 56 33 23
0.624498 -0.247549 1.607000 55 33 28
0.624498 -0.244736 1.607000 53 32 33
0.624498 -0.241923 1.607000 52 34 28
0.624498 -0.239110 1.607000 54 35 23
0.624498 -0.236296 1.607000 55 34 17
0.624498 -0.233483 1.607000 58 34 11
0.624498 -0.230670 1.607000 61 34 16
0.624498 -0.227857 1.607000 58 34 21
0.624498 -0.225044 1.607000 55 36 25
0.624498 -0.222231 1.607000 57 34 29
0.627607 -0.220511 1.615000 59 36 29
0.627607 -0.217683 1.615000 57 33 29
0.624498 -0.213792 1.607000 55 34 32
0.624498 -0.210979 1.607000 53 32 35
0.624498 -0.208166 1.607000 51 30 34
0.624498 -0.205353 1.607000 51 32 34
0.624498 -0.202540 1.607000 52 36 31
0.624498 -0.199727 1.607000 52 32 28
0.624498 -0.196914 1.607000 53 30 27
0.624498 -0.194101 1.607000 54 32 27
0.624498 -0.191288 1.607000 54 34 30
0.624498 -0.188475 1.607000 54 31 33
0.624498 -0.185662 1.607000 55 31 29
0.624498 -0.182848 1.607000 53 33 26
0.624498 -0.180035 1.607000 52 34 23
0.621778 -0.176450 1.600000 52 35 21
0.621778 -0.173650 1.600000 53 34 19
0.621778 -0.170849 1.600000 53 32 17
0.621778 -0.168048 1.600000 53 32 19
0.621778 -0.165247 1.600000 54 34 21
0.621778 -0.162446 1.600000 55 37 22
0.624498 -0.160344 1.607000 52 36 23
0.624498 -0.157531 1.607000 50 36 22
0.624498 -0.154718 1.607000 53 34 21
0.621778 -0.151243 1.600000 56 35 22
0.624498 -0.149092 1.607000 55 34 23
0.621778 -0.145642 1.600000 55 34 22
0.624498 -0.143466 1.607000 54 33 21
0.624498 -0.140653 1.607000 54 34 15
0.624498 -0.137840 1.607000 56 36 10
0.624498 -0.135027 1.607000 58 36 24
0.624498 -0.132213 1.607000 56 34 38
0.624498 -0.129400 1.607000 55 34 33
0.624498 -0.126587 1.607000 57 34 28
0.624498 -0.123774 1.607000 59 30 27
0.624498 -0.120961 1.607000 56 31 26
0.621778 -0.117634 1.600000 53 34 21
0.621778 -0.114833 1.600000 53 37 17
0.621778 -0.112032 1.600000 54 39 17
0.621778 -0.109231 1.600000 55 38 17
0.621778 -0.106430 1.600000 55 38 13
0.624498 -0.104083 1.607000 54 37 9
0.621778 -0.100829 1.600000 52 38 13
0.621778 -0.098028 1.600000 54 36 17
0.621778 -0.095227 1.600000 55 36 16
0.621778 -0.092426 1.600000 55 35 15
0.621778 -0.089626 1.600000 55 34 21
0.621778 -0.086825 1.600000 54 34 28
0.621778 -0.084024 1.600000 53 36 31
0.621778 -0.081223 1.600000 55 33 35
0.621778 -0.078422 1.600000 57 29 28
0.621778 -0.075622 1.600000 57 32 21
0.621778 -0.072821 1.600000 57 33 18
0.621778 -0.070020 1.600000 57 34 15
0.621778 -0.067219 1.600000 57 34 14
0.624498 -0.064700 1.607000 57 33 14
0.621778 -0.061618 1.600000 57 30 27
0.621778 -0.058817 1.600000 56 34 41
0.621778 -0.056016 1.600000 55 37 31
0.621778 -0.053215 1.600000 52 36 21
0.621778 -0.050414 1.600000 49 36 18
0.621778 -0.047614 1.600000 52 35 15
0.621778 -0.044813 1.600000 55 35 22
0.624498 -0.042196 1.607000 55 35 29
0.624498 -0.039383 1.607000 55 36 34
0.621778 -0.036410 1.600000 57 36 39
0.621778 -0.033610 1.600000 60 37 32
0.621778 -0.030809 1.600000 61 37 26
0.621778 -0.028008 1.600000 63 36 18
0.621778 -0.025207 1.600000 60 36 10
0.621778 -0.022406 1.600000 58 37 18
0.621778 -0.019606 1.600000 59 37 26
0.621778 -0.016805 1.600000 60 37 21
0.621778 -0.014004 1.600000 59 38 17
0.621778 -0.011203 1.600000 58 40 12
0.621778 -0.008402 1.600000 58 40 7
0.624498 -0.005626 1.607000 58 40 14
0.624498 -0.002813 1.607000 57 37 22
0.621778 -0.000000 1.600000 57 36 24
0.621778 0.002801 1.600000 57 39 27
0.621778 0.005602 1.600000 57 42 19
0.621778 0.008402 1.600000 58 39 12
0.618669 0.011147 1.592000 60 37 15
0.618669 0.013934 1.592000 61 39 18
0.618669 0.016721 1.592000 62 41 14
0.618669 0.019508 1.592000 61 40 10
0.618669 0.022294 1.592000 61 41 15
0.618669 0.025081 1.592000 60 40 21
0.618669 0.027868 1.592000 59 39 33
0.618669 0.030655 1.592000 57 38 45
0.618669 0.033442 1.592000 55 38 38
0.618669 0.036228 1.592000 55 37 31
0.618669 0.039015 1.592000 56 36 31
0.618669 0.041802 1.592000 57 36 31
0.618669 0.044589 1.592000 59 36 30
0.618669 0.047376 1.592000 59 36 30
0.618669 0.050162 1.592000 59 37 32
0.621778 0.053215 1.600000 60 39 34
0.621778 0.056016 1.600000 62 41 29
0.618669 0.058523 1.592000 60 38 25
0.618669 0.061310 1.592000 58 39 25
0.618669 0.064096 1.592000 55 39 26
0.618669 0.066883 1.592000 53 40 26
0.618669 0.069670 1.592000 53 39 26
0.618669 0.072457 1.592000 53 40 26
0.621778 0.075622 1.600000 53 38 26
0.624498 0.078766 1.607000 53 40 37
0.621778 0.081223 1.600000 54 40 48
0.621778 0.084024 1.600000 56 41 37
0.618669 0.086391 1.592000 54 39 26
0.618669 0.089178 1.592000 52 39 29
0.618669 0.091964 1.592000 51 36 32
0.618669 0.094751 1.592000 50 38 25
0.615948 0.097109 1.585000 51 37 19
0.615948 0.099884 1.585000 52 38 19
0.615948 0.102658 1.585000 53 36 19
0.615948 0.105433 1.585000 54 36 18
0.615948 0.108207 1.585000 50 36 18
0.615948 0.110982 1.585000 46 37 16
0.613228 0.113254 1.578000 49 32 14
0.613228 0.116016 1.578000 53 34 17
0.613228 0.151926 1.578000 40 31 26
0.613228 0.168500 1.578000 37 23 20
0.613228 0.171262 1.578000 37 22 18
0.613228 0.174024 1.578000 36 26 17
0.615948 0.177571 1.585000 34 29 18
0.615948 0.180345 1.585000 36 25 19
0.613228 0.182311 1.578000 39 21 19
0.615948 0.185894 1.585000 37 22 19
0.615948 0.188669 1.585000 35 22 18
0.849892 0.784811 2.187000 49 42 40
0.844840 0.783951 2.174000 49 44 40
0.839400 0.782684 2.160000 50 43 41
0.839400 0.786465 2.160000 51 43 44
0.839400 0.790246 2.160000 53 42 47
0.834348 0.789248 2.147000 54 43 49
0.834348 0.793006 2.147000 52 42 52
0.814140 0.777467 2.095000 51 43 49
0.809088 0.776287 2.082000 53 41 47
0.790046 0.761576 2.033000 55 39 48
0.790046 0.765135 2.033000 53 42 50
0.780720 0.759619 2.009000 52 43 48
0.780720 0.763136 2.009000 52 43 47
0.771782 0.757876 1.986000 52 43 45
0.771782 0.761352 1.986000 54 43 43
0.763232 0.756356 1.964000 57 45 36
0.758569 0.755152 1.952000 53 42 29
0.754294 0.754294 1.941000 49 43 28
0.750408 0.753788 1.931000 35 27 27
0.636289 -0.636289 1.630000 48 24 8
0.636289 -0.633436 1.630000 47 22 10
0.636289 -0.630583 1.630000 48 23 13
0.636289 -0.627729 1.630000 49 23 13
0.636289 -0.624876 1.630000 49 25 14
0.636289 -0.622023 1.630000 49 23 14
0.636289 -0.619169 1.630000 49 26 14
0.630434 -0.610645 1.615000 49 24 14
0.627311 -0.604807 1.607000 48 22 14
0.633166 -0.607613 1.622000 47 21 17
0.627311 -0.599180 1.607000 47 21 20
0.630434 -0.599336 1.615000 47 22 19
0.630434 -0.596509 1.615000 46 21 19
0.630434 -0.593682 1.615000 46 24 20
0.630434 -0.590855 1.615000 48 26 21
0.630434 -0.588028 1.615000 50 25 18
0.633166 -0.587737 1.622000 50 25 15
0.633166 -0.584898 1.622000 50 25 15
0.633166 -0.582059 1.622000 48 29 15
0.633166 -0.579220 1.622000 47 26 19
0.633166 -0.576380 1.622000 48 26 24
0.636289 -0.576370 1.630000 50 25 20
0.636289 -0.573516 1.630000 50 25 16
0.636289 -0.570663 1.630000 50 27 13
0.636289 -0.567810 1.630000 51 28 11
0.633166 -0.562184 1.622000 52 27 11
0.630434 -0.556930 1.615000 51 28 12
0.630434 -0.554103 1.615000 51 29 14
0.630434 -0.551276 1.615000 51 31 15
0.633166 -0.550826 1.622000 51 28 12
0.633166 -0.547987 1.622000 53 29 9
0.633166 -0.545148 1.622000 55 27 11
0.633166 -0.542308 1.622000 51 27 14
0.636289 -0.542130 1.630000 47 28 13
0.633166 -0.536630 1.622000 47 30 12
0.633166 -0.533790 1.622000 47 29 14
0.633166 -0.530951 1.622000 48 28 17
0.633166 -0.528112 1.622000 50 26 15
0.630434 -0.523006 1.615000 47 27 13
0.627311 -0.517602 1.607000 45 27 16
0.630434 -0.517352 1.615000 48 28 20
0.627311 -0.511976 1.607000 51 26 22
0.627311 -0.509163 1.607000 50 26 25
0.627311 -0.506350 1.607000 50 26 20
0.633166 -0.508237 1.622000 50 29 15
0.633166 -0.505397 1.622000 51 30 15
0.633166 -0.502558 1.622000 51 31 15
0.633166 -0.499719 1.622000 51 28 15
0.633166 -0.496879 1.622000 52 29 15
0.633166 -0.494040 1.622000 54 27 18
0.633166 -0.491201 1.622000 49 26 21
0.633166 -0.488362 1.622000 45 26 20
0.633166 -0.485522 1.622000 47 25 20
0.633166 -0.482683 1.622000 50 26 22
0.630434 -0.477773 1.615000 50 26 25
0.630434 -0.474946 1.615000 51 24 24
0.630434 -0.472119 1.615000 50 26 24
0.630434 -0.469292 1.615000 50 27 20
0.633166 -0.468486 1.622000 51 30 16
0.630434 -0.463637 1.615000 53 29 16
0.630434 -0.460810 1.615000 52 30 17
0.633166 -0.459968 1.622000 51 29 13
0.633166 -0.457129 1.622000 50 30 9
0.633166 -0.454290 1.622000 49 30 15
0.630434 -0.449502 1.615000 50 30 22
0.630434 -0.446675 1.615000 51 27 26
0.630434 -0.443848 1.615000 51 28 31
0.630434 -0.441021 1.615000 51 27 26
0.630434 -0.438194 1.615000 52 24 21
0.630434 -0.435367 1.615000 54 27 17
0.630434 -0.432540 1.615000 54 32 13
0.630434 -0.429713 1.615000 54 30 14
0.630434 -0.426886 1.615000 53 28 16
0.630434 -0.424059 1.615000 53 29 13
0.630434 -0.421232 1.615000 53 30 11
0.630434 -0.418405 1.615000 53 29 21
0.630434 -0.415577 1.615000 53 30 31
0.630434 -0.412750 1.615000 53 29 24
0.630434 -0.409923 1.615000 56 28 16
0.633166 -0.408861 1.622000 60 28 20
0.633166 -0.406021 1.622000 56 30 24
0.630434 -0.401442 1.615000 53 30 27
0.630434 -0.398615 1.615000 53 30 30
0.630434 -0.395788 1.615000 53 30 24
0.630434 -0.392961 1.615000 53 30 18
0.630434 -0.390134 1.615000 54 30 20
0.630434 -0.387307 1.615000 53 33 22
0.627311 -0.382575 1.607000 53 32 24
0.630434 -0.381653 1.615000 50 31 27
0.630434 -0.378826 1.615000 47 33 22
0.630434 -0.375999 1.615000 50 34 17
0.630434 -0.373172 1.615000 54 32 21
0.630434 -0.370345 1.615000 53 29 26
0.630434 -0.367517 1.615000 53 30 24
0.630434 -0.364690 1.615000 52 32 23
0.630434 -0.361863 1.615000 51 33 23
0.630434 -0.359036 1.615000 51 34 23
0.627311 -0.354445 1.607000 51 33 21
0.627311 -0.351632 1.607000 52 33 20
0.627311 -0.348819 1.607000 54 33 20
0.627311 -0.346006 1.607000 51 33 19
0.627311 -0.343193 1.607000 49 33 19
0.627311 -0.340379 1.607000 52 32 20
0.627311 -0.337566 1.607000 55 31 23
0.630434 -0.336420 1.615000 54 30 26
0.627311 -0.331940 1.607000 54 31 29
0.630434 -0.330766 1.615000 54 33 32
0.630434 -0.327939 1.615000 55 32 22
0.627311 -0.323501 1.607000 55 34 13
0.627311 -0.320688 1.607000 55 32 13
0.627311 -0.317875 1.607000 57 34 13
0.627311 -0.315062 1.607000 59 34 14
0.627311 -0.312249 1.607000 58 34 16
0.627311 -0.309436 1.607000 58 32 23
0.627311 -0.306623 1.607000 61 31 31
0.630434 -0.305322 1.615000 64 32 28
0.630434 -0.302495 1.615000 59 32 24
0.630434 -0.299668 1.615000 55 33 31
0.630434 -0.296841 1.615000 56 34 37
0.630434 -0.294014 1.615000 58 35 29
0.630434 -0.291187 1.615000 57 34 20
0.630434 -0.288360 1.615000 56 34 23
0.630434 -0.285533 1.615000 55 34 25
0.630434 -0.282706 1.615000 55 34 21
0.630434 -0.279879 1.615000 55 34 17
0.630434 -0.277052 1.615000 55 34 19
0.627311 -0.272866 1.607000 55 34 21
0.627311 -0.270053 1.607000 56 35 23
0.627311 -0.267240 1.607000 55 35 25
0.627311 -0.264427 1.607000 55 34 27
0.627311 -0.261614 1.607000 55 34 28
0.627311 -0.258801 1.607000 56 34 27
0.627311 -0.255988 1.607000 55 33 26
0.627311 -0.253175 1.607000 54 33 26
0.627311 -0.250362 1.607000 54 34 25
0.627311 -0.247549 1.607000 55 32 29
0.627311 -0.244736 1.607000 52 30 33
0.627311 -0.241923 1.607000 50 33 29
0.627311 -0.239110 1.607000 53 36 26
0.627311 -0.236296 1.607000 56 34 19
0.627311 -0.233483 1.607000 61 34 13
0.627311 -0.230670 1.607000 67 32 18
0.627311 -0.227857 1.607000 61 32 24
0.627311 -0.225044 1.607000 55 33 27
0.627311 -0.222231 1.607000 54 34 31
0.627311 -0.219418 1.607000 53 33 29
0.627311 -0.216605 1.607000 54 32 28
0.627311 -0.213792 1.607000 55 32 29
0.627311 -0.210979 1.607000 52 34 30
0.627311 -0.208166 1.607000 49 32 28
0.627311 -0.205353 1.607000 50 33 26
0.627311 -0.202540 1.607000 52 33 29
0.624578 -0.198857 1.600000 53 31 31
0.624578 -0.196056 1.600000 54 30 29
0.624578 -0.193255 1.600000 54 31 26
0.624578 -0.190454 1.600000 54 32 27
0.624578 -0.187654 1.600000 53 32 27
0.624578 -0.184853 1.600000 52 34 25
0.624578 -0.182052 1.600000 53 34 23
0.624578 -0.179251 1.600000 54 34 22
0.624578 -0.176450 1.600000 54 37 20
0.624578 -0.173650 1.600000 54 34 19
0.624578 -0.170849 1.600000 52 32 18
0.624578 -0.168048 1.600000 51 33 19
0.624578 -0.165247 1.600000 52 36 21
0.624578 -0.162446 1.600000 54 35 20
0.624578 -0.159646 1.600000 50 36 19
0.624578 -0.156845 1.600000 46 35 18
0.624578 -0.154044 1.600000 50 33 17
0.627311 -0.151905 1.607000 54 33 19
0.624578 -0.148442 1.600000 54 34 22
0.624578 -0.145642 1.600000 55 33 22
0.624578 -0.142841 1.600000 54 33 23
0.624578 -0.140040 1.600000 54 33 18
0.624578 -0.137239 1.600000 58 35 12
0.624578 -0.134438 1.600000 62 35 21
0.624578 -0.131638 1.600000 58 32 29
0.624578 -0.128837 1.600000 55 34 27
0.624578 -0.126036 1.600000 56 36 24
0.624578 -0.123235 1.600000 58 32 24
0.624578 -0.120434 1.600000 54 31 23
0.624578 -0.117634 1.600000 51 34 23
0.624578 -0.114833 1.600000 52 40 24
0.624578 -0.112032 1.600000 53 39 21
0.621456 -0.108685 1.592000 54 39 19
0.621456 -0.105898 1.592000 55 37 17
0.621456 -0.103111 1.592000 52 36 15
0.621456 -0.100325 1.592000 50 36 20
0.621456 -0.097538 1.592000 52 35 25
0.621456 -0.094751 1.592000 55 35 18
0.621456 -0.091964 1.592000 55 37 12
0.624578 -0.089626 1.600000 55 36 18
0.624578 -0.086825 1.600000 55 34 25
0.621456 -0.083604 1.592000 56 34 28
0.621456 -0.080817 1.592000 56 34 31
0.621456 -0.078030 1.592000 56 33 26
0.624578 -0.075622 1.600000 56 35 21
0.621456 -0.072457 1.592000 56 35 18
0.624578 -0.070020 1.600000 56 37 16
0.624578 -0.067219 1.600000 56 36 17
0.624578 -0.064418 1.600000 56 37 18
0.624578 -0.061618 1.600000 56 34 24
0.621456 -0.058523 1.592000 56 34 31
0.624578 -0.056016 1.600000 56 35 27
0.624578 -0.053215 1.600000 53 34 24
0.624578 -0.050414 1.600000 51 35 23
0.624578 -0.047614 1.600000 52 33 22
0.624578 -0.044813 1.600000 54 34 23
0.624578 -0.042012 1.600000 52 34 25
0.624578 -0.039211 1.600000 51 35 28
0.624578 -0.036410 1.600000 54 34 32
0.624578 -0.033610 1.600000 58 37 28
0.621456 -0.030655 1.592000 61 39 25
0.621456 -0.027868 1.592000 65 36 21
0.621456 -0.025081 1.592000 61 37 17
0.621456 -0.022294 1.592000 58 37 21
0.621456 -0.019508 1.592000 55 39 24
0.621456 -0.016721 1.592000 52 37 22
0.621456 -0.013934 1.592000 55 36 19
0.621456 -0.011147 1.592000 58 37 15
0.624578 -0.008402 1.600000 56 39 11
0.624578 -0.005602 1.600000 54 38 16
0.624578 -0.002801 1.600000 55 35 22
0.624578 -0.000000 1.600000 56 36 24
0.624578 0.002801 1.600000 55 40 27
0.624578 0.005602 1.600000 55 40 21
0.624578 0.008402 1.600000 57 39 16
0.621456 0.011147 1.592000 59 39 17
0.621456 0.013934 1.592000 59 41 19
0.621456 0.016721 1.592000 59 40 20
0.621456 0.019508 1.592000 60 39 20
0.621456 0.022294 1.592000 62 39 22
0.621456 0.025081 1.592000 61 38 23
0.621456 0.027868 1.592000 61 36 30
0.621456 0.030655 1.592000 58 36 38
0.621456 0.033442 1.592000 56 37 32
0.621456 0.036228 1.592000 57 38 27
0.621456 0.039015 1.592000 58 35 26
0.621456 0.041802 1.592000 59 34 26
0.618723 0.044393 1.585000 61 34 27
0.621456 0.047376 1.592000 60 35 27
0.618723 0.049942 1.585000 59 37 28
0.618723 0.052716 1.585000 56 39 30
0.621456 0.055736 1.592000 54 39 27
0.618723 0.058265 1.585000 56 38 25
0.618723 0.061040 1.585000 59 39 27
0.618723 0.063815 1.585000 57 40 29
0.618723 0.066589 1.585000 56 39 26
0.615991 0.069057 1.578000 57 39 24
0.621456 0.072457 1.592000 58 37 23
0.621456 0.075244 1.592000 57 36 21
0.624578 0.078422 1.600000 56 38 27
0.621456 0.080817 1.592000 60 40 33
0.621456 0.083604 1.592000 64 39 29
0.621456 0.086391 1.592000 61 40 26
0.618723 0.088785 1.585000 59 39 26
0.618723 0.091560 1.585000 56 39 27
0.618723 0.094335 1.585000 54 37 23
0.618723 0.097109 1.585000 57 39 18
0.618723 0.099884 1.585000 60 39 22
0.618723 0.102658 1.585000 62 41 26
0.618723 0.105433 1.585000 65 37 22
0.618723 0.108207 1.585000 58 39 19
0.618723 0.110982 1.585000 51 36 18
0.615991 0.113254 1.578000 57 34 17
0.615991 0.116016 1.578000 64 33 22
0.615991 0.118778 1.578000 57 36 28
0.615991 0.121541 1.578000 51 36 26
0.618723 0.124854 1.585000 51 39 24
0.618723 0.127629 1.585000 52 36 21
0.618723 0.130404 1.585000 51 37 17
0.621456 0.133766 1.592000 51 36 18
0.624578 0.137239 1.600000 51 40 19
0.618723 0.138727 1.585000 52 35 18
0.618723 0.141502 1.585000 50 36 18
0.618723 0.144276 1.585000 48 35 17
0.618723 0.147051 1.585000 47 38 17
0.615991 0.149164 1.578000 47 35 22
0.615991 0.151926 1.578000 47 37 27
0.615991 0.154688 1.578000 47 33 30
0.615991 0.160213 1.578000 47 32 27
0.615991 0.162975 1.578000 45 32 21
0.615991 0.165737 1.578000 44 30 19
0.615991 0.168500 1.578000 43 30 17
0.613258 0.170502 1.571000 43 28 17
0.615991 0.174024 1.578000 43 28 18
0.618723 0.177571 1.585000 43 29 21
0.618723 0.180345 1.585000 44 29 25
0.615991 0.182311 1.578000 46 28 23
0.615991 0.185073 1.578000 44 25 20
0.615991 0.187836 1.578000 42 25 17
0.618723 0.191443 1.585000 40 26 13
0.618723 0.194218 1.585000 38 27 15
0.621456 0.197863 1.592000 38 24 17
0.618723 0.199767 1.585000 39 27 16
0.621456 0.203436 1.592000 37 25 16
0.615991 0.232032 1.578000 27 20 8
0.615991 0.234795 1.578000 26 21 8
0.615991 0.237557 1.578000 26 21 11
0.627311 0.278492 1.607000 18 14 9
0.624578 0.280080 1.600000 20 13 8
0.627311 0.284118 1.607000 20 14 7
0.848646 0.783951 2.174000 49 43 42
0.838106 0.777973 2.147000 49 44 49
0.832641 0.776634 2.133000 50 43 49
0.838106 0.785490 2.147000 53 40 48
0.822492 0.774544 2.107000 56 41 48
0.817807 0.773800 2.095000 54 41 48
0.817807 0.777467 2.095000 52 41 46
0.812733 0.776287 2.082000 52 40 45
0.802974 0.770567 2.057000 52 41 46
0.807658 0.778684 2.069000 51 45 48
0.784236 0.759619 2.009000 50 44 47
0.784236 0.763136 2.009000 50 45 47
0.779942 0.762455 1.998000 50 43 48
0.779942 0.765952 1.998000 52 42 50
0.766670 0.756356 1.964000 54 43 43
0.761986 0.755152 1.952000 51 40 37
0.757692 0.754294 1.941000 49 35 31
0.753788 0.753788 1.931000 34 24 26
0.636006 -0.633166 1.622000 47 23 12
0.636006 -0.630327 1.622000 47 22 13
0.636006 -0.627488 1.622000 47 21 15
0.639143 -0.627729 1.630000 47 21 20
0.636006 -0.621809 1.622000 48 20 25
0.636006 -0.618970 1.622000 49 18 19
0.636006 -0.616131 1.622000 49 23 14
0.633261 -0.610645 1.615000 49 25 13
0.630124 -0.604807 1.607000 47 23 12
0.630124 -0.601994 1.607000 45 21 17
0.630124 -0.599180 1.607000 46 21 23
0.633261 -0.599336 1.615000 46 21 20
0.633261 -0.596509 1.615000 46 23 18
0.633261 -0.593682 1.615000 45 24 20
0.633261 -0.590855 1.615000 47 25 22
0.633261 -0.588028 1.615000 49 26 19
0.633261 -0.585201 1.615000 48 23 17
0.633261 -0.582374 1.615000 48 23 13
0.633261 -0.579547 1.615000 46 26 9
0.633261 -0.576720 1.615000 44 27 7
0.633261 -0.573893 1.615000 47 26 5
0.633261 -0.571066 1.615000 50 26 9
0.630124 -0.565424 1.607000 50 25 13
0.630124 -0.562611 1.607000 50 26 13
0.630124 -0.559798 1.607000 50 26 14
0.633261 -0.559757 1.615000 51 26 14
0.633261 -0.556930 1.615000 49 28 15
0.633261 -0.554103 1.615000 48 30 18
0.633261 -0.551276 1.615000 49 28 21
0.633261 -0.548449 1.615000 50 26 17
0.633261 -0.545622 1.615000 51 26 14
0.633261 -0.542795 1.615000 52 26 14
0.633261 -0.539968 1.615000 49 26 14
0.636006 -0.539469 1.622000 47 26 14
0.636006 -0.536630 1.622000 48 26 15
0.636006 -0.533790 1.622000 50 27 14
0.636006 -0.530951 1.622000 49 26 14
0.633261 -0.525833 1.615000 49 26 9
0.633261 -0.523006 1.615000 48 24 5
0.633261 -0.520179 1.615000 47 23 12
0.630124 -0.514789 1.607000 48 25 20
0.630124 -0.511976 1.607000 50 25 27
0.627379 -0.506945 1.600000 48 26 34
0.630124 -0.506350 1.607000 47 25 25
0.630124 -0.503537 1.607000 46 27 16
0.630124 -0.500724 1.607000 46 30 15
0.630124 -0.497910 1.607000 48 29 15
0.630124 -0.495097 1.607000 50 28 15
0.636006 -0.496879 1.622000 51 28 15
0.636006 -0.494040 1.622000 51 25 24
0.633261 -0.489081 1.615000 48 25 34
0.633261 -0.486254 1.615000 45 27 27
0.630124 -0.481032 1.607000 47 27 21
0.633261 -0.480600 1.615000 50 28 20
0.630124 -0.475406 1.607000 50 25 20
0.630124 -0.472593 1.607000 50 23 20
0.633261 -0.472119 1.615000 50 25 20
0.633261 -0.469292 1.615000 50 26 18
0.633261 -0.466465 1.615000 50 28 16
0.633261 -0.463637 1.615000 51 30 16
0.633261 -0.460810 1.615000 51 28 17
0.636006 -0.459968 1.622000 50 29 17
0.636006 -0.457129 1.622000 49 29 17
0.633261 -0.452329 1.615000 47 30 19
0.633261 -0.449502 1.615000 51 27 21
0.633261 -0.446675 1.615000 54 24 24
0.633261 -0.443848 1.615000 53 26 27
0.633261 -0.441021 1.615000 52 26 24
0.630124 -0.436023 1.607000 52 25 21
0.630124 -0.433210 1.607000 52 26 18
0.630124 -0.430397 1.607000 52 28 15
0.630124 -0.427584 1.607000 52 29 14
0.630124 -0.424771 1.607000 51 28 14
0.630124 -0.421958 1.607000 51 27 8
0.630124 -0.419145 1.607000 50 26 3
0.630124 -0.416332 1.607000 48 26 12
0.630124 -0.413519 1.607000 50 27 21
0.630124 -0.410706 1.607000 51 28 14
0.630124 -0.407893 1.607000 53 27 8
0.633261 -0.407096 1.615000 54 28 16
0.633261 -0.404269 1.615000 52 28 24
0.630124 -0.399454 1.607000 49 29 31
0.630124 -0.396641 1.607000 51 29 39
0.630124 -0.393828 1.607000 53 29 31
0.633261 -0.392961 1.615000 52 30 24
0.630124 -0.388201 1.607000 51 30 25
0.630124 -0.385388 1.607000 51 31 26
0.630124 -0.382575 1.607000 51 32 30
0.630124 -0.379762 1.607000 49 33 34
0.630124 -0.376949 1.607000 48 34 27
0.630124 -0.374136 1.607000 52 33 20
0.630124 -0.371323 1.607000 56 33 23
0.630124 -0.368510 1.607000 55 31 26
0.630124 -0.365697 1.607000 53 32 23
0.630124 -0.362884 1.607000 52 32 20
0.630124 -0.360071 1.607000 50 33 17
0.630124 -0.357258 1.607000 49 33 14
0.630124 -0.354445 1.607000 49 32 16
0.630124 -0.351632 1.607000 51 31 19
0.630124 -0.348819 1.607000 53 32 19
0.630124 -0.346006 1.607000 52 32 19
0.630124 -0.343193 1.607000 52 33 19
0.630124 -0.340379 1.607000 54 32 19
0.630124 -0.337566 1.607000 57 30 22
0.630124 -0.334753 1.607000 56 30 26
0.630124 -0.331940 1.607000 55 33 26
0.630124 -0.329127 1.607000 56 31 26
0.630124 -0.326314 1.607000 57 30 15
0.630124 -0.323501 1.607000 55 30 5
0.630124 -0.320688 1.607000 53 29 7
0.630124 -0.317875 1.607000 55 33 10
0.630124 -0.315062 1.607000 57 37 13
0.630124 -0.312249 1.607000 57 33 16
0.630124 -0.309436 1.607000 58 32 26
0.630124 -0.306623 1.607000 59 31 36
0.630124 -0.303810 1.607000 60 34 32
0.630124 -0.300997 1.607000 56 32 28
0.630124 -0.298184 1.607000 52 32 36
0.630124 -0.295371 1.607000 54 34 44
0.630124 -0.292558 1.607000 57 34 36
0.630124 -0.289744 1.607000 56 34 29
0.630124 -0.286931 1.607000 55 34 29
0.630124 -0.284118 1.607000 55 34 29
0.630124 -0.281305 1.607000 55 34 25
0.630124 -0.278492 1.607000 54 34 21
0.630124 -0.275679 1.607000 54 34 21
0.630124 -0.272866 1.607000 55 34 21
0.630124 -0.270053 1.607000 55 35 25
0.630124 -0.267240 1.607000 54 34 29
0.630124 -0.264427 1.607000 53 35 32
0.627379 -0.260474 1.600000 53 35 36
0.627379 -0.257674 1.600000 53 36 34
0.627379 -0.254873 1.600000 53 32 32
0.630124 -0.253175 1.607000 54 32 30
0.630124 -0.250362 1.607000 53 32 28
0.630124 -0.247549 1.607000 53 32 31
0.630124 -0.244736 1.607000 52 33 34
0.630124 -0.241923 1.607000 51 34 31
0.630124 -0.239110 1.607000 53 35 29
0.627379 -0.235267 1.600000 55 35 22
0.627379 -0.232466 1.600000 58 32 16
0.627379 -0.229666 1.600000 61 31 21
0.627379 -0.226865 1.600000 57 31 27
0.627379 -0.224064 1.600000 54 31 30
0.627379 -0.221263 1.600000 54 32 34
0.627379 -0.218462 1.600000 54 32 30
0.630124 -0.216605 1.607000 55 31 27
0.627379 -0.212861 1.600000 56 28 26
0.627379 -0.210060 1.600000 53 31 26
0.630124 -0.208166 1.607000 51 33 22
