ply
format ascii 1.0
element vertex 1328
property float x
property float y
property float z
property uchar red
property uchar green
property uchar blue
end_header
0.382309 0.819234 2.400000 68 55 64
0.379761 0.817946 2.384000 68 54 61
0.377052 0.816257 2.367000 68 53 58
0.374504 0.814854 2.351000 69 52 63
0.369566 0.808171 2.320000 71 52 68
0.364627 0.801379 2.289000 73 55 66
0.362238 0.800108 2.274000 73 56 63
0.359849 0.798785 2.259000 73 54 64
0.359849 0.802739 2.259000 75 52 64
0.355229 0.796338 2.230000 78 51 63
0.350609 0.789834 2.201000 76 52 63
0.348379 0.788639 2.187000 75 53 63
0.346308 0.787757 2.174000 76 55 63
0.344078 0.786465 2.160000 77 54 65
0.337707 0.775612 2.120000 74 53 68
0.337707 0.779323 2.120000 71 53 66
0.335636 0.778232 2.107000 74 54 65
0.333724 0.777467 2.095000 77 54 65
0.329582 0.771440 2.069000 74 55 66
0.325759 0.766071 2.045000 72 55 66
0.320025 0.756102 2.009000 73 55 67
0.320025 0.759619 2.009000 74 56 67
0.319069 0.760857 2.003000 74 57 68
0.318272 0.762455 1.998000 74 57 67
0.316361 0.761352 1.986000 72 58 67
0.310945 0.751735 1.952000 71 57 69
0.309193 0.750896 1.941000 70 56 72
0.540631 0.957858 3.357000 66 51 64
0.535317 0.954261 3.324000 68 53 58
0.528553 0.947948 3.282000 67 52 53
0.467839 0.889911 2.905000 72 51 62
0.463974 0.887602 2.881000 70 52 59
0.460108 0.885209 2.857000 70 51 57
0.460108 0.890210 2.857000 70 53 59
0.456404 0.888004 2.834000 70 55 62
0.448996 0.878471 2.788000 70 56 60
0.441749 0.869094 2.743000 70 53 59
0.438367 0.867205 2.722000 69 53 57
0.434985 0.865243 2.701000 70 55 56
0.428221 0.856443 2.659000 70 56 53
0.425000 0.854620 2.639000 70 55 50
0.421779 0.852728 2.619000 70 56 57
0.415499 0.844546 2.580000 68 55 65
0.415499 0.849063 2.580000 67 56 53
0.412278 0.846962 2.560000 70 55 42
0.412278 0.851443 2.560000 73 55 49
0.400521 0.831517 2.487000 72 54 56
0.397623 0.829821 2.469000 70 55 59
0.391986 0.822318 2.434000 70 53 63
0.389248 0.820806 2.417000 70 51 61
0.386510 0.819234 2.400000 70 54 59
0.381196 0.812113 2.367000 69 55 56
0.378619 0.810739 2.351000 69 53 54
0.376042 0.809309 2.335000 69 53 58
0.373627 0.808171 2.320000 70 53 63
0.371050 0.806631 2.304000 72 55 62
0.366219 0.800108 2.274000 72 55 61
0.363803 0.798785 2.259000 72 54 60
0.361387 0.797409 2.244000 73 52 59
0.359133 0.796338 2.230000 73 51 58
0.356717 0.794858 2.215000 73 52 58
0.352208 0.788639 2.187000 73 54 55
0.350114 0.787757 2.174000 73 54 53
0.347859 0.786465 2.160000 74 55 59
0.341418 0.775612 2.120000 71 54 65
0.339324 0.774544 2.107000 67 55 65
0.339324 0.778232 2.107000 70 55 65
0.337391 0.777467 2.095000 73 55 65
0.333204 0.771440 2.069000 70 56 66
0.329339 0.766071 2.045000 67 56 68
0.325474 0.760619 2.021000 71 56 71
0.325474 0.764156 2.021000 75 56 69
0.323541 0.763136 2.009000 74 56 68
0.321770 0.762455 1.998000 73 57 68
0.319837 0.761352 1.986000 73 57 68
0.316294 0.756356 1.964000 73 58 72
0.312590 0.750896 1.941000 72 55 76
0.531042 0.930752 3.262000 67 52 58
0.536089 0.945361 3.293000 68 53 54
0.531042 0.942172 3.262000 66 54 51
0.525995 0.938874 3.231000 65 54 52
0.525995 0.944530 3.231000 65 56 53
0.525995 0.950186 3.231000 66 54 53
0.472924 0.889911 2.905000 74 54 58
0.469017 0.887602 2.881000 70 53 58
0.465110 0.885209 2.857000 69 53 57
0.461365 0.883043 2.834000 69 54 58
0.457458 0.880484 2.810000 68 57 59
0.450132 0.871224 2.765000 68 56 57
0.446551 0.869094 2.743000 68 54 56
0.443132 0.867205 2.722000 69 54 56
0.439713 0.865243 2.701000 70 56 56
0.436295 0.863207 2.680000 72 56 55
0.429620 0.854620 2.639000 72 56 54
0.426364 0.852728 2.619000 72 56 57
0.423108 0.850766 2.599000 70 56 60
0.420015 0.849063 2.580000 68 55 54
0.416759 0.846962 2.560000 69 55 49
0.416759 0.851443 2.560000 71 55 53
0.407805 0.837536 2.505000 70 54 58
0.404875 0.835871 2.487000 69 54 64
0.399014 0.828062 2.451000 70 54 69
0.393479 0.820806 2.417000 72 53 64
0.388107 0.813773 2.384000 71 55 59
0.385339 0.812113 2.367000 71 54 58
0.382735 0.810739 2.351000 70 54 56
0.380130 0.809309 2.335000 69 54 59
0.375083 0.802597 2.304000 70 55 63
0.372641 0.801379 2.289000 71 54 61
0.370199 0.800108 2.274000 71 55 60
0.367757 0.798785 2.259000 72 53 56
0.365315 0.797409 2.244000 70 53 53
0.363036 0.796338 2.230000 69 52 57
0.360594 0.794858 2.215000 70 51 61
0.356036 0.788639 2.187000 71 54 60
0.353920 0.787757 2.174000 71 55 59
0.349524 0.781731 2.147000 72 54 62
0.347245 0.780368 2.133000 68 55 65
0.343012 0.774544 2.107000 64 55 64
0.343012 0.778232 2.107000 66 56 63
0.341059 0.777467 2.095000 69 56 63
0.336826 0.771440 2.069000 66 59 62
0.332919 0.766071 2.045000 63 57 65
0.330965 0.765135 2.033000 70 57 69
0.329012 0.764156 2.021000 77 56 70
0.327058 0.763136 2.009000 75 55 72
0.325267 0.762455 1.998000 73 56 69
0.323314 0.761352 1.986000 74 56 67
0.319732 0.756356 1.964000 76 55 69
0.315988 0.750896 1.941000 74 54 72
0.546954 0.948442 3.324000 67 52 53
0.541853 0.945361 3.293000 68 53 51
0.536752 0.942172 3.262000 67 53 49
0.536752 0.947882 3.262000 66 54 51
0.531651 0.944530 3.231000 66 54 54
0.531651 0.950186 3.231000 67 54 52
0.512564 0.926977 3.115000 68 56 52
0.507957 0.924049 3.087000 69 56 54
0.503349 0.921022 3.059000 70 56 55
0.494628 0.910327 3.006000 72 54 56
0.486236 0.900055 2.955000 74 53 55
0.482123 0.897569 2.930000 71 53 55
0.474060 0.887602 2.881000 69 53 56
0.470111 0.885209 2.857000 67 53 58
0.466326 0.883043 2.834000 65 55 57
0.462377 0.880484 2.810000 66 57 56
0.454972 0.871224 2.765000 67 58 54
0.451352 0.869094 2.743000 68 55 53
0.447897 0.867205 2.722000 69 53 54
0.444441 0.865243 2.701000 70 55 56
0.440986 0.863207 2.680000 72 58 57
0.434240 0.854620 2.639000 71 55 59
0.434240 0.859240 2.639000 70 56 57
0.427658 0.850766 2.599000 67 55 56
0.427658 0.855316 2.599000 64 56 56
0.424531 0.853579 2.580000 66 56 56
0.421240 0.851443 2.560000 69 56 58
0.409228 0.831517 2.487000 68 56 61
0.406267 0.829821 2.469000 66 56 68
0.403305 0.828062 2.451000 70 55 76
0.397710 0.820806 2.417000 74 55 68
0.397710 0.825037 2.417000 72 55 60
0.394913 0.823435 2.400000 70 55 59
0.386850 0.810739 2.351000 69 54 59
0.384217 0.809309 2.335000 68 54 61
0.381749 0.808171 2.320000 69 53 63
0.376648 0.801379 2.289000 71 54 61
0.374180 0.800108 2.274000 71 53 59
0.371712 0.798785 2.259000 72 52 53
0.369244 0.797409 2.244000 70 53 47
0.366940 0.796338 2.230000 69 55 56
0.364472 0.794858 2.215000 68 55 65
0.357725 0.783951 2.174000 66 58 65
0.355422 0.782684 2.160000 68 56 65
0.353282 0.781731 2.147000 70 54 65
0.348840 0.775612 2.120000 68 55 66
0.346701 0.774544 2.107000 66 56 64
0.346701 0.778232 2.107000 67 56 62
0.344726 0.777467 2.095000 69 56 60
0.340448 0.771440 2.069000 67 57 59
0.338473 0.770567 2.057000 66 57 63
0.334524 0.765135 2.033000 70 56 67
0.332550 0.764156 2.021000 74 56 71
0.330575 0.763136 2.009000 72 56 76
0.329588 0.764363 2.003000 69 57 71
0.326790 0.761352 1.986000 71 56 67
0.323170 0.756356 1.964000 73 55 67
0.319386 0.750896 1.941000 70 54 68
0.552773 0.948442 3.324000 67 53 53
0.547618 0.945361 3.293000 68 52 50
0.542463 0.942172 3.262000 67 53 48
0.542463 0.947882 3.262000 67 52 51
0.537307 0.944530 3.231000 67 53 55
0.537307 0.950186 3.231000 68 53 52
0.527496 0.938387 3.172000 67 55 49
0.518017 0.926977 3.115000 67 56 52
0.518017 0.932430 3.115000 67 58 56
0.508704 0.921022 3.059000 68 56 57
0.499890 0.910327 3.006000 69 56 59
0.491409 0.900055 2.955000 70 53 57
0.487252 0.897569 2.930000 69 53 54
0.483094 0.894996 2.905000 69 54 55
0.471287 0.878082 2.834000 65 53 56
0.467296 0.875565 2.810000 62 55 56
0.463637 0.873591 2.788000 64 58 57
0.456154 0.864292 2.743000 67 56 55
0.452662 0.862440 2.722000 68 56 54
0.452662 0.867205 2.722000 69 55 55
0.449170 0.865243 2.701000 70 56 56
0.445677 0.863207 2.680000 72 55 57
0.438859 0.854620 2.639000 70 53 59
0.438859 0.859240 2.639000 69 54 55
0.432207 0.850766 2.599000 64 54 51
0.432207 0.855316 2.599000 60 55 53
0.429048 0.853579 2.580000 64 57 56
0.425722 0.851443 2.560000 68 57 57
0.413582 0.831517 2.487000 66 58 58
0.410589 0.829821 2.469000 64 56 64
0.407595 0.828062 2.451000 70 56 70
0.404768 0.826579 2.434000 76 55 65
0.401941 0.825037 2.417000 72 55 60
0.401941 0.829268 2.417000 69 55 59
0.393626 0.816257 2.367000 68 54 59
0.390965 0.814854 2.351000 68 52 61
0.385810 0.808171 2.320000 69 52 63
0.383150 0.806631 2.304000 71 53 64
0.378161 0.800108 2.274000 71 54 66
0.375666 0.798785 2.259000 72 53 59
0.373172 0.797409 2.244000 71 53 53
0.370843 0.796338 2.230000 70 55 58
0.368349 0.794858 2.215000 66 58 63
0.366021 0.793687 2.201000 62 58 67
0.359203 0.782684 2.160000 65 58 72
0.357041 0.781731 2.147000 69 56 69
0.354713 0.780368 2.133000 69 57 66
0.350389 0.774544 2.107000 69 56 65
0.348393 0.773800 2.095000 69 57 64
0.346231 0.772643 2.082000 69 57 66
0.344070 0.771440 2.069000 69 59 69
0.342074 0.770567 2.057000 69 57 69
0.338083 0.765135 2.033000 70 57 69
0.338083 0.768694 2.033000 72 56 69
0.336087 0.767694 2.021000 69 58 69
0.334092 0.766653 2.009000 66 57 68
0.331265 0.763652 1.992000 68 57 67
0.324613 0.751735 1.952000 70 55 70
0.322783 0.750896 1.941000 66 54 74
0.558592 0.948442 3.324000 69 51 53
0.548173 0.936462 3.262000 72 51 50
0.548173 0.942172 3.262000 69 51 48
0.542963 0.938874 3.231000 67 51 52
0.542963 0.944530 3.231000 66 51 56
0.542963 0.950186 3.231000 66 50 52
0.537922 0.946967 3.201000 66 53 49
0.528175 0.935310 3.143000 67 55 53
0.523470 0.932430 3.115000 68 55 58
0.518764 0.929453 3.087000 69 55 60
0.505152 0.910327 3.006000 69 54 63
0.488180 0.884825 2.905000 69 53 58
0.488180 0.889911 2.905000 68 54 54
0.484146 0.887602 2.881000 67 58 54
0.476248 0.878082 2.834000 66 55 54
0.472215 0.875565 2.810000 65 55 56
0.468518 0.873591 2.788000 66 55 58
0.464653 0.871224 2.765000 68 55 56
0.460956 0.869094 2.743000 69 55 55
0.457427 0.867205 2.722000 70 56 55
0.453898 0.865243 2.701000 72 55 56
0.450369 0.863207 2.680000 74 55 57
0.443479 0.854620 2.639000 72 54 59
0.440118 0.852728 2.619000 70 55 53
0.436757 0.850766 2.599000 67 54 47
0.433564 0.849063 2.580000 64 54 51
0.430203 0.846962 2.560000 67 55 56
0.427178 0.845457 2.542000 70 58 56
0.417935 0.831517 2.487000 68 57 56
0.414911 0.829821 2.469000 67 56 60
0.411886 0.828062 2.451000 70 55 65
0.409029 0.826579 2.434000 74 55 62
0.406172 0.825037 2.417000 71 55 60
0.406172 0.829268 2.417000 69 56 60
0.403315 0.827637 2.400000 69 53 60
0.395081 0.814854 2.351000 70 50 62
0.389871 0.808171 2.320000 71 52 64
0.387183 0.806631 2.304000 71 54 68
0.384662 0.805386 2.289000 73 54 73
0.379620 0.798785 2.259000 74 55 66
0.377100 0.797409 2.244000 72 53 59
0.374747 0.796338 2.230000 69 54 60
0.372226 0.794858 2.215000 67 56 62
0.369874 0.793687 2.201000 65 58 70
0.365336 0.787757 2.174000 68 56 79
0.360799 0.781731 2.147000 70 55 73
0.358446 0.780368 2.133000 69 56 67
0.354077 0.774544 2.107000 68 56 67
0.354077 0.778232 2.107000 67 56 67
0.349876 0.772643 2.082000 66 57 73
0.347691 0.771440 2.069000 69 56 79
0.345675 0.770567 2.057000 72 55 75
0.341642 0.765135 2.033000 72 54 71
0.341642 0.768694 2.033000 72 54 67
0.339625 0.767694 2.021000 71 56 63
0.339625 0.771232 2.021000 71 56 65
0.335760 0.765952 1.998000 70 56 67
0.331895 0.760592 1.975000 69 57 73
0.324501 0.747028 1.931000 67 57 80
0.553883 0.936462 3.262000 76 50 48
0.553883 0.942172 3.262000 71 50 47
0.548619 0.938874 3.231000 67 51 50
0.548619 0.944530 3.231000 66 52 54
0.543525 0.941363 3.201000 65 52 52
0.543525 0.946967 3.201000 66 53 51
0.528922 0.926977 3.115000 67 53 53
0.528922 0.932430 3.115000 69 53 56
0.524168 0.929453 3.087000 71 54 57
0.493265 0.879740 2.905000 70 54 58
0.493265 0.884825 2.905000 69 54 57
0.493265 0.889911 2.905000 67 54 56
0.489189 0.887602 2.881000 66 56 55
0.485114 0.885209 2.857000 67 56 54
0.485114 0.890210 2.857000 68 54 55
0.477134 0.880484 2.810000 69 53 56
0.469493 0.871224 2.765000 70 54 54
0.465757 0.869094 2.743000 71 56 52
0.462192 0.867205 2.722000 72 55 54
0.458626 0.865243 2.701000 74 56 57
0.455060 0.863207 2.680000 77 54 58
0.448098 0.854620 2.639000 74 55 59
0.444702 0.852728 2.619000 71 54 54
0.438080 0.844546 2.580000 70 54 50
0.434684 0.842481 2.560000 69 53 55
0.434684 0.846962 2.560000 70 53 59
0.434684 0.851443 2.560000 72 54 57
0.425345 0.837536 2.505000 71 56 54
0.419232 0.829821 2.469000 71 54 59
0.410403 0.816575 2.417000 71 54 64
0.410403 0.820806 2.417000 72 54 63
0.410403 0.825037 2.417000 70 54 63
0.407516 0.823435 2.400000 69 55 62
0.399196 0.810739 2.351000 71 55 62
0.399196 0.814854 2.351000 73 53 62
0.396479 0.813396 2.335000 72 54 62
0.393933 0.812232 2.320000 72 54 64
0.388669 0.805386 2.289000 74 54 66
0.386122 0.804089 2.274000 77 54 59
0.383575 0.802739 2.259000 73 52 53
0.381028 0.801337 2.244000 69 54 57
0.376104 0.794858 2.215000 69 56 60
0.371349 0.788639 2.187000 69 55 62
0.366765 0.782684 2.160000 70 56 63
0.364557 0.781731 2.147000 72 55 65
0.362180 0.780368 2.133000 70 56 66
0.359973 0.779323 2.120000 68 55 66
0.357765 0.778232 2.107000 66 56 66
0.353520 0.772643 2.082000 64 55 67
0.351313 0.771440 2.069000 70 55 68
0.349275 0.770567 2.057000 76 54 68
0.345200 0.765135 2.033000 74 53 68
0.345200 0.768694 2.033000 72 55 64
0.343163 0.767694 2.021000 74 58 61
0.341125 0.766653 2.009000 76 56 63
0.337220 0.761352 1.986000 72 55 65
0.335352 0.760592 1.975000 69 56 70
0.331447 0.755152 1.952000 69 59 75
0.559593 0.936462 3.262000 71 51 46
0.554275 0.933218 3.231000 68 51 47
0.554275 0.938874 3.231000 66 52 49
0.554275 0.944530 3.231000 64 53 52
0.549128 0.941363 3.201000 63 56 52
0.544153 0.938387 3.172000 65 53 53
0.534375 0.926977 3.115000 67 52 53
0.529572 0.924049 3.087000 70 53 54
0.529572 0.929453 3.087000 73 55 54
0.502639 0.892440 2.930000 69 55 56
0.498350 0.889911 2.905000 68 54 58
0.494233 0.887602 2.881000 67 56 56
0.490116 0.885209 2.857000 67 55 54
0.490116 0.890210 2.857000 68 53 54
0.482053 0.880484 2.810000 70 53 54
0.474333 0.871224 2.765000 73 54 51
0.470559 0.869094 2.743000 72 54 49
0.466956 0.867205 2.722000 71 54 54
0.463354 0.865243 2.701000 72 54 59
0.456149 0.856443 2.659000 73 53 59
0.452718 0.854620 2.639000 72 54 59
0.449287 0.852728 2.619000 70 54 56
0.442596 0.844546 2.580000 71 54 54
0.439165 0.842481 2.560000 72 54 58
0.439165 0.846962 2.560000 70 53 63
0.436078 0.845457 2.542000 68 51 58
0.426642 0.831517 2.487000 69 52 53
0.423554 0.829821 2.469000 71 53 58
0.414634 0.816575 2.417000 70 53 63
0.411718 0.815033 2.400000 69 54 65
0.411718 0.819234 2.400000 69 54 67
0.411718 0.823435 2.400000 70 55 65
0.408973 0.822119 2.384000 70 53 64
0.406056 0.820400 2.367000 70 54 62
0.403312 0.818970 2.351000 70 54 60
0.397994 0.812232 2.320000 70 54 59
0.392676 0.805386 2.289000 70 55 59
0.390102 0.804089 2.274000 69 55 53
0.384956 0.797409 2.244000 68 54 48
0.382554 0.796338 2.230000 67 55 53
0.379981 0.794858 2.215000 68 55 59
0.375178 0.788639 2.187000 68 53 53
0.370546 0.782684 2.160000 70 55 48
0.368316 0.781731 2.147000 71 56 57
0.365914 0.780368 2.133000 70 55 66
0.363684 0.779323 2.120000 70 54 65
0.361454 0.778232 2.107000 69 54 65
0.359395 0.777467 2.095000 68 55 61
0.354935 0.771440 2.069000 71 55 58
0.352876 0.770567 2.057000 74 55 61
0.348759 0.765135 2.033000 72 54 65
0.348759 0.768694 2.033000 70 55 62
0.346701 0.767694 2.021000 71 57 59
0.342755 0.762455 1.998000 73 58 61
0.340696 0.761352 1.986000 71 55 63
0.338809 0.760592 1.975000 70 54 66
0.334864 0.755152 1.952000 70 56 70
0.559931 0.927562 3.231000 67 51 51
0.559931 0.933218 3.231000 66 53 50
0.559931 0.938874 3.231000 65 53 50
0.554732 0.935760 3.201000 63 53 51
0.554732 0.941363 3.201000 61 54 53
0.549706 0.938387 3.172000 64 53 55
0.539828 0.926977 3.115000 68 52 54
0.534976 0.924049 3.087000 72 54 54
0.519205 0.902054 2.996000 76 54 54
0.507768 0.892440 2.930000 69 54 54
0.503435 0.889911 2.905000 69 53 55
0.499276 0.887602 2.881000 69 54 55
0.495117 0.885209 2.857000 68 55 55
0.495117 0.890210 2.857000 68 53 55
0.486972 0.880484 2.810000 72 53 55
0.479173 0.871224 2.765000 77 52 53
0.475361 0.869094 2.743000 73 53 52
0.471721 0.867205 2.722000 70 53 60
0.468082 0.865243 2.701000 70 53 68
0.460803 0.856443 2.659000 70 52 63
0.457337 0.854620 2.639000 70 54 58
0.453871 0.852728 2.619000 70 54 56
0.447113 0.844546 2.580000 72 55 54
0.447113 0.849063 2.580000 75 54 60
0.443647 0.846962 2.560000 69 54 67
0.440527 0.845457 2.542000 64 52 62
0.430996 0.831517 2.487000 68 49 57
0.427876 0.829821 2.469000 72 51 58
0.418865 0.816575 2.417000 69 52 60
0.415919 0.815033 2.400000 67 53 62
0.415919 0.819234 2.400000 69 54 63
0.415919 0.823435 2.400000 71 53 63
0.413146 0.822119 2.384000 69 51 64
0.410200 0.820400 2.367000 68 53 64
0.404654 0.813396 2.335000 68 56 64
0.399282 0.806631 2.304000 69 56 62
0.396683 0.805386 2.289000 65 57 60
0.394083 0.804089 2.274000 62 56 57
0.391484 0.802739 2.259000 64 54 53
0.388884 0.801337 2.244000 66 55 56
0.383858 0.794858 2.215000 67 58 59
0.376753 0.783951 2.174000 68 56 56
0.374327 0.782684 2.160000 69 56 54
0.372074 0.781731 2.147000 71 55 58
0.369648 0.780368 2.133000 71 54 63
0.367395 0.779323 2.120000 72 54 64
0.363062 0.773800 2.095000 72 54 65
0.360810 0.772643 2.082000 72 54 62
0.358557 0.771440 2.069000 72 55 59
0.356477 0.770567 2.057000 73 55 62
0.354397 0.769651 2.045000 70 56 66
0.354397 0.773231 2.045000 68 57 62
0.350238 0.767694 2.021000 69 60 59
0.346252 0.762455 1.998000 70 57 61
0.344173 0.761352 1.986000 71 53 64
0.342267 0.760592 1.975000 72 54 68
0.338281 0.755152 1.952000 70 57 73
0.571013 0.936462 3.262000 69 50 56
0.565587 0.933218 3.231000 67 52 53
0.565587 0.938874 3.231000 65 55 52
0.560335 0.935760 3.201000 64 53 51
0.560335 0.941363 3.201000 64 54 54
0.555259 0.938387 3.172000 66 53 57
0.545281 0.926977 3.115000 68 51 55
0.540379 0.924049 3.087000 70 53 54
0.508520 0.874655 2.905000 72 55 54
0.508520 0.884825 2.905000 69 54 53
0.508520 0.889911 2.905000 69 53 53
0.504319 0.887602 2.881000 69 53 55
0.500118 0.885209 2.857000 67 52 57
0.500118 0.890210 2.857000 65 51 56
0.491891 0.880484 2.810000 68 50 56
0.488039 0.878471 2.788000 72 50 55
0.480162 0.869094 2.743000 70 52 55
0.476486 0.867205 2.722000 69 54 66
0.472810 0.865243 2.701000 68 51 77
0.465458 0.856443 2.659000 68 51 67
0.461957 0.854620 2.639000 68 53 58
0.458456 0.852728 2.619000 68 54 56
0.454955 0.850766 2.599000 70 54 55
0.451629 0.849063 2.580000 72 54 63
0.448128 0.846962 2.560000 69 54 71
0.444977 0.845457 2.542000 66 54 66
0.435349 0.831517 2.487000 69 51 61
0.432198 0.829821 2.469000 72 51 59
0.423096 0.816575 2.417000 71 52 58
0.420120 0.815033 2.400000 71 54 59
0.420120 0.819234 2.400000 70 53 60
0.417319 0.817946 2.384000 70 54 62
0.414343 0.816257 2.367000 70 53 64
0.408742 0.809309 2.335000 70 54 66
0.408742 0.813396 2.335000 70 55 69
0.403315 0.806631 2.304000 71 57 65
0.400689 0.805386 2.289000 67 56 62
0.398064 0.804089 2.274000 64 59 60
0.395438 0.802739 2.259000 66 55 59
0.392812 0.801337 2.244000 69 54 59
0.387736 0.794858 2.215000 68 55 60
0.380559 0.783951 2.174000 68 57 60
0.378108 0.782684 2.160000 68 56 60
0.375832 0.781731 2.147000 69 56 60
0.373382 0.780368 2.133000 69 55 61
0.368830 0.774544 2.107000 70 55 63
0.364454 0.768998 2.082000 70 54 65
0.362178 0.767819 2.069000 71 55 63
0.362178 0.771440 2.069000 72 55 61
0.362178 0.775062 2.069000 72 56 64
0.360078 0.774167 2.057000 70 56 67
0.355877 0.768694 2.033000 68 58 63
0.353776 0.767694 2.021000 69 58 59
0.349750 0.762455 1.998000 69 58 62
0.347649 0.761352 1.986000 72 55 65
0.345724 0.760592 1.975000 74 55 71
0.341698 0.755152 1.952000 72 55 77
0.576723 0.936462 3.262000 71 51 51
0.571243 0.933218 3.231000 68 52 50
0.571243 0.938874 3.231000 65 53 49
0.565938 0.935760 3.201000 66 53 48
0.565938 0.941363 3.201000 67 53 51
0.560811 0.938387 3.172000 67 54 55
0.513606 0.884825 2.905000 69 53 51
0.513606 0.889911 2.905000 69 54 53
0.509362 0.887602 2.881000 69 52 53
0.501053 0.878082 2.834000 65 51 53
0.501053 0.883043 2.834000 62 50 54
0.496809 0.880484 2.810000 64 47 55
0.488853 0.871224 2.765000 67 50 53
0.484964 0.869094 2.743000 67 53 51
0.481251 0.867205 2.722000 68 52 59
0.477538 0.865243 2.701000 67 49 68
0.470113 0.856443 2.659000 67 50 59
0.466577 0.854620 2.639000 66 53 51
0.463041 0.852728 2.619000 66 54 52
0.459505 0.850766 2.599000 67 56 52
0.456145 0.849063 2.580000 69 54 56
0.452609 0.846962 2.560000 69 54 61
0.449427 0.845457 2.542000 69 53 58
0.439703 0.831517 2.487000 70 51 55
0.430332 0.818058 2.434000 72 51 56
0.427327 0.816575 2.417000 73 51 58
0.424321 0.815033 2.400000 75 52 58
0.421492 0.813773 2.384000 72 52 59
0.421492 0.817946 2.384000 70 53 61
0.418487 0.816257 2.367000 71 53 64
0.412829 0.809309 2.335000 72 54 64
0.412829 0.813396 2.335000 73 56 65
0.404696 0.801379 2.289000 74 55 62
0.404696 0.805386 2.289000 70 53 59
0.402044 0.804089 2.274000 66 55 59
0.399392 0.802739 2.259000 69 56 59
0.396740 0.801337 2.244000 73 55 58
0.394265 0.800241 2.230000 70 54 58
0.384364 0.783951 2.174000 68 56 56
0.381889 0.782684 2.160000 68 58 55
0.379591 0.781731 2.147000 68 57 57
0.377115 0.780368 2.133000 68 57 60
0.374817 0.779323 2.120000 68 55 61
0.372519 0.778232 2.107000 69 55 62
0.365800 0.767819 2.069000 71 54 59
0.365800 0.771440 2.069000 71 56 57
0.363679 0.770567 2.057000 72 55 60
0.361557 0.769651 2.045000 70 56 64
0.359435 0.768694 2.033000 69 57 62
0.355192 0.763136 2.009000 69 58 60
0.353247 0.762455 1.998000 69 56 59
0.351126 0.761352 1.986000 73 54 59
0.349181 0.760592 1.975000 77 55 64
0.345115 0.755152 1.952000 74 55 70
0.582433 0.936462 3.262000 69 53 45
0.576898 0.933218 3.231000 67 53 48
0.576898 0.938874 3.231000 66 52 46
0.571542 0.935760 3.201000 66 51 45
0.571542 0.941363 3.201000 67 51 49
0.518691 0.884825 2.905000 71 53 49
0.518691 0.889911 2.905000 69 53 53
0.514405 0.887602 2.881000 68 51 51
0.510120 0.885209 2.857000 66 51 50
0.506014 0.883043 2.834000 64 52 52
0.501728 0.880484 2.810000 66 51 54
0.493694 0.871224 2.765000 68 53 50
0.489765 0.869094 2.743000 68 53 47
0.486016 0.867205 2.722000 68 52 53
0.482266 0.865243 2.701000 67 50 59
0.474767 0.856443 2.659000 67 49 52
0.471196 0.854620 2.639000 66 52 45
0.467625 0.852728 2.619000 66 56 47
0.464054 0.850766 2.599000 68 55 50
0.460662 0.849063 2.580000 70 55 50
0.457091 0.846962 2.560000 71 55 51
0.453877 0.845457 2.542000 72 55 50
0.440842 0.825499 2.469000 71 52 49
0.434593 0.818058 2.434000 70 52 53
0.431558 0.816575 2.417000 71 52 58
0.428522 0.815033 2.400000 72 53 58
0.425666 0.813773 2.384000 70 53 59
0.422630 0.812113 2.367000 69 54 61
0.419773 0.810739 2.351000 69 53 64
0.419773 0.814854 2.351000 69 54 63
0.414238 0.808171 2.320000 70 55 62
0.408703 0.801379 2.289000 71 56 59
0.406025 0.800108 2.274000 68 54 57
0.406025 0.804089 2.274000 65 54 58
0.400668 0.797409 2.244000 68 55 59
0.398169 0.796338 2.230000 70 56 57
0.395490 0.794858 2.215000 68 56 56
0.390491 0.788639 2.187000 65 56 53
0.388170 0.787757 2.174000 66 57 50
0.383349 0.781731 2.147000 68 58 55
0.380849 0.780368 2.133000 67 57 60
0.378528 0.779323 2.120000 66 56 59
0.376207 0.778232 2.107000 68 54 59
0.369422 0.767819 2.069000 70 53 56
0.369422 0.771440 2.069000 71 54 53
0.369422 0.775062 2.069000 72 55 57
0.365137 0.769651 2.045000 70 56 62
0.360852 0.764156 2.021000 69 57 61
0.358709 0.763136 2.009000 68 56 61
0.356745 0.762455 1.998000 67 54 57
0.354602 0.761352 1.986000 70 56 54
0.352638 0.760592 1.975000 74 58 58
0.348532 0.755152 1.952000 72 56 63
0.577145 0.924553 3.201000 67 55 50
0.577145 0.930156 3.201000 67 51 51
0.532791 0.894882 2.955000 75 55 49
0.523776 0.884825 2.905000 73 53 50
0.519449 0.882559 2.881000 70 54 51
0.519449 0.887602 2.881000 67 52 49
0.510974 0.878082 2.834000 66 51 47
0.506647 0.875565 2.810000 66 52 49
0.502681 0.873591 2.788000 67 52 52
0.498534 0.871224 2.765000 69 53 51
0.494567 0.869094 2.743000 68 54 50
0.490781 0.867205 2.722000 68 51 55
0.486994 0.865243 2.701000 67 50 60
0.483208 0.863207 2.680000 67 51 59
0.475816 0.854620 2.639000 67 53 57
0.475816 0.859240 2.639000 67 54 55
0.468604 0.850766 2.599000 69 56 54
0.465178 0.849063 2.580000 71 55 54
0.461572 0.846962 2.560000 73 56 54
0.458326 0.845457 2.542000 75 54 54
0.441919 0.819481 2.451000 72 53 53
0.438854 0.818058 2.434000 69 52 60
0.435789 0.816575 2.417000 69 52 66
0.432724 0.815033 2.400000 69 53 60
0.429839 0.813773 2.384000 69 54 54
0.426774 0.812113 2.367000 69 53 57
0.423889 0.810739 2.351000 67 53 61
0.421004 0.809309 2.335000 66 54 60
0.418299 0.808171 2.320000 67 55 60
0.412710 0.801379 2.289000 68 55 60
0.410006 0.800108 2.274000 66 53 60
0.407301 0.798785 2.259000 65 54 59
0.404597 0.797409 2.244000 66 54 58
0.402072 0.796338 2.230000 68 56 57
0.399368 0.794858 2.215000 65 58 56
0.391975 0.783951 2.174000 63 56 54
0.389451 0.782684 2.160000 65 56 53
0.387107 0.781731 2.147000 68 57 56
0.382239 0.775612 2.120000 66 57 60
0.382239 0.779323 2.120000 64 56 61
0.379895 0.778232 2.107000 66 54 61
0.373044 0.767819 2.069000 69 53 58
0.373044 0.771440 2.069000 70 55 54
0.370880 0.770567 2.057000 72 56 58
0.368717 0.769651 2.045000 70 58 62
0.364389 0.764156 2.021000 69 56 62
0.362226 0.763136 2.009000 67 56 63
0.360242 0.762455 1.998000 65 57 61
0.358079 0.761352 1.986000 68 60 58
0.356095 0.760592 1.975000 71 58 61
0.349965 0.750896 1.941000 71 58 64
0.547248 0.905065 3.006000 75 53 58
0.537964 0.894882 2.955000 73 53 53
0.533412 0.892440 2.930000 70 53 51
0.528861 0.889911 2.905000 66 53 49
0.524492 0.887602 2.881000 63 54 47
0.520123 0.885209 2.857000 65 52 45
0.511566 0.875565 2.810000 67 55 47
0.511566 0.880484 2.810000 70 54 50
0.503374 0.871224 2.765000 73 55 52
0.499369 0.869094 2.743000 70 53 54
0.495546 0.867205 2.722000 68 51 58
0.491723 0.865243 2.701000 68 52 62
0.484076 0.856443 2.659000 68 54 66
0.480435 0.854620 2.639000 68 53 70
0.480435 0.859240 2.639000 68 54 64
0.476794 0.857313 2.619000 69 54 58
0.473153 0.855316 2.599000 70 54 58
0.469694 0.853579 2.580000 70 53 58
0.462776 0.845457 2.542000 71 53 58
0.446209 0.819481 2.451000 70 52 58
0.443115 0.818058 2.434000 69 52 66
0.440020 0.816575 2.417000 66 52 75
0.436925 0.815033 2.400000 63 53 62
0.436925 0.819234 2.400000 65 53 50
0.434012 0.817946 2.384000 67 53 54
0.430917 0.816257 2.367000 66 53 58
0.425091 0.809309 2.335000 65 54 58
0.419448 0.802597 2.304000 66 55 59
0.416717 0.801379 2.289000 66 56 61
0.413986 0.800108 2.274000 65 54 63
0.411255 0.798785 2.259000 63 55 60
0.408525 0.797409 2.244000 68 54 58
0.405976 0.796338 2.230000 72 56 57
0.403245 0.794858 2.215000 69 56 56
0.398148 0.788639 2.187000 65 56 56
0.395781 0.787757 2.174000 65 56 56
0.390866 0.781731 2.147000 66 57 58
0.388317 0.780368 2.133000 66 58 61
0.383584 0.774544 2.107000 66 59 62
0.379032 0.768998 2.082000 67 54 64
0.376666 0.767819 2.069000 69 51 60
0.374481 0.766966 2.057000 70 54 56
0.374481 0.770567 2.057000 72 57 59
0.372296 0.769651 2.045000 71 56 62
0.367927 0.764156 2.021000 70 56 64
0.365742 0.763136 2.009000 68 56 66
0.363740 0.762455 1.998000 67 59 64
0.361555 0.761352 1.986000 68 59 63
0.359553 0.760592 1.975000 70 59 64
0.355366 0.755152 1.952000 71 57 65
0.547732 0.897236 2.980000 73 53 56
0.543136 0.894882 2.955000 70 51 54
0.538541 0.892440 2.930000 68 52 52
0.533946 0.889911 2.905000 63 54 51
0.529535 0.887602 2.881000 59 53 51
0.525124 0.885209 2.857000 64 51 51
0.516485 0.875565 2.810000 69 54 52
0.512441 0.873591 2.788000 73 55 54
0.508214 0.871224 2.765000 77 54 53
0.500310 0.862440 2.722000 72 53 53
0.500310 0.867205 2.722000 68 52 56
0.492591 0.858515 2.680000 68 54 60
0.488731 0.856443 2.659000 69 52 62
0.485055 0.854620 2.639000 69 51 64
0.485055 0.859240 2.639000 69 53 58
0.481379 0.857313 2.619000 69 53 53
0.481379 0.861897 2.619000 69 53 54
0.474211 0.853579 2.580000 68 51 55
0.470535 0.851443 2.560000 68 52 57
0.450500 0.819481 2.451000 68 51 58
0.447375 0.818058 2.434000 69 52 62
0.444251 0.816575 2.417000 63 53 66
0.441126 0.815033 2.400000 58 53 59
0.441126 0.819234 2.400000 61 52 52
0.438185 0.817946 2.384000 65 53 56
0.435061 0.816257 2.367000 65 54 60
0.429179 0.809309 2.335000 65 54 60
0.423481 0.802597 2.304000 65 55 60
0.420724 0.801379 2.289000 65 55 60
0.417967 0.800108 2.274000 63 54 61
0.415210 0.798785 2.259000 62 54 60
0.412453 0.797409 2.244000 69 54 60
0.409880 0.796338 2.230000 77 54 59
0.407123 0.794858 2.215000 72 56 58
0.401976 0.788639 2.187000 68 55 58
0.399587 0.787757 2.174000 66 55 58
0.397013 0.786465 2.160000 64 57 62
0.392051 0.780368 2.133000 66 59 66
0.389661 0.779323 2.120000 69 57 64
0.382677 0.768998 2.082000 69 54 63
0.380287 0.767819 2.069000 69 53 56
0.378082 0.766966 2.057000 70 56 50
0.375876 0.766071 2.045000 72 56 56
0.375876 0.769651 2.045000 72 56 62
0.371465 0.764156 2.021000 72 55 64
0.369259 0.763136 2.009000 70 55 67
0.367237 0.762455 1.998000 69 56 67
0.365032 0.761352 1.986000 69 58 67
0.363010 0.760592 1.975000 70 57 66
0.358783 0.755152 1.952000 71 56 65
0.629025 0.949471 3.390000 65 46 48
0.629025 0.955406 3.390000 64 48 43
0.629025 0.961340 3.390000 63 50 46
0.622901 0.957858 3.357000 63 50 49
0.622901 0.963734 3.357000 64 53 52
0.552948 0.897236 2.980000 71 56 55
0.543670 0.887311 2.930000 70 53 55
0.543670 0.892440 2.930000 68 53 54
0.539032 0.889911 2.905000 65 53 54
0.534578 0.887602 2.881000 62 54 56
0.530125 0.885209 2.857000 65 53 58
0.521404 0.875565 2.810000 68 55 58
0.521404 0.880484 2.810000 69 54 58
0.517322 0.878471 2.788000 71 53 55
0.508972 0.869094 2.743000 70 53 53
0.505075 0.867205 2.722000 68 53 55
0.501179 0.865243 2.701000 68 53 58
0.493385 0.856443 2.659000 69 51 58
0.489674 0.854620 2.639000 68 53 58
0.489674 0.859240 2.639000 68 56 53
0.485963 0.857313 2.619000 69 54 49
0.485963 0.861897 2.619000 70 54 51
0.482252 0.859865 2.599000 71 52 53
0.478727 0.858095 2.580000 72 53 56
0.454790 0.819481 2.451000 70 52 59
0.451636 0.818058 2.434000 69 53 58
0.448482 0.816575 2.417000 65 53 58
0.448482 0.820806 2.417000 62 54 56
0.445327 0.819234 2.400000 65 54 54
0.442358 0.817946 2.384000 69 55 58
0.439204 0.816257 2.367000 67 54 63
0.436235 0.814854 2.351000 66 54 62
0.430483 0.808171 2.320000 66 56 61
0.421948 0.796127 2.274000 67 58 60
0.419164 0.794830 2.259000 66 55 59
0.416381 0.793481 2.244000 65 54 61
0.416381 0.797409 2.244000 69 53 63
0.413783 0.796338 2.230000 73 52 61
0.411000 0.794858 2.215000 71 54 60
0.403392 0.783951 2.174000 69 56 60
0.400795 0.782684 2.160000 67 55 60
0.400795 0.786465 2.160000 66 57 65
0.398382 0.785490 2.147000 67 57 71
0.395785 0.784102 2.133000 68 58 66
0.386321 0.768998 2.082000 68 54 62
0.383909 0.767819 2.069000 69 52 53
0.381683 0.766966 2.057000 70 54 44
0.379456 0.766071 2.045000 72 56 53
0.377229 0.765135 2.033000 71 55 62
0.375003 0.764156 2.021000 71 55 65
0.372776 0.763136 2.009000 70 54 68
0.370735 0.762455 1.998000 70 54 70
0.368508 0.761352 1.986000 70 56 72
0.366467 0.760592 1.975000 70 58 68
0.362200 0.755152 1.952000 71 56 65
0.628778 0.940229 3.357000 63 47 53
0.628778 0.946105 3.357000 62 49 54
0.628778 0.951982 3.357000 62 50 51
0.622597 0.948442 3.324000 63 50 49
0.622597 0.954261 3.324000 65 52 50
0.622597 0.960079 3.324000 66 54 52
0.561349 0.902355 2.997000 70 55 53
0.553482 0.894882 2.955000 69 55 53
0.548799 0.892440 2.930000 69 53 53
0.548799 0.897569 2.930000 67 53 54
0.544117 0.894996 2.905000 65 53 56
0.535126 0.885209 2.857000 66 55 58
0.526323 0.875565 2.810000 67 54 59
0.526323 0.880484 2.810000 66 55 60
0.522202 0.878471 2.788000 66 54 58
0.513773 0.869094 2.743000 67 54 55
0.509840 0.867205 2.722000 69 54 57
0.501973 0.858515 2.680000 69 54 59
0.498040 0.856443 2.659000 69 53 57
0.494294 0.854620 2.639000 68 56 56
0.494294 0.859240 2.639000 68 55 53
0.494294 0.863860 2.639000 69 54 49
0.490548 0.861897 2.619000 71 54 52
0.486802 0.859865 2.599000 74 52 55
0.486802 0.864415 2.599000 77 51 60
0.462452 0.825499 2.469000 73 52 65
0.455897 0.818058 2.434000 69 52 62
0.452713 0.816575 2.417000 67 52 60
0.452713 0.820806 2.417000 66 53 56
0.449528 0.819234 2.400000 70 57 53
0.446532 0.817946 2.384000 74 56 58
0.443347 0.816257 2.367000 70 54 64
0.440351 0.814854 2.351000 67 55 61
0.437354 0.813396 2.335000 68 58 58
0.428738 0.801379 2.289000 70 56 60
0.425928 0.800108 2.274000 69 55 62
0.423119 0.798785 2.259000 68 53 66
0.420309 0.797409 2.244000 69 52 70
0.417687 0.796338 2.230000 70 53 65
0.414877 0.794858 2.215000 70 54 61
0.407198 0.783951 2.174000 71 54 61
0.404576 0.782684 2.160000 69 55 61
0.402141 0.781731 2.147000 68 55 64
0.402141 0.785490 2.147000 68 55 67
0.399518 0.784102 2.133000 68 55 64
0.394648 0.778232 2.107000 68 52 61
0.387531 0.767819 2.069000 69 53 57
0.385283 0.766966 2.057000 71 55 52
0.383036 0.766071 2.045000 73 55 59
0.380788 0.765135 2.033000 71 56 67
0.378540 0.764156 2.021000 70 54 67
0.376293 0.763136 2.009000 70 53 68
0.371985 0.757876 1.986000 71 54 67
0.369924 0.757135 1.975000 70 55 67
0.369924 0.760592 1.975000 70 56 67
0.365616 0.755152 1.952000 71 55 68
0.365616 0.758569 1.952000 73 56 68
0.640893 0.949471 3.390000 62 46 59
0.634654 0.946105 3.357000 63 48 65
0.634654 0.951982 3.357000 63 52 57
0.628415 0.948442 3.324000 64 50 49
0.628415 0.954261 3.324000 65 51 48
0.616694 0.942172 3.262000 67 53 48
0.610834 0.938874 3.231000 70 53 50
0.569998 0.907774 3.015000 69 54 52
0.563381 0.902453 2.980000 70 54 51
0.558655 0.900055 2.955000 70 53 52
0.553928 0.897569 2.930000 68 52 54
0.549202 0.894996 2.905000 66 52 56
0.544665 0.892645 2.881000 67 53 58
0.535779 0.883043 2.834000 67 53 60
0.531242 0.880484 2.810000 66 54 63
0.527083 0.878471 2.788000 66 55 60
0.518575 0.869094 2.743000 66 55 58
0.514605 0.867205 2.722000 67 56 59
0.506665 0.858515 2.680000 67 54 60
0.502695 0.856443 2.659000 67 54 57
0.498914 0.854620 2.639000 68 55 55
0.498914 0.859240 2.639000 69 55 52
0.495132 0.857313 2.619000 69 55 50
0.495132 0.861897 2.619000 69 56 54
0.491351 0.859865 2.599000 71 52 58
0.491351 0.864415 2.599000 72 49 65
0.470177 0.831517 2.487000 70 50 72
0.463371 0.823771 2.451000 68 51 67
0.460157 0.822318 2.434000 67 52 62
0.456944 0.820806 2.417000 67 52 57
0.453730 0.819234 2.400000 69 55 53
0.450705 0.817946 2.384000 71 59 59
0.444466 0.810739 2.351000 69 56 65
0.444466 0.814854 2.351000 67 56 60
0.441441 0.813396 2.335000 70 56 55
0.435580 0.806631 2.304000 72 54 60
0.429909 0.800108 2.274000 70 54 65
0.424237 0.793481 2.244000 67 54 71
0.421590 0.792434 2.230000 68 53 77
0.421590 0.796338 2.230000 69 55 70
0.418755 0.794858 2.215000 69 53 63
0.411003 0.783951 2.174000 70 52 63
0.408357 0.782684 2.160000 70 53 63
0.405899 0.781731 2.147000 70 53 63
0.405899 0.785490 2.147000 69 55 63
0.403252 0.784102 2.133000 68 57 62
0.398337 0.778232 2.107000 68 55 61
0.393610 0.772643 2.082000 69 55 61
0.388884 0.766966 2.057000 70 55 61
0.386615 0.766071 2.045000 72 55 66
0.384347 0.765135 2.033000 68 56 72
0.382078 0.764156 2.021000 64 55 70
0.377730 0.758957 1.998000 67 55 68
0.375461 0.757876 1.986000 69 56 65
0.373382 0.757135 1.975000 69 55 62
0.371302 0.756356 1.964000 69 56 66
0.369033 0.755152 1.952000 70 55 71
0.366954 0.754294 1.941000 70 56 73
0.680218 0.986004 3.565000 59 48 46
0.666480 0.972205 3.493000 60 50 48
0.653124 0.958714 3.423000 62 47 50
0.640531 0.946105 3.357000 63 48 52
0.640531 0.951982 3.357000 65 49 49
0.634234 0.948442 3.324000 65 50 46
0.634234 0.954261 3.324000 65 51 47
0.616489 0.933218 3.231000 69 54 48
0.616489 0.938874 3.231000 74 53 52
0.599699 0.924306 3.143000 62 52 53
0.594356 0.921525 3.115000 65 54 50
0.594356 0.926977 3.115000 68 53 53
0.589014 0.924049 3.087000 68 53 56
0.578710 0.913194 3.033000 69 53 54
0.568597 0.902453 2.980000 70 54 52
0.563827 0.900055 2.955000 72 52 53
0.559057 0.897569 2.930000 70 52 53
0.554287 0.894996 2.905000 68 52 54
0.549708 0.892645 2.881000 68 52 55
0.540740 0.883043 2.834000 68 53 57
0.536161 0.880484 2.810000 67 54 58
0.531963 0.878471 2.788000 66 55 55
0.523377 0.869094 2.743000 66 55 52
0.519370 0.867205 2.722000 66 55 54
0.511356 0.858515 2.680000 66 55 57
0.507349 0.856443 2.659000 66 54 55
0.507349 0.861097 2.659000 68 55 54
0.503533 0.859240 2.639000 70 55 53
0.503533 0.863860 2.639000 69 56 52
0.499717 0.861897 2.619000 68 54 54
0.495901 0.859865 2.599000 68 51 57
0.488460 0.851443 2.560000 68 51 61
0.474531 0.831517 2.487000 68 51 65
0.467662 0.823771 2.451000 68 52 61
0.464418 0.822318 2.434000 68 54 57
0.461175 0.820806 2.417000 68 53 55
0.457931 0.819234 2.400000 68 54 53
0.454878 0.817946 2.384000 68 56 55
0.451634 0.816257 2.367000 68 58 57
0.448581 0.814854 2.351000 68 56 55
0.445529 0.813396 2.335000 71 56 54
0.442666 0.812232 2.320000 75 54 58
0.433889 0.800108 2.274000 71 55 62
0.428165 0.793481 2.244000 67 55 65
0.425494 0.792434 2.230000 67 53 69
0.422632 0.790981 2.215000 68 54 66
0.422632 0.794858 2.215000 68 53 63
0.417289 0.788639 2.187000 69 53 62
0.412138 0.782684 2.160000 70 54 61
0.412138 0.786465 2.160000 72 55 59
0.409657 0.785490 2.147000 70 56 57
0.406986 0.784102 2.133000 69 57 58
0.402025 0.778232 2.107000 69 58 58
0.397255 0.772643 2.082000 69 55 60
0.392485 0.766966 2.057000 70 55 62
0.390195 0.766071 2.045000 72 55 65
0.385616 0.760619 2.021000 65 59 69
0.383326 0.759619 2.009000 59 57 67
0.382181 0.760857 2.003000 63 57 66
0.381227 0.762455 1.998000 68 56 63
0.378938 0.761352 1.986000 68 56 60
0.376839 0.760592 1.975000 69 55 64
0.372450 0.755152 1.952000 68 56 69
0.370352 0.754294 1.941000 68 55 70
0.686459 0.973523 3.565000 62 44 32
0.679334 0.969595 3.528000 62 47 42
0.679334 0.975771 3.528000 61 48 43
0.672595 0.972205 3.493000 61 48 44
0.659116 0.958714 3.423000 62 46 42
0.652762 0.955406 3.390000 63 47 40
0.646407 0.951982 3.357000 65 48 42
0.646407 0.957858 3.357000 65 49 44
0.640053 0.954261 3.324000 65 50 46
0.628114 0.942172 3.262000 67 53 48
0.622145 0.938874 3.231000 69 56 54
0.616369 0.935760 3.201000 67 52 61
0.610785 0.932835 3.172000 64 50 54
0.605200 0.929808 3.143000 67 52 47
0.599809 0.926977 3.115000 70 53 53
0.594417 0.924049 3.087000 69 53 59
0.584019 0.913194 3.033000 69 54 56
0.573814 0.902453 2.980000 69 53 54
0.569000 0.900055 2.955000 70 51 53
0.564186 0.897569 2.930000 68 51 53
0.559372 0.894996 2.905000 67 53 53
0.554751 0.892645 2.881000 67 53 53
0.545701 0.883043 2.834000 66 55 53
0.541080 0.880484 2.810000 65 55 54
0.536843 0.878471 2.788000 63 57 50
0.528178 0.869094 2.743000 65 54 46
0.524135 0.867205 2.722000 67 54 50
0.516047 0.858515 2.680000 67 54 54
0.512004 0.856443 2.659000 67 54 54
0.508153 0.854620 2.639000 68 54 54
0.508153 0.859240 2.639000 68 56 54
0.504302 0.857313 2.619000 68 55 54
0.504302 0.861897 2.619000 67 55 55
0.500450 0.859865 2.599000 67 53 57
0.489475 0.845457 2.542000 66 53 57
0.478884 0.831517 2.487000 66 52 58
0.475418 0.829821 2.469000 66 53 55
0.471952 0.828062 2.451000 66 54 53
0.468679 0.826579 2.434000 66 55 53
0.465405 0.825037 2.417000 67 55 54
0.459051 0.817946 2.384000 68 55 51
0.455778 0.816257 2.367000 68 55 49
0.449616 0.809309 2.335000 67 54 51
0.449616 0.813396 2.335000 68 54 54
0.446728 0.812232 2.320000 69 54 57
0.440758 0.805386 2.289000 66 56 60
0.434982 0.798785 2.259000 62 58 60
0.429398 0.792434 2.230000 64 56 61
0.429398 0.796338 2.230000 66 55 62
0.426509 0.794858 2.215000 65 54 63
0.418615 0.783951 2.174000 65 54 61
0.415919 0.782684 2.160000 67 54 59
0.413416 0.781731 2.147000 70 57 55
0.413416 0.785490 2.147000 69 57 52
0.410720 0.784102 2.133000 69 59 54
0.408217 0.783034 2.120000 69 56 56
0.403403 0.777467 2.095000 69 53 60
0.396086 0.766966 2.057000 69 54 64
0.393775 0.766071 2.045000 70 54 65
0.389154 0.760619 2.021000 67 57 66
0.386843 0.759619 2.009000 64 59 65
0.386843 0.763136 2.009000 66 58 65
0.384725 0.762455 1.998000 68 57 61
0.382414 0.761352 1.986000 68 56 58
0.378178 0.756356 1.964000 68 54 63
0.375867 0.755152 1.952000 66 54 68
0.373749 0.754294 1.941000 65 54 66
0.699888 0.983627 3.602000 63 46 42
0.692699 0.979764 3.565000 63 49 45
0.692699 0.986004 3.565000 64 48 45
0.678709 0.972205 3.493000 63 49 46
0.665108 0.958714 3.423000 62 48 45
0.658696 0.955406 3.390000 63 48 44
0.658696 0.961340 3.390000 65 49 47
0.652284 0.957858 3.357000 65 49 50
0.645872 0.954261 3.324000 65 50 48
0.633825 0.942172 3.262000 65 53 47
0.627801 0.938874 3.231000 65 53 52
0.621972 0.935760 3.201000 66 51 57
0.610702 0.924306 3.143000 67 51 52
0.610702 0.929808 3.143000 70 54 48
0.605262 0.926977 3.115000 73 53 51
0.599821 0.924049 3.087000 71 53 54
0.589329 0.913194 3.033000 69 53 53
0.579030 0.902453 2.980000 68 53 51
0.574173 0.900055 2.955000 68 52 52
0.569315 0.897569 2.930000 67 51 53
0.564458 0.894996 2.905000 67 52 52
0.559794 0.892645 2.881000 66 55 51
0.545999 0.875565 2.810000 65 55 52
0.541724 0.873591 2.788000 63 56 53
0.541724 0.878471 2.788000 61 54 52
0.532980 0.869094 2.743000 64 53 51
0.528900 0.867205 2.722000 68 53 54
0.524819 0.865243 2.701000 68 53 58
0.516658 0.856443 2.659000 69 53 59
0.512772 0.854620 2.639000 68 54 59
0.512772 0.859240 2.639000 67 55 57
0.508886 0.857313 2.619000 67 55 55
0.508886 0.861897 2.619000 67 55 55
0.505000 0.859865 2.599000 66 55 55
0.497422 0.851443 2.560000 65 54 54
0.483238 0.831517 2.487000 64 54 52
0.476243 0.823771 2.451000 64 54 52
0.476243 0.828062 2.451000 64 55 53
0.472940 0.826579 2.434000 65 55 53
0.469636 0.825037 2.417000 67 56 54
0.463224 0.817946 2.384000 69 55 52
0.456812 0.810739 2.351000 68 55 51
0.453703 0.809309 2.335000 67 53 53
0.450789 0.808171 2.320000 65 53 56
0.447680 0.806631 2.304000 64 55 56
0.441851 0.800108 2.274000 61 58 56
0.438936 0.798785 2.259000 58 58 54
0.433301 0.792434 2.230000 61 59 51
0.430387 0.790981 2.215000 64 56 56
0.430387 0.794858 2.215000 63 54 61
0.422420 0.783951 2.174000 62 54 60
0.419700 0.782684 2.160000 65 53 58
0.419700 0.786465 2.160000 68 55 54
0.417174 0.785490 2.147000 68 56 50
0.414454 0.784102 2.133000 69 56 53
0.409402 0.778232 2.107000 69 56 56
0.404544 0.772643 2.082000 70 55 59
0.399686 0.766966 2.057000 69 54 63
0.395023 0.761576 2.033000 68 55 64
0.392691 0.760619 2.021000 68 56 66
0.392691 0.764156 2.021000 69 57 65
0.390360 0.763136 2.009000 68 59 65
0.385891 0.757876 1.986000 68 57 63
0.385891 0.761352 1.986000 67 59 61
0.381616 0.756356 1.964000 67 55 63
0.379284 0.755152 1.952000 64 52 65
0.377147 0.754294 1.941000 62 54 62
0.698940 0.973523 3.565000 61 49 52
0.691686 0.969595 3.528000 61 49 48
0.698940 0.986004 3.565000 62 49 48
0.691686 0.981947 3.528000 61 49 49
0.677962 0.968517 3.458000 61 49 49
0.671100 0.964706 3.423000 64 49 49
0.664630 0.961340 3.390000 68 51 52
0.658160 0.957858 3.357000 66 50 56
0.651690 0.954261 3.324000 65 51 51
0.639535 0.942172 3.262000 66 52 47
0.627575 0.930156 3.201000 68 52 50
0.621890 0.927282 3.172000 67 50 54
0.616204 0.924306 3.143000 66 50 51
0.610714 0.921525 3.115000 67 53 49
0.610714 0.926977 3.115000 68 54 49
0.605225 0.924049 3.087000 68 53 50
0.594638 0.913194 3.033000 69 53 49
0.584247 0.902453 2.980000 68 53 49
0.579345 0.900055 2.955000 68 55 51
0.574444 0.897569 2.930000 66 53 53
0.569543 0.894996 2.905000 65 51 51
0.564837 0.892645 2.881000 65 54 49
0.555623 0.883043 2.834000 65 55 51
0.550917 0.880484 2.810000 64 54 53
0.546604 0.878471 2.788000 63 53 54
0.542095 0.876064 2.765000 65 53 56
0.533664 0.867205 2.722000 68 52 59
0.525430 0.858515 2.680000 68 52 63
0.521313 0.856443 2.659000 68 53 64
0.517392 0.854620 2.639000 69 54 65
0.517392 0.859240 2.639000 69 58 60
0.513471 0.857313 2.619000 68 57 56
0.513471 0.861897 2.619000 67 56 55
0.509549 0.859865 2.599000 66 55 54
0.501903 0.851443 2.560000 65 55 50
0.487591 0.831517 2.487000 65 54 47
0.480533 0.823771 2.451000 66 54 50
0.480533 0.828062 2.451000 66 54 53
0.477200 0.826579 2.434000 66 54 53
0.473867 0.825037 2.417000 69 54 54
0.460928 0.806624 2.351000 72 54 54
0.457791 0.805221 2.335000 70 54 54
0.454850 0.804110 2.320000 68 53 56
0.454850 0.808171 2.320000 69 53 58
0.451713 0.806631 2.304000 71 56 55
0.445831 0.800108 2.274000 66 57 53
0.442890 0.798785 2.259000 61 58 47
0.437205 0.792434 2.230000 63 57 42
0.434264 0.790981 2.215000 66 56 51
0.431519 0.789834 2.201000 65 55 60
0.423481 0.778903 2.160000 65 57 59
0.420932 0.777973 2.147000 67 54 58
0.420932 0.781731 2.147000 69 55 53
0.418187 0.780368 2.133000 68 56 49
0.415639 0.779323 2.120000 67 55 52
0.410737 0.773800 2.095000 67 56 56
0.408189 0.772643 2.082000 67 57 59
0.403287 0.766966 2.057000 67 56 62
0.400935 0.766071 2.045000 68 56 64
0.398582 0.765135 2.033000 69 56 66
0.396229 0.764156 2.021000 71 56 66
0.393876 0.763136 2.009000 69 56 66
0.391720 0.762455 1.998000 68 56 65
0.389367 0.761352 1.986000 68 56 65
0.385054 0.756356 1.964000 67 57 63
0.385054 0.759794 1.964000 66 56 62
0.382701 0.758569 1.952000 65 58 57
0.712499 0.983627 3.602000 59 47 47
0.705180 0.979764 3.565000 59 50 47
0.705180 0.986004 3.565000 60 49 48
0.697861 0.981947 3.528000 60 51 49
0.690938 0.978320 3.493000 60 49 49
0.677092 0.964706 3.423000 65 48 48
0.670564 0.961340 3.390000 71 49 50
0.664036 0.957858 3.357000 68 50 53
0.657509 0.954261 3.324000 65 50 50
0.639113 0.933218 3.231000 68 52 48
0.633179 0.930156 3.201000 72 50 51
0.627442 0.927282 3.172000 68 49 55
0.621706 0.924306 3.143000 65 50 53
0.616167 0.921525 3.115000 64 54 51
0.616167 0.926977 3.115000 64 54 52
0.605090 0.915668 3.059000 66 55 53
0.594606 0.905065 3.006000 69 53 50
0.589463 0.902453 2.980000 68 53 48
0.584518 0.900055 2.955000 68 54 50
0.574628 0.889911 2.905000 65 55 53
0.574628 0.894996 2.905000 63 53 52
0.569881 0.892645 2.881000 64 55 52
0.560584 0.883043 2.834000 65 53 53
0.551485 0.873591 2.788000 65 54 55
0.546935 0.871224 2.765000 65 53 58
0.542583 0.869094 2.743000 66 54 62
0.534275 0.860515 2.701000 68 53 61
0.530121 0.858515 2.680000 68 53 61
0.525967 0.856443 2.659000 68 53 61
0.522011 0.854620 2.639000 70 54 61
0.522011 0.859240 2.639000 72 56 57
0.518055 0.857313 2.619000 69 59 54
0.514099 0.855316 2.599000 67 56 54
0.510341 0.853579 2.580000 66 54 55
0.502824 0.845457 2.542000 65 54 54
0.495505 0.837536 2.505000 66 55 52
0.488384 0.829821 2.469000 68 53 53
0.484824 0.828062 2.451000 67 53 55
0.481461 0.826579 2.434000 67 53 54
0.478098 0.825037 2.417000 71 53 54
0.465043 0.806624 2.351000 75 53 54
0.461878 0.805221 2.335000 72 54 54
0.458911 0.804110 2.320000 69 53 56
0.458911 0.808171 2.320000 73 53 58
0.452779 0.801379 2.289000 78 54 57
0.449812 0.800108 2.274000 71 58 56
0.446845 0.798785 2.259000 64 56 57
0.443878 0.797409 2.244000 66 56 59
0.438141 0.790981 2.215000 68 56 61
0.435372 0.789834 2.201000 68 54 64
0.432603 0.788639 2.187000 68 53 61
0.427262 0.782684 2.160000 69 53 58
0.424691 0.781731 2.147000 71 55 55
0.421921 0.780368 2.133000 68 60 52
0.419350 0.779323 2.120000 65 57 55
0.416778 0.778232 2.107000 64 57 58
0.409262 0.767819 2.069000 64 57 59
0.404514 0.762492 2.045000 66 60 61
0.402141 0.761576 2.033000 69 57 67
0.399767 0.760619 2.021000 71 56 73
0.399767 0.764156 2.021000 73 55 70
0.397393 0.763136 2.009000 71 54 68
0.395217 0.762455 1.998000 69 54 66
0.390668 0.757135 1.975000 68 54 64
0.388492 0.756356 1.964000 68 56 64
0.386118 0.755152 1.952000 68 58 64
0.383942 0.754294 1.941000 69 57 65
0.734170 0.985334 3.679000 62 47 44
0.734170 0.991774 3.679000 61 49 41
0.726388 0.987632 3.640000 61 46 38
0.718804 0.983627 3.602000 61 45 42
0.711421 0.979764 3.565000 61 47 47
0.718804 0.996238 3.602000 62 49 48
0.711421 0.992245 3.565000 62 50 50
0.704037 0.988122 3.528000 62 49 49
0.690068 0.974570 3.458000 64 49 48
0.683084 0.970698 3.423000 67 50 49
0.669913 0.957858 3.357000 66 50 50
0.663328 0.954261 3.324000 66 50 50
0.644769 0.933218 3.231000 67 50 50
0.644769 0.938874 3.231000 68 50 53
0.638782 0.935760 3.201000 66 49 56
0.627208 0.924306 3.143000 65 50 54
0.627208 0.929808 3.143000 67 52 53
0.621620 0.926977 3.115000 70 53 55
0.610445 0.915668 3.059000 69 52 57
0.599868 0.905065 3.006000 68 51 52
0.589691 0.894882 2.955000 69 52 47
0.584702 0.892440 2.930000 70 53 50
0.579713 0.889911 2.905000 69 53 53
0.574924 0.887602 2.881000 68 53 54
0.570134 0.885209 2.857000 68 52 56
0.560755 0.875565 2.810000 68 51 56
0.556365 0.873591 2.788000 67 52 57
0.551775 0.871224 2.765000 66 53 62
0.547385 0.869094 2.743000 66 52 68
0.539004 0.860515 2.701000 66 53 63
0.539004 0.865243 2.701000 66 53 59
0.530622 0.856443 2.659000 67 52 58
0.526631 0.854620 2.639000 69 53 58
