ply
format ascii 1.0
element vertex 1245
property float x
property float y
property float z
property uchar red
property uchar green
property uchar blue
end_header
-0.481318 0.763232 1.964000 88 77 94
-0.967195 -0.633200 3.975000 135 120 129
-0.967195 -0.626241 3.975000 133 121 130
-0.967195 -0.535784 3.975000 133 115 125
-0.967195 -0.528826 3.975000 135 116 125
-0.967195 -0.521868 3.975000 132 117 124
-0.967195 -0.514910 3.975000 130 117 123
-0.967195 -0.507951 3.975000 129 117 121
-0.967195 -0.500993 3.975000 129 117 125
-0.967195 -0.494035 3.975000 131 117 130
-0.967195 -0.487077 3.975000 133 115 127
-0.967195 -0.480118 3.975000 129 115 125
-0.967195 -0.473160 3.975000 125 113 124
-0.967195 -0.466202 3.975000 126 113 122
-0.967195 -0.459244 3.975000 127 112 121
-0.967195 -0.452285 3.975000 126 110 120
-0.967195 -0.445327 3.975000 125 110 118
-0.967195 -0.438369 3.975000 124 111 117
-0.967195 -0.431411 3.975000 124 111 116
-0.967195 -0.424452 3.975000 122 112 116
-0.967195 -0.417494 3.975000 121 110 114
-0.967195 -0.410536 3.975000 122 109 113
-0.967195 -0.403578 3.975000 123 107 111
-0.967195 -0.396619 3.975000 121 108 109
-0.967195 -0.389661 3.975000 119 108 111
-0.967195 -0.382703 3.975000 119 107 114
-0.967195 -0.375745 3.975000 119 106 112
-0.967195 -0.368787 3.975000 120 107 109
-0.956246 -0.357732 3.930000 122 105 108
-0.956246 -0.350853 3.930000 120 104 108
-0.956246 -0.343973 3.930000 119 104 109
-0.956246 -0.337094 3.930000 118 102 110
-0.967195 -0.333995 3.975000 117 104 107
-0.967195 -0.327037 3.975000 117 107 105
-0.967195 -0.320079 3.975000 118 106 106
-0.967195 -0.313121 3.975000 120 106 106
-0.967195 -0.306162 3.975000 123 104 107
-0.967195 -0.299204 3.975000 122 101 108
-0.967195 -0.292246 3.975000 121 102 108
-0.967195 -0.285288 3.975000 123 100 108
-0.967195 -0.278329 3.975000 125 99 111
-0.967195 -0.271371 3.975000 122 101 114
-0.956246 -0.261420 3.930000 119 100 114
-0.956246 -0.254540 3.930000 118 100 113
-0.956246 -0.247661 3.930000 117 101 115
-0.956246 -0.240781 3.930000 116 104 117
-0.956246 -0.233902 3.930000 116 104 110
-0.956246 -0.227022 3.930000 115 105 104
-0.956246 -0.220143 3.930000 115 103 107
-0.956246 -0.213263 3.930000 115 102 110
-0.945296 -0.204021 3.885000 115 101 109
-0.945296 -0.197220 3.885000 113 100 109
-0.945296 -0.190419 3.885000 112 101 111
-0.945296 -0.183619 3.885000 112 103 112
-0.945296 -0.176818 3.885000 113 101 110
-0.945296 -0.170017 3.885000 113 101 109
-0.945296 -0.163217 3.885000 114 99 113
-0.945296 -0.156416 3.885000 113 99 117
-0.945296 -0.149615 3.885000 112 100 110
-0.945296 -0.142815 3.885000 115 101 103
-0.945296 -0.136014 3.885000 118 101 105
-0.945296 -0.129213 3.885000 115 102 106
-0.945296 -0.122412 3.885000 113 99 105
-0.945296 -0.115612 3.885000 113 100 105
-0.945296 -0.108811 3.885000 113 99 104
-0.945296 -0.102010 3.885000 115 98 104
-0.945296 -0.095210 3.885000 117 98 106
-0.945296 -0.088409 3.885000 113 99 108
-0.945296 -0.081608 3.885000 110 99 110
-0.945296 -0.074808 3.885000 109 98 111
-0.945296 -0.068007 3.885000 109 98 107
-0.945296 -0.061206 3.885000 109 99 103
-0.956246 -0.055036 3.930000 110 99 104
-0.945296 -0.047605 3.885000 109 100 106
-0.945296 -0.040804 3.885000 109 99 103
-0.945296 -0.034003 3.885000 109 100 101
-0.945296 -0.027203 3.885000 110 98 100
-0.945296 -0.020402 3.885000 110 96 99
-0.934834 -0.013451 3.842000 110 96 101
-0.934834 -0.006725 3.842000 110 97 103
-0.934834 -0.000000 3.842000 110 95 102
-0.934834 0.006726 3.842000 109 94 101
-0.934834 0.013451 3.842000 109 94 104
-0.934834 0.020176 3.842000 107 94 107
-0.934834 0.026902 3.842000 106 94 104
-0.934834 0.033627 3.842000 107 95 102
-0.934834 0.040353 3.842000 109 95 101
-0.934834 0.047078 3.842000 109 95 100
-0.934834 0.053804 3.842000 109 94 100
-0.934834 0.060529 3.842000 108 94 100
-0.934834 0.067254 3.842000 108 94 99
-0.934834 0.073980 3.842000 109 96 98
-0.934834 0.080705 3.842000 110 97 97
-0.934834 0.087430 3.842000 111 99 96
-0.934834 0.094156 3.842000 113 97 97
-0.934834 0.100881 3.842000 109 95 98
-0.934834 0.107607 3.842000 106 95 99
-0.934834 0.114332 3.842000 107 95 100
-0.934834 0.121058 3.842000 108 94 104
-0.934834 0.127783 3.842000 107 93 107
-0.934834 0.134508 3.842000 107 93 102
-0.934834 0.141234 3.842000 107 93 97
-0.934834 0.147959 3.842000 108 94 99
-0.945296 0.156416 3.885000 107 95 102
-0.934834 0.161410 3.842000 107 95 99
-0.934834 0.168136 3.842000 107 95 96
-0.934834 0.174861 3.842000 107 94 100
-0.934834 0.181587 3.842000 107 92 105
-0.934834 0.188312 3.842000 108 91 104
-0.934834 0.195037 3.842000 107 92 103
-0.934834 0.201763 3.842000 106 93 102
-0.934834 0.208488 3.842000 105 94 100
-0.934834 0.215214 3.842000 105 92 100
-0.934834 0.221939 3.842000 104 92 99
-0.934834 0.228665 3.842000 104 92 99
-0.934834 0.235390 3.842000 104 92 100
-0.934834 0.242115 3.842000 105 92 100
-0.934834 0.248841 3.842000 105 93 101
-0.934834 0.255566 3.842000 106 92 97
-0.934834 0.262291 3.842000 104 94 94
-0.934834 0.269017 3.842000 103 93 98
-0.924614 0.272728 3.800000 103 92 102
-0.934834 0.282468 3.842000 104 92 98
-0.934834 0.289193 3.842000 104 92 95
-0.934834 0.295919 3.842000 105 92 94
-0.934834 0.302644 3.842000 104 93 93
-0.934834 0.309369 3.842000 103 92 95
-0.934834 0.316095 3.842000 103 92 97
-0.934834 0.322820 3.842000 104 91 96
-0.934834 0.329546 3.842000 103 92 96
-0.934834 0.336271 3.842000 103 91 95
-0.934834 0.342997 3.842000 103 91 95
-0.934834 0.349722 3.842000 103 91 99
-0.934834 0.356447 3.842000 103 92 103
-0.934834 0.363173 3.842000 103 91 101
-0.934834 0.369898 3.842000 103 91 100
-0.934834 0.376624 3.842000 103 89 97
-0.934834 0.383349 3.842000 103 90 95
-0.934834 0.390074 3.842000 104 89 93
-0.934834 0.396800 3.842000 105 90 91
-0.934834 0.403526 3.842000 106 91 92
-0.934834 0.410251 3.842000 104 94 93
-0.934834 0.416976 3.842000 103 91 97
-0.934834 0.423702 3.842000 102 90 102
-0.934834 0.430427 3.842000 101 90 96
-0.934834 0.437152 3.842000 103 90 91
-0.934834 0.443878 3.842000 105 90 96
-0.934834 0.450603 3.842000 103 90 102
-0.934834 0.457329 3.842000 101 87 96
-0.934834 0.464054 3.842000 100 85 91
-0.934834 0.470780 3.842000 100 86 92
-0.934834 0.477505 3.842000 100 89 93
-0.934834 0.484230 3.842000 100 89 93
-0.934834 0.490956 3.842000 100 89 93
-0.934834 0.497681 3.842000 101 88 96
-0.934834 0.504407 3.842000 102 89 100
-0.924614 0.505545 3.800000 103 89 93
-0.924614 0.512197 3.800000 101 89 86
-0.924614 0.518848 3.800000 100 89 92
-0.924614 0.525500 3.800000 103 88 98
-0.924614 0.532152 3.800000 107 87 95
-0.924614 0.538804 3.800000 103 85 93
-0.924614 0.545456 3.800000 100 87 92
-0.924614 0.552108 3.800000 100 88 91
-0.924614 0.558760 3.800000 101 88 90
-0.924614 0.565412 3.800000 100 88 89
-0.924614 0.572064 3.800000 100 87 91
-0.924614 0.578716 3.800000 100 86 94
-0.924614 0.585368 3.800000 100 85 93
-0.924614 0.592019 3.800000 100 85 93
-0.924614 0.598671 3.800000 100 84 91
-0.924614 0.605323 3.800000 99 84 90
-0.924614 0.611975 3.800000 98 85 91
-0.924614 0.618627 3.800000 98 85 92
-0.924614 0.625279 3.800000 98 84 94
-0.924614 0.631931 3.800000 97 85 95
-0.924614 0.638583 3.800000 97 85 93
-0.934834 0.652366 3.842000 99 85 91
-0.934834 0.659091 3.842000 102 86 89
-0.924614 0.658538 3.800000 99 87 88
-0.924614 0.665190 3.800000 97 86 88
-0.924614 0.671842 3.800000 96 86 87
-0.924614 0.678494 3.800000 95 85 89
-0.924614 0.685146 3.800000 96 86 90
-0.924614 0.691798 3.800000 98 85 91
-0.924614 0.698450 3.800000 101 84 92
-0.924614 0.705102 3.800000 104 84 89
-0.924614 0.711754 3.800000 100 83 86
-0.924614 0.718405 3.800000 97 83 87
-0.924614 0.725057 3.800000 97 85 88
-0.924614 0.731709 3.800000 98 84 88
-0.924614 0.738361 3.800000 96 84 88
-0.924614 0.745013 3.800000 95 84 86
-0.934834 0.759973 3.842000 95 86 85
-0.934834 0.766698 3.842000 95 84 86
-0.934834 0.773424 3.842000 97 82 87
-0.934834 0.780149 3.842000 100 83 91
-0.924614 0.778273 3.800000 97 84 94
-0.924614 0.784925 3.800000 95 81 90
-0.924614 0.791576 3.800000 96 82 86
-0.924614 0.798228 3.800000 98 82 86
-0.924614 0.804880 3.800000 95 82 86
-0.924614 0.811532 3.800000 93 82 85
-0.924614 0.818184 3.800000 92 83 83
-0.924614 0.824836 3.800000 92 82 84
-0.924614 0.831488 3.800000 93 82 85
-0.924614 0.838140 3.800000 94 81 86
-0.924614 0.844791 3.800000 95 82 87
-0.924614 0.851443 3.800000 96 80 89
-0.924614 0.858095 3.800000 94 79 92
-0.924614 0.864747 3.800000 93 78 89
-0.924614 0.871399 3.800000 92 78 87
-0.924614 0.878051 3.800000 91 79 85
-0.924614 0.884703 3.800000 91 80 83
-0.914638 0.881737 3.759000 91 80 86
-0.914638 0.888318 3.759000 90 79 88
-0.914638 0.894898 3.759000 90 79 83
-0.924614 0.911311 3.800000 90 82 77
-0.924614 0.917962 3.800000 90 70 64
-0.924614 0.924614 3.800000 48 56 51
-0.924614 0.931266 3.800000 7 16 35
-0.914638 0.927798 3.759000 10 3 19
-0.914638 0.934378 3.759000 14 7 17
-0.914638 0.940959 3.759000 13 6 16
-0.904662 0.937204 3.718000 13 7 12
-0.904662 0.943712 3.718000 10 9 8
-0.904662 0.950221 3.718000 8 8 5
-0.904662 0.956729 3.718000 7 7 3
-0.904662 0.963237 3.718000 7 7 3
-0.904662 0.969746 3.718000 7 9 4
-0.904662 0.976254 3.718000 7 6 5
-0.914638 0.993600 3.759000 8 6 6
-0.914638 1.000180 3.759000 10 5 7
-0.914638 1.006760 3.759000 13 6 8
-0.914638 1.013340 3.759000 17 6 8
-0.914638 1.019920 3.759000 15 7 8
-0.904662 1.015304 3.718000 13 7 7
-0.904662 1.021813 3.718000 15 11 6
-0.904662 1.028321 3.718000 17 6 20
-0.824853 0.973208 3.390000 65 56 64
-0.816824 0.969611 3.357000 68 63 67
-0.808794 0.965898 3.324000 71 65 71
-0.801251 0.962654 3.293000 75 68 75
-0.793708 0.959302 3.262000 80 67 80
-0.786165 0.955841 3.231000 83 70 84
-0.778866 0.952570 3.201000 87 72 90
-0.757940 0.932430 3.115000 85 72 95
-0.751127 0.929453 3.087000 83 74 91
-0.737988 0.918503 3.033000 83 78 88
-0.731418 0.915589 3.006000 83 77 90
-0.725092 0.912886 2.980000 81 77 93
-0.719009 0.910400 2.955000 80 78 91
-0.712926 0.907827 2.930000 82 80 89
-0.712926 0.912956 2.930000 85 79 90
-0.701004 0.902731 2.881000 87 80 92
-0.689568 0.892965 2.834000 90 79 92
-0.683728 0.890322 2.810000 92 79 92
-0.672779 0.880904 2.765000 95 79 90
-0.667425 0.878697 2.743000 92 78 88
-0.662316 0.876735 2.722000 89 78 91
-0.662316 0.881499 2.722000 91 78 93
-0.662316 0.886264 2.722000 93 78 87
-0.618518 0.832107 2.542000 90 79 81
-0.618518 0.836557 2.542000 88 79 85
-0.609515 0.828766 2.505000 88 79 90
-0.605136 0.827164 2.487000 88 79 89
-0.605136 0.831517 2.487000 87 78 89
-0.605136 0.835871 2.487000 87 78 92
-0.600756 0.834143 2.469000 85 78 95
-0.600756 0.838465 2.469000 83 78 93
-0.596376 0.836643 2.451000 85 77 92
-0.592240 0.835101 2.434000 87 78 93
-0.592240 0.839361 2.434000 87 79 94
-0.588103 0.837730 2.417000 88 78 95
-0.572044 0.818970 2.351000 90 78 97
-0.564501 0.812232 2.320000 93 78 93
-0.560608 0.810664 2.304000 90 80 89
-0.556958 0.809393 2.289000 88 81 91
-0.549659 0.802739 2.259000 89 81 93
-0.549659 0.806694 2.259000 91 81 95
-0.542603 0.800241 2.230000 89 82 97
-0.538953 0.798736 2.215000 87 80 96
-0.535546 0.797540 2.201000 88 78 94
-0.532140 0.796296 2.187000 89 78 93
-0.532140 0.800124 2.187000 88 79 93
-0.528977 0.799173 2.174000 88 78 97
-0.515837 0.783034 2.120000 88 76 101
-0.509754 0.777467 2.095000 89 77 101
-0.506591 0.776287 2.082000 88 79 101
-0.500508 0.770567 2.057000 88 79 104
-0.500508 0.774167 2.057000 90 79 107
-0.497588 0.773231 2.045000 93 78 104
-0.494669 0.772252 2.033000 91 78 102
-0.491749 0.771232 2.021000 89 78 100
-0.486152 0.765952 1.998000 88 80 98
-0.483233 0.764829 1.986000 87 80 96
-0.480556 0.764050 1.975000 88 79 94
-0.477880 0.763232 1.964000 90 78 92
-0.960237 -0.633200 3.975000 135 120 134
-0.960237 -0.626241 3.975000 134 121 132
-0.960237 -0.535784 3.975000 131 117 128
-0.960237 -0.528826 3.975000 131 117 128
-0.960237 -0.521868 3.975000 130 117 128
-0.960237 -0.514910 3.975000 130 120 125
-0.960237 -0.507951 3.975000 129 118 123
-0.960237 -0.500993 3.975000 128 118 125
-0.960237 -0.494035 3.975000 129 116 127
-0.960237 -0.487077 3.975000 130 114 127
-0.960237 -0.480118 3.975000 128 113 127
-0.960237 -0.473160 3.975000 126 112 126
-0.960237 -0.466202 3.975000 127 113 126
-0.960237 -0.459244 3.975000 129 113 123
-0.960237 -0.452285 3.975000 127 111 121
-0.960237 -0.445327 3.975000 125 112 121
-0.960237 -0.438369 3.975000 125 111 121
-0.960237 -0.431411 3.975000 124 111 120
-0.960237 -0.424452 3.975000 123 111 119
-0.960237 -0.417494 3.975000 122 110 119
-0.960237 -0.410536 3.975000 123 108 119
-0.960237 -0.403578 3.975000 125 106 116
-0.960237 -0.396619 3.975000 123 107 114
-0.960237 -0.389661 3.975000 120 109 116
-0.960237 -0.382703 3.975000 119 107 118
-0.960237 -0.375745 3.975000 118 106 116
-0.960237 -0.368787 3.975000 119 106 114
-0.960237 -0.361828 3.975000 121 105 112
-0.949366 -0.350853 3.930000 120 105 110
-0.960237 -0.347912 3.975000 119 106 111
-0.960237 -0.340954 3.975000 118 104 113
-0.960237 -0.333995 3.975000 118 104 110
-0.960237 -0.327037 3.975000 118 106 108
-0.960237 -0.320079 3.975000 119 108 108
-0.960237 -0.313121 3.975000 120 106 108
-0.960237 -0.306162 3.975000 121 106 108
-0.960237 -0.299204 3.975000 119 103 109
-0.960237 -0.292246 3.975000 118 104 109
-0.960237 -0.285288 3.975000 120 101 110
-0.960237 -0.278329 3.975000 122 98 115
-0.960237 -0.271371 3.975000 120 100 120
-0.960237 -0.264413 3.975000 119 102 118
-0.949366 -0.254540 3.930000 118 101 116
-0.949366 -0.247661 3.930000 116 102 119
-0.949366 -0.240781 3.930000 117 103 123
-0.949366 -0.233902 3.930000 118 105 111
-0.949366 -0.227022 3.930000 117 105 100
-0.949366 -0.220143 3.930000 115 106 104
-0.949366 -0.213263 3.930000 115 103 108
-0.949366 -0.206384 3.930000 115 101 109
-0.938496 -0.197220 3.885000 115 99 111
-0.938496 -0.190419 3.885000 115 99 109
-0.938496 -0.183619 3.885000 114 100 108
-0.938496 -0.176818 3.885000 114 101 108
-0.938496 -0.170017 3.885000 114 101 109
-0.938496 -0.163217 3.885000 114 101 109
-0.938496 -0.156416 3.885000 113 100 110
-0.938496 -0.149615 3.885000 112 101 106
-0.938496 -0.142815 3.885000 113 100 102
-0.938496 -0.136014 3.885000 115 100 103
-0.938496 -0.129213 3.885000 113 100 105
-0.938496 -0.122412 3.885000 112 98 106
-0.938496 -0.115612 3.885000 112 98 107
-0.938496 -0.108811 3.885000 111 100 106
-0.938496 -0.102010 3.885000 112 97 105
-0.938496 -0.095210 3.885000 114 96 107
-0.938496 -0.088409 3.885000 112 98 110
-0.938496 -0.081608 3.885000 110 101 115
-0.938496 -0.074808 3.885000 109 99 120
-0.938496 -0.068007 3.885000 109 98 113
-0.938496 -0.061206 3.885000 109 98 107
-0.949366 -0.055036 3.930000 109 99 109
-0.938496 -0.047605 3.885000 109 99 111
-0.938496 -0.040804 3.885000 109 99 106
-0.938496 -0.034003 3.885000 110 99 102
-0.938496 -0.027203 3.885000 111 99 100
-0.938496 -0.020402 3.885000 110 98 99
-0.938496 -0.013601 3.885000 110 98 102
-0.938496 -0.006801 3.885000 110 96 105
-0.938496 -0.000000 3.885000 111 97 104
-0.938496 0.006801 3.885000 110 95 103
-0.928108 0.013451 3.842000 109 96 104
-0.938496 0.020402 3.885000 109 95 105
-0.928108 0.026902 3.842000 110 94 103
-0.928108 0.033627 3.842000 110 94 102
-0.928108 0.040353 3.842000 110 95 102
-0.928108 0.047078 3.842000 109 95 103
-0.928108 0.053804 3.842000 109 95 102
-0.928108 0.060529 3.842000 108 95 101
-0.928108 0.067254 3.842000 108 95 101
-0.928108 0.073980 3.842000 109 95 102
-0.928108 0.080705 3.842000 109 97 100
-0.928108 0.087430 3.842000 110 98 98
-0.928108 0.094156 3.842000 110 97 100
-0.928108 0.100881 3.842000 107 95 102
-0.928108 0.107607 3.842000 104 94 101
-0.928108 0.114332 3.842000 106 94 100
-0.928108 0.121058 3.842000 107 94 101
-0.928108 0.127783 3.842000 107 93 103
-0.928108 0.134508 3.842000 107 94 100
-0.928108 0.141234 3.842000 108 94 97
-0.928108 0.147959 3.842000 109 96 97
-0.938496 0.156416 3.885000 106 95 97
-0.938496 0.163217 3.885000 103 95 97
-0.938496 0.170017 3.885000 105 95 97
-0.938496 0.176818 3.885000 106 96 103
-0.938496 0.183619 3.885000 106 93 110
-0.938496 0.190419 3.885000 106 91 108
-0.928108 0.195037 3.842000 106 92 106
-0.928108 0.201763 3.842000 106 95 103
-0.928108 0.208488 3.842000 105 93 101
-0.928108 0.215214 3.842000 105 92 100
-0.928108 0.221939 3.842000 105 92 100
-0.928108 0.228665 3.842000 105 93 101
-0.928108 0.235390 3.842000 105 93 103
-0.928108 0.242115 3.842000 106 94 104
-0.928108 0.248841 3.842000 105 92 106
-0.928108 0.255566 3.842000 105 91 98
-0.928108 0.262291 3.842000 104 93 91
-0.928108 0.269017 3.842000 104 96 99
-0.928108 0.275742 3.842000 105 94 108
-0.928108 0.282468 3.842000 107 94 102
-0.928108 0.289193 3.842000 106 92 96
-0.928108 0.295919 3.842000 105 92 95
-0.928108 0.302644 3.842000 104 92 94
-0.917962 0.305988 3.800000 103 93 96
-0.928108 0.316095 3.842000 104 91 98
-0.928108 0.322820 3.842000 104 90 97
-0.928108 0.329546 3.842000 104 91 96
-0.928108 0.336271 3.842000 104 91 94
-0.928108 0.342997 3.842000 103 91 93
-0.928108 0.349722 3.842000 103 93 97
-0.928108 0.356447 3.842000 101 92 102
-0.928108 0.363173 3.842000 100 92 101
-0.928108 0.369898 3.842000 101 91 100
-0.928108 0.376624 3.842000 103 90 97
-0.928108 0.383349 3.842000 103 89 94
-0.928108 0.390074 3.842000 103 90 92
-0.917962 0.392462 3.800000 103 91 90
-0.917962 0.399114 3.800000 104 91 91
-0.917962 0.405766 3.800000 103 91 93
-0.917962 0.412418 3.800000 102 91 93
-0.917962 0.419070 3.800000 101 90 94
-0.917962 0.425722 3.800000 101 91 91
-0.917962 0.432374 3.800000 101 91 88
-0.917962 0.439026 3.800000 101 91 97
-0.928108 0.450603 3.842000 101 89 107
-0.928108 0.457329 3.842000 101 88 96
-0.928108 0.464054 3.842000 100 86 86
-0.928108 0.470780 3.842000 100 86 89
-0.928108 0.477505 3.842000 99 88 92
-0.928108 0.484230 3.842000 99 90 93
-0.917962 0.485589 3.800000 100 88 95
-0.928108 0.497681 3.842000 101 88 101
-0.917962 0.498893 3.800000 102 89 107
-0.917962 0.505545 3.800000 103 89 98
-0.917962 0.512197 3.800000 102 88 90
-0.917962 0.518848 3.800000 101 88 93
-0.917962 0.525500 3.800000 101 88 96
-0.917962 0.532152 3.800000 101 88 94
-0.917962 0.538804 3.800000 101 86 93
-0.917962 0.545456 3.800000 100 87 92
-0.917962 0.552108 3.800000 100 87 92
-0.917962 0.558760 3.800000 101 88 88
-0.917962 0.565412 3.800000 101 87 85
-0.917962 0.572064 3.800000 101 88 88
-0.917962 0.578716 3.800000 100 86 92
-0.917962 0.585368 3.800000 100 86 93
-0.917962 0.592019 3.800000 99 85 94
-0.917962 0.598671 3.800000 99 86 93
-0.917962 0.605323 3.800000 97 85 92
-0.917962 0.611975 3.800000 95 86 93
-0.917962 0.618627 3.800000 98 85 95
-0.917962 0.625279 3.800000 101 85 98
-0.917962 0.631931 3.800000 98 85 102
-0.917962 0.638583 3.800000 96 85 98
-0.917962 0.645234 3.800000 97 85 95
-0.917962 0.651886 3.800000 99 86 91
-0.917962 0.658538 3.800000 97 86 88
-0.917962 0.665190 3.800000 95 87 90
-0.917962 0.671842 3.800000 95 85 92
-0.917962 0.678494 3.800000 95 84 92
-0.917962 0.685146 3.800000 96 85 92
-0.917962 0.691798 3.800000 97 85 92
-0.917962 0.698450 3.800000 98 85 93
-0.917962 0.705102 3.800000 100 85 90
-0.917962 0.711754 3.800000 96 83 87
-0.917962 0.718405 3.800000 93 82 85
-0.917962 0.725057 3.800000 95 84 84
-0.917962 0.731709 3.800000 96 86 85
-0.917962 0.738361 3.800000 96 85 86
-0.917962 0.745013 3.800000 96 85 81
-0.917962 0.751665 3.800000 95 85 76
-0.928108 0.766698 3.842000 95 85 80
-0.928108 0.773424 3.842000 97 84 85
-0.928108 0.780149 3.842000 98 85 87
-0.917962 0.778273 3.800000 96 82 90
-0.917962 0.784925 3.800000 95 81 88
-0.917962 0.791576 3.800000 95 81 86
-0.917962 0.798228 3.800000 96 82 88
-0.917962 0.804880 3.800000 95 81 90
-0.917962 0.811532 3.800000 94 82 86
-0.917962 0.818184 3.800000 93 82 83
-0.917962 0.824836 3.800000 92 83 82
-0.917962 0.831488 3.800000 92 82 81
-0.917962 0.838140 3.800000 92 81 84
-0.917962 0.844791 3.800000 93 81 88
-0.917962 0.851443 3.800000 94 81 91
-0.917962 0.858095 3.800000 92 79 95
-0.917962 0.864747 3.800000 91 78 91
-0.917962 0.871399 3.800000 90 79 87
-0.917962 0.878051 3.800000 89 80 85
-0.917962 0.884703 3.800000 90 80 84
-0.908058 0.881737 3.759000 90 82 89
-0.908058 0.888318 3.759000 89 78 94
-0.917962 0.904659 3.800000 89 78 87
-0.917962 0.911311 3.800000 88 76 80
-0.908058 0.908058 3.759000 88 68 59
-0.908058 0.914638 3.759000 47 45 38
-0.908058 0.921218 3.759000 7 3 36
-0.908058 0.927798 3.759000 10 5 34
-0.908058 0.934378 3.759000 13 10 25
-0.898154 0.930696 3.718000 12 7 17
-0.898154 0.937204 3.718000 12 7 12
-0.898154 0.943712 3.718000 10 8 8
-0.898154 0.950221 3.718000 8 9 5
-0.898154 0.956729 3.718000 7 7 2
-0.898154 0.963237 3.718000 6 6 3
-0.898154 0.969746 3.718000 6 6 5
-0.908058 0.987020 3.759000 6 5 7
-0.917962 1.004437 3.800000 7 5 10
-0.917962 1.011089 3.800000 7 5 9
-0.908058 1.006760 3.759000 11 6 8
-0.908058 1.013340 3.759000 14 6 8
-0.908058 1.019920 3.759000 12 6 8
-0.898154 1.015304 3.718000 11 6 5
-0.898154 1.021813 3.718000 13 7 3
-0.888732 1.017534 3.679000 15 5 16
-0.818919 0.973208 3.390000 65 52 62
-0.810947 0.969611 3.357000 68 60 65
-0.795487 0.956890 3.293000 71 65 70
-0.787998 0.953592 3.262000 75 66 75
-0.787998 0.959302 3.262000 79 65 79
-0.780509 0.955841 3.231000 82 69 84
-0.773262 0.952570 3.201000 84 73 86
-0.759251 0.940812 3.143000 83 73 89
-0.738960 0.921022 3.059000 83 72 87
-0.726156 0.910327 3.006000 84 75 85
-0.726156 0.915589 3.006000 85 76 91
-0.719876 0.912886 2.980000 83 76 97
-0.707797 0.902698 2.930000 81 78 92
-0.707797 0.907827 2.930000 83 79 88
-0.707797 0.912956 2.930000 85 80 89
-0.695960 0.902731 2.881000 86 80 91
-0.684607 0.892965 2.834000 88 80 90
-0.678809 0.890322 2.810000 89 79 89
-0.667938 0.880904 2.765000 91 80 88
-0.662624 0.878697 2.743000 90 78 88
-0.657551 0.876735 2.722000 88 77 89
-0.657551 0.881499 2.722000 89 78 90
-0.657551 0.886264 2.722000 90 79 88
-0.647405 0.877281 2.680000 88 78 86
-0.605130 0.824381 2.505000 86 79 89
-0.605130 0.828766 2.505000 86 78 92
-0.605130 0.833151 2.505000 85 80 91
-0.600782 0.831517 2.487000 85 79 91
-0.600782 0.835871 2.487000 86 80 92
-0.596434 0.834143 2.469000 85 79 93
-0.596434 0.838465 2.469000 84 79 91
-0.592086 0.836643 2.451000 86 78 90
-0.587979 0.835101 2.434000 87 78 92
-0.587979 0.839361 2.434000 87 79 94
-0.583872 0.837730 2.417000 87 79 94
-0.571794 0.824543 2.367000 86 78 94
-0.556575 0.806631 2.304000 86 79 93
-0.552951 0.805386 2.289000 86 79 92
-0.549328 0.804089 2.274000 87 81 92
-0.545704 0.802739 2.259000 87 80 92
-0.542081 0.801337 2.244000 88 81 92
-0.538699 0.800241 2.230000 87 81 93
-0.535075 0.798736 2.215000 86 81 93
-0.531693 0.797540 2.201000 87 78 93
-0.528311 0.796296 2.187000 88 78 92
-0.528311 0.800124 2.187000 89 78 92
-0.525171 0.799173 2.174000 90 78 94
-0.512126 0.783034 2.120000 88 77 97
-0.506087 0.777467 2.095000 87 79 99
-0.499806 0.771440 2.069000 88 79 101
-0.499806 0.775062 2.069000 88 79 104
-0.496907 0.774167 2.057000 89 79 108
-0.494009 0.773231 2.045000 91 79 104
-0.491110 0.772252 2.033000 90 78 101
-0.488211 0.771232 2.021000 89 79 96
-0.482655 0.765952 1.998000 87 79 91
-0.479756 0.764829 1.986000 86 79 93
-0.477099 0.764050 1.975000 88 79 95
-0.471543 0.758569 1.952000 89 79 91
-0.953279 -0.633200 3.975000 135 120 134
-0.953279 -0.626241 3.975000 135 119 132
-0.953279 -0.521868 3.975000 129 116 131
-0.953279 -0.514910 3.975000 130 118 125
-0.953279 -0.507951 3.975000 129 119 119
-0.953279 -0.500993 3.975000 128 117 123
-0.953279 -0.494035 3.975000 127 116 127
-0.953279 -0.452285 3.975000 128 111 118
-0.953279 -0.445327 3.975000 126 111 119
-0.953279 -0.438369 3.975000 125 110 121
-0.953279 -0.431411 3.975000 125 111 121
-0.953279 -0.424452 3.975000 124 113 122
-0.953279 -0.417494 3.975000 123 110 124
-0.953279 -0.410536 3.975000 125 108 126
-0.953279 -0.403578 3.975000 128 107 122
-0.953279 -0.396619 3.975000 125 106 118
-0.953279 -0.389661 3.975000 122 108 118
-0.953279 -0.382703 3.975000 120 109 118
-0.953279 -0.375745 3.975000 118 107 117
-0.953279 -0.368787 3.975000 119 106 116
-0.942487 -0.357732 3.930000 120 105 113
-0.942487 -0.350853 3.930000 119 105 110
-0.942487 -0.343973 3.930000 119 105 111
-0.953279 -0.340954 3.975000 119 105 111
-0.953279 -0.333995 3.975000 119 104 109
-0.953279 -0.327037 3.975000 120 106 107
-0.953279 -0.320079 3.975000 121 106 108
-0.953279 -0.313121 3.975000 120 105 109
-0.953279 -0.306162 3.975000 119 104 108
-0.953279 -0.299204 3.975000 117 103 108
-0.953279 -0.292246 3.975000 116 102 105
-0.953279 -0.285288 3.975000 117 102 103
-0.953279 -0.278329 3.975000 119 99 109
-0.953279 -0.271371 3.975000 119 100 115
-0.953279 -0.264413 3.975000 120 102 114
-0.942487 -0.254540 3.930000 118 103 113
-0.942487 -0.247661 3.930000 116 103 115
-0.942487 -0.240781 3.930000 118 102 118
-0.942487 -0.233902 3.930000 121 103 110
-0.942487 -0.227022 3.930000 118 105 103
-0.942487 -0.220143 3.930000 116 104 106
-0.942487 -0.213263 3.930000 115 103 109
-0.931695 -0.204021 3.885000 115 101 108
-0.931695 -0.197220 3.885000 116 99 108
-0.931695 -0.190419 3.885000 118 98 105
-0.931695 -0.183619 3.885000 116 99 102
-0.931695 -0.176818 3.885000 115 100 108
-0.931695 -0.170017 3.885000 114 102 114
-0.931695 -0.163217 3.885000 114 101 112
-0.931695 -0.156416 3.885000 113 100 110
-0.931695 -0.149615 3.885000 112 101 107
-0.931695 -0.142815 3.885000 112 101 104
-0.931695 -0.136014 3.885000 112 100 105
-0.931695 -0.129213 3.885000 112 100 107
-0.931695 -0.122412 3.885000 112 98 108
-0.931695 -0.115612 3.885000 111 97 110
-0.931695 -0.108811 3.885000 110 98 109
-0.931695 -0.102010 3.885000 110 97 108
-0.942487 -0.096312 3.930000 111 97 108
-0.942487 -0.089433 3.930000 110 99 108
-0.931695 -0.081608 3.885000 110 100 107
-0.931695 -0.074808 3.885000 110 101 106
-0.931695 -0.068007 3.885000 110 99 105
-0.931695 -0.061206 3.885000 109 98 104
-0.942487 -0.055036 3.930000 109 98 105
-0.931695 -0.047605 3.885000 109 99 107
-0.931695 -0.040804 3.885000 110 99 104
-0.931695 -0.034003 3.885000 111 100 101
-0.931695 -0.027203 3.885000 113 98 99
-0.931695 -0.020402 3.885000 111 99 97
-0.931695 -0.013601 3.885000 110 97 101
-0.931695 -0.006801 3.885000 111 95 106
-0.931695 -0.000000 3.885000 112 95 106
-0.931695 0.006801 3.885000 110 95 106
-0.931695 0.013602 3.885000 109 95 107
-0.942487 0.020638 3.930000 112 96 108
-0.931695 0.027203 3.885000 115 95 105
-0.931695 0.034004 3.885000 113 95 103
-0.931695 0.040804 3.885000 111 95 102
-0.931695 0.047605 3.885000 110 95 101
-0.931695 0.054406 3.885000 109 95 101
-0.921383 0.060529 3.842000 109 96 102
-0.921383 0.067254 3.842000 109 95 104
-0.921383 0.073980 3.842000 109 94 106
-0.921383 0.080705 3.842000 109 96 102
-0.921383 0.087430 3.842000 108 99 98
-0.921383 0.094156 3.842000 108 97 100
-0.921383 0.100881 3.842000 105 95 102
-0.921383 0.107607 3.842000 103 95 102
-0.921383 0.114332 3.842000 105 96 102
-0.921383 0.121058 3.842000 107 95 106
-0.921383 0.127783 3.842000 107 94 110
-0.921383 0.134508 3.842000 108 94 105
-0.921383 0.141234 3.842000 109 94 99
-0.921383 0.147959 3.842000 111 95 99
-0.921383 0.154685 3.842000 105 96 98
-0.931695 0.163217 3.885000 100 95 99
-0.931695 0.170017 3.885000 103 97 99
-0.931695 0.176818 3.885000 106 96 102
-0.931695 0.183619 3.885000 105 95 105
-0.931695 0.190419 3.885000 105 93 104
-0.921383 0.195037 3.842000 105 92 104
-0.921383 0.201763 3.842000 106 93 101
-0.921383 0.208488 3.842000 106 93 99
-0.921383 0.215214 3.842000 106 92 99
-0.921383 0.221939 3.842000 106 92 100
-0.921383 0.228665 3.842000 106 92 101
-0.921383 0.235390 3.842000 106 93 103
-0.921383 0.242115 3.842000 107 92 103
-0.921383 0.248841 3.842000 105 92 104
-0.921383 0.255566 3.842000 104 92 99
-0.921383 0.262291 3.842000 104 94 94
-0.921383 0.269017 3.842000 105 94 99
-0.921383 0.275742 3.842000 107 94 104
-0.921383 0.282468 3.842000 110 93 100
-0.921383 0.289193 3.842000 107 92 96
-0.921383 0.295919 3.842000 105 92 93
-0.921383 0.302644 3.842000 104 93 90
-0.911310 0.305988 3.800000 104 93 94
-0.921383 0.316095 3.842000 104 92 97
-0.921383 0.322820 3.842000 105 91 97
-0.921383 0.329546 3.842000 105 92 98
-0.921383 0.336271 3.842000 106 92 97
-0.921383 0.342997 3.842000 104 92 96
-0.921383 0.349722 3.842000 103 92 100
-0.911310 0.352551 3.800000 100 92 105
-0.921383 0.363173 3.842000 97 92 102
-0.921383 0.369898 3.842000 100 91 99
-0.911310 0.372506 3.800000 104 90 97
-0.921383 0.383349 3.842000 103 88 95
-0.921383 0.390074 3.842000 102 91 94
-0.921383 0.396800 3.842000 102 93 92
-0.921383 0.403526 3.842000 102 92 94
-0.921383 0.410251 3.842000 101 91 95
-0.911310 0.412418 3.800000 101 90 94
-0.911310 0.419070 3.800000 101 89 94
-0.921383 0.430427 3.842000 101 91 92
-0.921383 0.437152 3.842000 99 92 90
-0.921383 0.443878 3.842000 98 91 94
-0.921383 0.450603 3.842000 99 90 99
-0.921383 0.457329 3.842000 101 88 94
-0.921383 0.464054 3.842000 101 87 88
-0.921383 0.470780 3.842000 101 88 90
-0.921383 0.477505 3.842000 99 90 91
-0.921383 0.484230 3.842000 98 89 92
-0.911310 0.485589 3.800000 100 88 93
-0.921383 0.497681 3.842000 102 88 97
-0.921383 0.504407 3.842000 102 90 102
-0.911310 0.505545 3.800000 103 89 97
-0.911310 0.512197 3.800000 102 88 92
-0.911310 0.518848 3.800000 102 88 97
-0.911310 0.525500 3.800000 99 89 102
-0.911310 0.532152 3.800000 96 87 99
-0.911310 0.538804 3.800000 98 86 96
-0.911310 0.545456 3.800000 101 86 98
-0.911310 0.552108 3.800000 101 87 99
-0.911310 0.558760 3.800000 101 87 94
-0.911310 0.565412 3.800000 102 87 90
-0.911310 0.572064 3.800000 103 87 91
-0.911310 0.578716 3.800000 101 86 93
-0.911310 0.585368 3.800000 100 86 97
-0.911310 0.592019 3.800000 99 86 100
-0.911310 0.598671 3.800000 98 86 96
-0.911310 0.605323 3.800000 95 86 91
-0.911310 0.611975 3.800000 93 87 93
-0.911310 0.618627 3.800000 98 87 94
-0.911310 0.625279 3.800000 104 85 95
-0.911310 0.631931 3.800000 100 86 97
-0.911310 0.638583 3.800000 96 85 94
-0.911310 0.645234 3.800000 96 84 92
-0.911310 0.651886 3.800000 96 85 88
-0.911310 0.658538 3.800000 95 87 84
-0.911310 0.665190 3.800000 94 86 90
-0.911310 0.671842 3.800000 95 86 95
-0.911310 0.678494 3.800000 96 85 93
-0.911310 0.685146 3.800000 96 87 92
-0.911310 0.691798 3.800000 97 86 91
-0.911310 0.698450 3.800000 96 87 90
-0.911310 0.705102 3.800000 96 85 89
-0.911310 0.711754 3.800000 93 83 87
-0.911310 0.718405 3.800000 90 83 86
-0.911310 0.725057 3.800000 92 84 86
-0.911310 0.731709 3.800000 95 85 86
-0.911310 0.738361 3.800000 96 86 87
-0.911310 0.745013 3.800000 97 85 85
-0.911310 0.751665 3.800000 96 85 84
-0.911310 0.758317 3.800000 96 85 84
-0.911310 0.764969 3.800000 96 85 85
-0.911310 0.771621 3.800000 97 83 87
-0.911310 0.778273 3.800000 96 81 89
-0.911310 0.784925 3.800000 95 81 88
-0.911310 0.791576 3.800000 95 82 87
-0.911310 0.798228 3.800000 95 82 87
-0.911310 0.804880 3.800000 95 81 88
-0.911310 0.811532 3.800000 95 81 86
-0.911310 0.818184 3.800000 93 81 85
-0.911310 0.824836 3.800000 92 81 84
-0.911310 0.831488 3.800000 91 82 83
-0.911310 0.838140 3.800000 90 81 85
-0.911310 0.844791 3.800000 91 81 87
-0.911310 0.851443 3.800000 92 80 89
-0.911310 0.858095 3.800000 91 79 91
-0.911310 0.864747 3.800000 90 78 89
-0.911310 0.871399 3.800000 89 80 87
-0.911310 0.878051 3.800000 88 79 85
-0.911310 0.884703 3.800000 89 79 84
-0.911310 0.891355 3.800000 90 79 86
-0.911310 0.898007 3.800000 89 76 89
-0.911310 0.904659 3.800000 88 77 85
-0.911310 0.911311 3.800000 87 78 81
-0.911310 0.917962 3.800000 87 68 60
-0.911310 0.924614 3.800000 47 54 38
-0.911310 0.931266 3.800000 7 17 34
-0.901478 0.927798 3.759000 9 4 30
-0.901478 0.934378 3.759000 12 7 21
-0.901478 0.940959 3.759000 12 7 13
-0.891645 0.937204 3.718000 12 6 10
-0.891645 0.943712 3.718000 10 7 8
-0.891645 0.950221 3.718000 8 7 6
-0.891645 0.956729 3.718000 7 7 4
-0.891645 0.963237 3.718000 6 6 8
-0.901478 0.980439 3.759000 6 6 12
-0.901478 0.987020 3.759000 6 5 9
-0.911310 1.004437 3.800000 5 5 6
-0.911310 1.011089 3.800000 5 5 6
-0.901478 1.006760 3.759000 8 8 6
-0.901478 1.013340 3.759000 12 7 7
-0.901478 1.019920 3.759000 10 8 8
-0.891645 1.015304 3.718000 9 7 7
-0.911310 1.044348 3.800000 11 9 6
-0.882292 1.017534 3.679000 14 10 18
-0.812985 0.973208 3.390000 65 54 63
-0.805071 0.969611 3.357000 68 60 66
-0.789722 0.956890 3.293000 71 63 71
-0.782288 0.953592 3.262000 75 66 76
-0.774854 0.950186 3.231000 79 66 80
-0.774854 0.955841 3.231000 80 71 85
-0.760704 0.943940 3.172000 82 73 88
-0.753750 0.940812 3.143000 82 75 91
-0.733605 0.921022 3.059000 83 74 89
-0.720894 0.910327 3.006000 85 74 86
-0.720894 0.915589 3.006000 87 73 89
-0.714659 0.912886 2.980000 85 73 93
-0.702668 0.902698 2.930000 83 76 90
-0.696673 0.900081 2.905000 84 79 88
-0.696673 0.905166 2.905000 85 79 89
-0.690917 0.902731 2.881000 85 81 90
-0.679646 0.892965 2.834000 86 79 89
-0.673890 0.890322 2.810000 87 80 87
-0.663098 0.880904 2.765000 88 79 88
-0.657822 0.878697 2.743000 88 78 90
-0.652786 0.876735 2.722000 88 77 91
-0.652786 0.881499 2.722000 87 78 93
-0.647750 0.879427 2.701000 87 78 90
-0.642714 0.877281 2.680000 86 77 88
-0.600745 0.824381 2.505000 85 77 89
-0.600745 0.828766 2.505000 84 75 90
-0.600745 0.833151 2.505000 83 78 92
-0.600745 0.837536 2.505000 84 79 95
-0.600745 0.841921 2.505000 85 79 93
-0.596429 0.840224 2.487000 85 80 91
-0.596429 0.844578 2.487000 86 80 88
-0.587795 0.836643 2.451000 87 80 86
-0.583718 0.835101 2.434000 88 79 90
-0.583718 0.839361 2.434000 87 81 94
-0.575564 0.831838 2.400000 86 79 96
-0.556379 0.808171 2.320000 83 79 98
-0.552542 0.806631 2.304000 80 78 92
-0.548945 0.805386 2.289000 83 78 86
-0.545347 0.804089 2.274000 86 80 89
-0.541750 0.802739 2.259000 86 80 93
-0.538153 0.801337 2.244000 86 80 93
-0.534795 0.800241 2.230000 86 82 93
-0.527841 0.793687 2.201000 86 79 92
-0.527841 0.797540 2.201000 86 77 91
-0.524483 0.796296 2.187000 87 77 89
-0.524483 0.800124 2.187000 89 79 87
-0.521365 0.799173 2.174000 92 78 90
-0.511533 0.787835 2.133000 89 78 94
-0.505298 0.781920 2.107000 86 79 97
-0.499302 0.776287 2.082000 87 79 100
-0.496185 0.775062 2.069000 89 78 102
-0.493307 0.774167 2.057000 89 79 104
-0.490429 0.773231 2.045000 89 79 102
-0.487551 0.772252 2.033000 89 79 99
-0.481795 0.766653 2.009000 89 78 96
-0.479157 0.765952 1.998000 87 79 93
-0.476280 0.764829 1.986000 86 78 96
-0.471004 0.759794 1.964000 87 79 99
-0.468126 0.758569 1.952000 89 78 94
-0.946321 -0.633200 3.975000 134 120 134
-0.946321 -0.514910 3.975000 130 117 125
-0.946321 -0.507951 3.975000 129 117 115
-0.946321 -0.500993 3.975000 128 117 121
-0.946321 -0.494035 3.975000 127 115 127
-0.946321 -0.452285 3.975000 127 111 115
-0.946321 -0.445327 3.975000 126 111 118
-0.946321 -0.438369 3.975000 125 111 122
-0.946321 -0.431411 3.975000 124 112 123
-0.946321 -0.424452 3.975000 123 111 125
-0.946321 -0.417494 3.975000 123 110 129
-0.946321 -0.410536 3.975000 123 108 133
-0.946321 -0.403578 3.975000 124 108 128
-0.946321 -0.396619 3.975000 122 108 123
-0.946321 -0.389661 3.975000 119 109 120
-0.946321 -0.382703 3.975000 119 108 118
-0.946321 -0.375745 3.975000 119 108 118
-0.946321 -0.368787 3.975000 119 107 119
-0.935607 -0.357732 3.930000 120 106 115
-0.935607 -0.350853 3.930000 121 105 111
-0.935607 -0.343973 3.930000 121 106 110
-0.935607 -0.337094 3.930000 120 105 110
-0.935607 -0.330214 3.930000 120 104 108
-0.946321 -0.327037 3.975000 121 105 107
-0.935607 -0.316455 3.930000 122 106 108
-0.946321 -0.313121 3.975000 120 103 110
-0.946321 -0.306162 3.975000 118 102 108
-0.946321 -0.299204 3.975000 114 102 107
-0.946321 -0.292246 3.975000 111 101 101
-0.946321 -0.285288 3.975000 114 100 96
-0.946321 -0.278329 3.975000 118 99 103
-0.946321 -0.271371 3.975000 118 101 111
-0.946321 -0.264413 3.975000 118 103 111
-0.946321 -0.257455 3.975000 116 104 111
-0.935607 -0.247661 3.930000 115 106 112
-0.935607 -0.240781 3.930000 117 103 113
-0.935607 -0.233902 3.930000 119 102 110
-0.935607 -0.227022 3.930000 118 103 107
-0.935607 -0.220143 3.930000 116 104 108
-0.935607 -0.213263 3.930000 116 102 110
-0.924894 -0.204021 3.885000 115 102 108
-0.924894 -0.197220 3.885000 116 100 106
-0.924894 -0.190419 3.885000 117 98 101
-0.924894 -0.183619 3.885000 115 99 97
-0.924894 -0.176818 3.885000 114 99 108
-0.924894 -0.170017 3.885000 115 101 120
-0.924894 -0.163217 3.885000 116 102 115
-0.924894 -0.156416 3.885000 114 101 111
-0.924894 -0.149615 3.885000 112 102 108
-0.924894 -0.142815 3.885000 111 101 106
-0.924894 -0.136014 3.885000 111 99 108
-0.924894 -0.129213 3.885000 111 99 110
-0.924894 -0.122412 3.885000 112 99 111
-0.924894 -0.115612 3.885000 112 98 113
-0.924894 -0.108811 3.885000 111 98 112
-0.924894 -0.102010 3.885000 112 97 111
-0.935607 -0.096312 3.930000 113 98 109
-0.935607 -0.089433 3.930000 112 99 107
-0.924894 -0.081608 3.885000 111 101 100
-0.924894 -0.074808 3.885000 110 100 93
-0.924894 -0.068007 3.885000 109 100 97
-0.924894 -0.061206 3.885000 110 99 102
-0.935607 -0.055036 3.930000 110 99 102
-0.924894 -0.047605 3.885000 110 99 103
-0.924894 -0.040804 3.885000 111 100 101
-0.924894 -0.034003 3.885000 111 99 100
-0.924894 -0.027203 3.885000 112 97 97
-0.924894 -0.020402 3.885000 110 98 95
-0.924894 -0.013601 3.885000 109 98 101
-0.924894 -0.006801 3.885000 110 96 107
-0.924894 -0.000000 3.885000 111 96 108
-0.924894 0.006801 3.885000 110 95 109
-0.924894 0.013602 3.885000 108 94 110
-0.924894 0.020402 3.885000 110 95 111
-0.924894 0.027203 3.885000 112 95 108
-0.924894 0.034004 3.885000 111 95 105
-0.924894 0.040804 3.885000 110 96 102
-0.924894 0.047605 3.885000 108 96 100
-0.924894 0.054406 3.885000 107 97 101
-0.924894 0.061206 3.885000 110 96 103
-0.914657 0.067254 3.842000 113 96 107
-0.914657 0.073980 3.842000 111 95 111
-0.914657 0.080705 3.842000 109 96 105
-0.914657 0.087430 3.842000 108 98 99
-0.914657 0.094156 3.842000 108 99 100
-0.914657 0.100881 3.842000 107 97 102
-0.914657 0.107607 3.842000 106 97 103
-0.914657 0.114332 3.842000 106 96 104
-0.914657 0.121058 3.842000 107 96 111
-0.914657 0.127783 3.842000 107 94 118
-0.914657 0.134508 3.842000 108 94 110
-0.914657 0.141234 3.842000 108 94 102
-0.914657 0.147959 3.842000 109 95 101
-0.924894 0.156416 3.885000 106 95 100
-0.924894 0.163217 3.885000 104 95 101
-0.924894 0.170017 3.885000 105 96 102
-0.924894 0.176818 3.885000 107 97 101
-0.924894 0.183619 3.885000 106 95 100
-0.924894 0.190419 3.885000 106 94 101
-0.914657 0.195037 3.842000 106 93 103
-0.914657 0.201763 3.842000 106 93 100
-0.914657 0.208488 3.842000 106 92 97
-0.914657 0.215214 3.842000 106 92 98
-0.914657 0.221939 3.842000 106 92 100
-0.914657 0.228665 3.842000 106 93 101
-0.914657 0.235390 3.842000 107 92 103
-0.914657 0.242115 3.842000 107 92 102
-0.914657 0.248841 3.842000 106 92 102
-0.914657 0.255566 3.842000 105 93 99
-0.914657 0.262291 3.842000 104 93 97
-0.914657 0.269017 3.842000 104 94 98
-0.914657 0.275742 3.842000 106 94 100
-0.914657 0.282468 3.842000 107 93 98
-0.914657 0.289193 3.842000 105 92 96
-0.914657 0.295919 3.842000 103 92 91
-0.914657 0.302644 3.842000 103 92 87
-0.904659 0.305988 3.800000 104 95 92
-0.914657 0.316095 3.842000 104 93 97
-0.914657 0.322820 3.842000 104 93 98
-0.914657 0.329546 3.842000 104 92 100
-0.904659 0.332595 3.800000 104 93 100
-0.904659 0.339247 3.800000 105 92 100
-0.914657 0.349722 3.842000 106 91 104
-0.914657 0.356447 3.842000 103 92 108
-0.914657 0.363173 3.842000 100 93 103
-0.914657 0.369898 3.842000 104 91 99
-0.914657 0.376624 3.842000 109 91 98
-0.914657 0.383349 3.842000 106 91 97
-0.914657 0.390074 3.842000 103 93 96
-0.914657 0.396800 3.842000 102 93 95
-0.914657 0.403526 3.842000 102 93 96
-0.914657 0.410251 3.842000 101 92 98
-0.904659 0.412418 3.800000 101 92 96
-0.914657 0.423702 3.842000 101 91 94
-0.914657 0.430427 3.842000 101 92 93
-0.914657 0.437152 3.842000 100 92 92
-0.914657 0.443878 3.842000 100 92 92
-0.914657 0.450603 3.842000 101 91 92
-0.914657 0.457329 3.842000 102 90 91
-0.914657 0.464054 3.842000 102 89 91
-0.914657 0.470780 3.842000 102 90 91
-0.914657 0.477505 3.842000 102 89 91
-0.914657 0.484230 3.842000 102 90 91
-0.914657 0.490956 3.842000 102 88 91
-0.904659 0.492241 3.800000 103 88 94
-0.914657 0.504407 3.842000 103 89 97
-0.914657 0.511132 3.842000 104 90 95
-0.904659 0.512197 3.800000 104 89 94
-0.914657 0.524583 3.842000 105 89 101
-0.914657 0.531309 3.842000 101 88 108
-0.914657 0.538034 3.842000 98 88 104
-0.904659 0.538804 3.800000 100 87 100
-0.904659 0.545456 3.800000 102 87 103
-0.904659 0.552108 3.800000 101 86 107
-0.904659 0.558760 3.800000 101 87 101
-0.904659 0.565412 3.800000 101 87 95
-0.904659 0.572064 3.800000 102 87 95
-0.904659 0.578716 3.800000 100 86 95
-0.904659 0.585368 3.800000 98 86 101
-0.904659 0.592019 3.800000 99 86 107
-0.904659 0.598671 3.800000 99 87 99
-0.904659 0.605323 3.800000 97 87 91
-0.904659 0.611975 3.800000 95 89 92
-0.904659 0.618627 3.800000 98 87 94
-0.904659 0.625279 3.800000 101 85 93
-0.904659 0.631931 3.800000 98 84 92
-0.904659 0.638583 3.800000 95 85 91
-0.904659 0.645234 3.800000 96 84 90
-0.904659 0.651886 3.800000 97 85 85
-0.904659 0.658538 3.800000 96 85 81
-0.904659 0.665190 3.800000 96 86 90
-0.914657 0.679268 3.842000 97 85 99
-0.904659 0.678494 3.800000 98 85 95
-0.904659 0.685146 3.800000 97 86 92
-0.904659 0.691798 3.800000 95 87 90
-0.904659 0.698450 3.800000 95 87 88
-0.904659 0.705102 3.800000 96 85 88
-0.904659 0.711754 3.800000 94 84 88
-0.904659 0.718405 3.800000 92 85 88
-0.904659 0.725057 3.800000 93 84 88
-0.904659 0.731709 3.800000 95 86 88
-0.904659 0.738361 3.800000 95 86 89
-0.904659 0.745013 3.800000 96 86 90
-0.904659 0.751665 3.800000 96 86 92
-0.914657 0.766698 3.842000 96 87 89
-0.914657 0.773424 3.842000 95 85 86
-0.904659 0.771621 3.800000 95 84 87
-0.904659 0.778273 3.800000 95 83 89
-0.904659 0.784925 3.800000 95 83 89
-0.904659 0.791576 3.800000 94 82 89
-0.904659 0.798228 3.800000 94 83 87
-0.904659 0.804880 3.800000 94 82 86
-0.904659 0.811532 3.800000 94 82 87
-0.904659 0.818184 3.800000 92 81 88
-0.904659 0.824836 3.800000 91 81 87
-0.904659 0.831488 3.800000 91 82 86
-0.904659 0.838140 3.800000 91 83 86
-0.904659 0.844791 3.800000 91 82 86
-0.904659 0.851443 3.800000 92 82 86
-0.904659 0.858095 3.800000 92 79 87
-0.904659 0.864747 3.800000 91 78 87
-0.904659 0.871399 3.800000 91 80 87
-0.904659 0.878051 3.800000 92 80 85
-0.904659 0.884703 3.800000 91 79 84
-0.904659 0.891355 3.800000 90 80 84
-0.904659 0.898007 3.800000 89 78 85
-0.904659 0.904659 3.800000 89 79 84
-0.904659 0.911311 3.800000 87 77 83
-0.904659 0.917962 3.800000 86 73 61
-0.904659 0.924614 3.800000 46 47 39
-0.904659 0.931266 3.800000 7 7 32
-0.904659 0.937918 3.800000 9 6 26
-0.894898 0.934378 3.759000 12 10 18
-0.894898 0.940959 3.759000 12 7 10
-0.894898 0.947539 3.759000 12 6 9
-0.894898 0.954119 3.759000 9 7 8
-0.894898 0.960699 3.759000 7 7 7
-0.885137 0.956729 3.718000 7 6 6
-0.894898 0.973859 3.759000 8 7 12
-0.885137 0.969746 3.718000 7 5 19
-0.894898 0.987020 3.759000 6 5 10
-0.904659 1.004437 3.800000 5 5 2
-0.904659 1.011089 3.800000 5 5 3
-0.894898 1.006760 3.759000 8 5 4
-0.904659 1.024393 3.800000 12 6 6
-0.904659 1.031045 3.800000 9 6 8
-0.904659 1.037697 3.800000 6 7 8
-0.904659 1.044348 3.800000 10 8 9
-0.894898 1.039661 3.759000 14 7 21
-0.807051 0.967274 3.390000 59 51 64
-0.799195 0.963734 3.357000 63 55 65
-0.791338 0.960079 3.324000 67 59 67
-0.783958 0.956890 3.293000 72 63 72
-0.783958 0.962654 3.293000 75 63 77
-0.776578 0.959302 3.262000 79 63 81
-0.769198 0.955841 3.231000 80 69 86
-0.769198 0.961497 3.231000 81 75 90
-0.748248 0.940812 3.143000 82 76 94
-0.728250 0.921022 3.059000 83 78 91
-0.715633 0.910327 3.006000 84 75 88
-0.715633 0.915589 3.006000 86 72 88
-0.709443 0.912886 2.980000 85 73 89
-0.697539 0.902698 2.930000 84 76 89
-0.697539 0.907827 2.930000 83 77 89
-0.691588 0.905166 2.905000 82 79 89
-0.685874 0.902731 2.881000 83 79 90
-0.674685 0.892965 2.834000 84 78 88
-0.668971 0.890322 2.810000 86 80 86
-0.658258 0.880904 2.765000 88 81 89
-0.653021 0.878697 2.743000 88 78 92
-0.648021 0.876735 2.722000 88 77 94
-0.648021 0.881499 2.722000 89 78 97
-0.643022 0.879427 2.701000 90 79 93
-0.638022 0.877281 2.680000 88 77 90
-0.628262 0.868479 2.639000 86 77 89
-0.596361 0.828766 2.505000 85 77 88
-0.596361 0.833151 2.505000 84 78 93
-0.596361 0.837536 2.505000 84 79 99
-0.592075 0.835871 2.487000 85 79 94
-0.592075 0.840224 2.487000 86 80 89
-0.587790 0.838465 2.469000 87 82 85
-0.583505 0.836643 2.451000 88 80 82
-0.579458 0.835101 2.434000 88 80 88
-0.575410 0.833499 2.417000 89 80 95
-0.571363 0.831838 2.400000 90 79 99
-0.555889 0.813396 2.335000 87 78 103
-0.548509 0.806631 2.304000 84 78 92
-0.544938 0.805386 2.289000 85 79 81
-0.541367 0.804089 2.274000 86 81 87
-0.534225 0.797409 2.244000 86 79 94
-0.530892 0.796338 2.230000 87 79 94
-0.527321 0.794858 2.215000 88 79 94
-0.523988 0.793687 2.201000 89 79 92
-0.520655 0.792467 2.187000 87 78 90
-0.520655 0.796296 2.187000 85 77 86
-0.517560 0.795368 2.174000 87 78 83
-0.514227 0.794027 2.160000 89 79 87
-0.507799 0.787835 2.133000 88 78 91
-0.501609 0.781920 2.107000 87 80 95
-0.495658 0.776287 2.082000 88 78 100
-0.492563 0.775062 2.069000 90 77 100
-0.489706 0.774167 2.057000 89 78 101
-0.486849 0.773231 2.045000 89 80 99
-0.483992 0.772252 2.033000 89 79 98
-0.481136 0.771232 2.021000 90 78 97
-0.475660 0.765952 1.998000 88 78 96
-0.472803 0.764829 1.986000 86 78 99
-0.470184 0.764050 1.975000 86 78 103
-0.464709 0.758569 1.952000 87 78 98
-0.939362 -0.633200 3.975000 134 120 138
-0.939362 -0.507951 3.975000 129 116 122
-0.939362 -0.452285 3.975000 127 111 119
-0.939362 -0.445327 3.975000 126 111 122
-0.939362 -0.438369 3.975000 125 111 125
-0.939362 -0.431411 3.975000 124 110 124
-0.939362 -0.424452 3.975000 123 110 124
-0.939362 -0.417494 3.975000 123 109 126
-0.939362 -0.410536 3.975000 122 108 129
-0.939362 -0.403578 3.975000 121 108 125
-0.939362 -0.396619 3.975000 119 109 122
-0.939362 -0.389661 3.975000 117 109 120
-0.939362 -0.382703 3.975000 118 109 118
-0.939362 -0.375745 3.975000 120 108 119
-0.939362 -0.368787 3.975000 120 108 120
-0.939362 -0.361828 3.975000 121 106 116
-0.939362 -0.354870 3.975000 122 105 112
-0.939362 -0.347912 3.975000 124 104 112
-0.939362 -0.340954 3.975000 122 105 111
-0.939362 -0.333995 3.975000 121 105 109
-0.939362 -0.327037 3.975000 122 107 108
-0.939362 -0.320079 3.975000 124 105 111
-0.939362 -0.313121 3.975000 121 102 115
-0.939362 -0.306162 3.975000 118 103 112
-0.939362 -0.299204 3.975000 112 104 109
-0.939362 -0.292246 3.975000 106 102 106
-0.939362 -0.285288 3.975000 111 99 103
-0.939362 -0.278329 3.975000 117 101 107
-0.939362 -0.271371 3.975000 117 103 111
-0.939362 -0.264413 3.975000 117 103 111
-0.939362 -0.257455 3.975000 115 106 111
-0.939362 -0.250497 3.975000 114 105 111
-0.939362 -0.243538 3.975000 116 104 112
-0.939362 -0.236580 3.975000 118 102 110
-0.928728 -0.227022 3.930000 117 104 109
-0.928728 -0.220143 3.930000 117 103 109
-0.928728 -0.213263 3.930000 116 102 110
-0.918094 -0.204021 3.885000 116 101 109
-0.918094 -0.197220 3.885000 116 101 109
-0.918094 -0.190419 3.885000 116 99 105
-0.918094 -0.183619 3.885000 115 100 101
-0.918094 -0.176818 3.885000 114 100 107
-0.918094 -0.170017 3.885000 116 102 114
-0.918094 -0.163217 3.885000 118 101 111
-0.918094 -0.156416 3.885000 115 102 108
-0.918094 -0.149615 3.885000 112 101 107
-0.918094 -0.142815 3.885000 111 102 106
-0.918094 -0.136014 3.885000 110 100 107
-0.918094 -0.129213 3.885000 111 99 109
-0.918094 -0.122412 3.885000 113 98 109
-0.918094 -0.115612 3.885000 113 98 110
-0.918094 -0.108811 3.885000 113 98 110
-0.918094 -0.102010 3.885000 114 98 110
-0.928728 -0.096312 3.930000 115 98 110
-0.928728 -0.089433 3.930000 113 99 110
-0.918094 -0.081608 3.885000 112 99 105
-0.918094 -0.074808 3.885000 110 99 101
-0.918094 -0.068007 3.885000 109 99 103
-0.928728 -0.061915 3.930000 110 99 105
-0.928728 -0.055036 3.930000 112 98 105
-0.928728 -0.048156 3.930000 112 98 104
-0.918094 -0.040804 3.885000 112 98 105
-0.928728 -0.034397 3.930000 111 99 106
-0.928728 -0.027518 3.930000 111 98 102
-0.918094 -0.020402 3.885000 109 99 99
-0.918094 -0.013601 3.885000 108 98 102
-0.918094 -0.006801 3.885000 109 97 106
-0.918094 -0.000000 3.885000 111 96 107
-0.918094 0.006801 3.885000 109 97 108
-0.918094 0.013602 3.885000 108 96 110
-0.918094 0.020402 3.885000 109 97 111
