ply
format ascii 1.0
element vertex 1327
property float x
property float y
property float z
property uchar red
property uchar green
property uchar blue
end_header
0.462776 0.836557 2.542000 86 56 70
0.456040 0.828766 2.505000 84 57 73
0.452763 0.827164 2.487000 81 57 67
0.440020 0.808113 2.417000 80 57 61
0.440020 0.812344 2.417000 80 59 58
0.436925 0.810832 2.400000 81 60 55
0.434012 0.809599 2.384000 82 61 59
0.430917 0.807970 2.367000 81 60 63
0.428004 0.806624 2.351000 80 59 71
0.425091 0.805221 2.335000 81 60 80
0.422361 0.804110 2.320000 83 60 66
0.416717 0.797372 2.289000 79 60 52
0.411255 0.790876 2.259000 76 63 55
0.408525 0.789553 2.244000 77 60 58
0.405976 0.788530 2.230000 77 57 51
0.403245 0.787104 2.215000 79 58 44
0.400696 0.785982 2.201000 80 62 51
0.395781 0.780145 2.174000 79 59 58
0.390866 0.774215 2.147000 78 56 58
0.388317 0.772900 2.133000 78 54 58
0.385950 0.771901 2.120000 77 56 57
0.381399 0.766465 2.095000 78 58 57
0.381399 0.770133 2.095000 80 59 60
0.379032 0.768998 2.082000 79 58 63
0.374481 0.763365 2.057000 78 58 59
0.372296 0.762492 2.045000 78 57 55
0.367927 0.757081 2.021000 79 57 57
0.363740 0.751962 1.998000 78 55 59
0.361555 0.750923 1.986000 76 56 68
0.359553 0.750221 1.975000 76 56 78
0.357550 0.749480 1.964000 76 59 69
0.357550 0.752918 1.964000 79 57 60
0.355366 0.751735 1.952000 82 60 58
0.349540 0.742772 1.920000 80 57 56
0.552510 0.889279 3.006000 85 66 73
0.547732 0.886803 2.980000 86 65 75
0.543136 0.884537 2.955000 85 64 77
0.533946 0.874655 2.905000 85 64 75
0.529535 0.872472 2.881000 83 65 72
0.525124 0.870205 2.857000 82 65 67
0.525124 0.875206 2.857000 83 65 61
0.520896 0.873122 2.834000 85 63 61
0.516485 0.870646 2.810000 83 63 62
0.504170 0.854689 2.743000 82 62 63
0.500310 0.852910 2.722000 80 63 65
0.496451 0.851058 2.701000 79 64 68
0.492591 0.849133 2.680000 79 67 71
0.488731 0.847134 2.659000 79 64 71
0.485055 0.845381 2.639000 79 63 71
0.481379 0.843559 2.619000 79 62 68
0.477703 0.841667 2.599000 81 63 65
0.474211 0.840030 2.580000 83 59 66
0.470535 0.838000 2.560000 86 55 67
0.467226 0.836557 2.542000 90 56 66
0.460425 0.828766 2.505000 86 56 65
0.453808 0.821177 2.469000 82 57 58
0.444251 0.808113 2.417000 80 56 51
0.441126 0.806631 2.400000 78 57 53
0.438185 0.805426 2.384000 78 56 56
0.438185 0.809599 2.384000 78 59 56
0.435061 0.807970 2.367000 78 62 55
0.432120 0.806624 2.351000 79 59 63
0.429179 0.805221 2.335000 82 59 71
0.429179 0.809309 2.335000 85 58 63
0.426422 0.808171 2.320000 81 56 56
0.415210 0.790876 2.259000 78 59 60
0.409880 0.784627 2.230000 77 59 64
0.409880 0.788530 2.230000 76 57 61
0.407123 0.787104 2.215000 77 58 58
0.404549 0.785982 2.201000 79 58 60
0.401976 0.784811 2.187000 78 59 61
0.394624 0.774215 2.147000 77 56 56
0.392051 0.772900 2.133000 76 53 51
0.389661 0.771901 2.120000 76 55 54
0.385066 0.766465 2.095000 76 58 57
0.385066 0.770133 2.095000 77 57 60
0.382677 0.768998 2.082000 77 56 63
0.378082 0.763365 2.057000 77 56 59
0.375876 0.762492 2.045000 77 54 55
0.373670 0.761576 2.033000 78 55 57
0.367237 0.751962 1.998000 77 57 58
0.365032 0.750923 1.986000 77 55 65
0.363010 0.750221 1.975000 76 54 71
0.360988 0.749480 1.964000 76 55 64
0.360988 0.752918 1.964000 80 55 56
0.356761 0.747499 1.941000 84 57 58
0.352901 0.742772 1.920000 80 58 59
0.559442 0.891941 3.015000 84 63 75
0.552948 0.886803 2.980000 84 64 77
0.548309 0.884537 2.955000 84 64 79
0.539032 0.874655 2.905000 83 64 74
0.534578 0.872472 2.881000 81 63 69
0.530125 0.870205 2.857000 80 64 63
0.530125 0.875206 2.857000 81 63 58
0.525857 0.873122 2.834000 83 60 60
0.517322 0.863830 2.788000 82 59 62
0.508972 0.854689 2.743000 81 59 63
0.505075 0.852910 2.722000 79 61 65
0.501179 0.851058 2.701000 78 63 68
0.501179 0.855786 2.701000 76 64 71
0.497282 0.853824 2.680000 75 65 74
0.493385 0.851788 2.659000 77 61 78
0.485963 0.843559 2.619000 79 59 71
0.478727 0.835514 2.580000 80 61 65
0.478727 0.840030 2.580000 82 61 66
0.475016 0.838000 2.560000 83 57 67
0.471676 0.836557 2.542000 85 58 62
0.468150 0.834721 2.523000 82 57 58
0.461470 0.827164 2.487000 80 59 49
0.451636 0.813797 2.434000 79 57 41
0.445327 0.806631 2.400000 78 58 49
0.442358 0.805426 2.384000 78 57 58
0.439204 0.803826 2.367000 78 58 53
0.436235 0.802508 2.351000 78 59 48
0.436235 0.806624 2.351000 77 58 55
0.433266 0.805221 2.335000 79 58 62
0.430483 0.804110 2.320000 82 59 61
0.424731 0.797372 2.289000 79 57 60
0.416381 0.785625 2.244000 77 58 65
0.413783 0.784627 2.230000 76 55 71
0.413783 0.788530 2.230000 75 54 72
0.411000 0.787104 2.215000 76 55 73
0.408402 0.785982 2.201000 78 55 69
0.405804 0.784811 2.187000 77 58 65
0.400795 0.778903 2.160000 75 59 55
0.393372 0.768190 2.120000 75 57 45
0.393372 0.771901 2.120000 75 56 51
0.390960 0.770856 2.107000 75 55 58
0.388734 0.770133 2.095000 76 56 60
0.386321 0.768998 2.082000 77 55 63
0.383909 0.767819 2.069000 77 56 59
0.379456 0.762492 2.045000 77 54 56
0.377229 0.761576 2.033000 77 55 57
0.370735 0.751962 1.998000 78 55 58
0.368508 0.750923 1.986000 79 55 61
0.366467 0.750221 1.975000 74 53 65
0.364426 0.749480 1.964000 70 53 59
0.362200 0.748318 1.952000 75 54 53
0.360158 0.747499 1.941000 80 56 58
0.354221 0.738517 1.909000 77 55 63
0.566406 0.894604 3.024000 83 60 74
0.560599 0.890672 2.993000 83 63 80
0.544117 0.869570 2.905000 82 65 85
0.544117 0.874655 2.905000 82 63 79
0.539621 0.872472 2.881000 80 61 73
0.530818 0.863200 2.834000 78 63 68
0.535126 0.875206 2.857000 80 64 64
0.526323 0.865727 2.810000 82 59 65
0.522202 0.863830 2.788000 81 57 67
0.513773 0.854689 2.743000 80 59 64
0.509840 0.852910 2.722000 78 60 61
0.505907 0.851058 2.701000 77 62 65
0.501973 0.849133 2.680000 74 64 70
0.498040 0.847134 2.659000 71 62 73
0.494294 0.845381 2.639000 75 59 76
0.486802 0.837117 2.599000 79 60 72
0.483243 0.835514 2.580000 80 63 68
0.483243 0.840030 2.580000 82 59 69
0.479497 0.838000 2.560000 81 55 70
0.476125 0.836557 2.542000 80 57 64
0.476125 0.841007 2.542000 79 58 58
0.469195 0.833151 2.505000 78 57 53
0.455897 0.813797 2.434000 78 55 48
0.449528 0.806631 2.400000 79 57 54
0.446532 0.805426 2.384000 79 58 60
0.443347 0.803826 2.367000 79 58 56
0.440351 0.802508 2.351000 77 58 52
0.437354 0.801134 2.335000 76 57 57
0.437354 0.805221 2.335000 77 58 63
0.434544 0.804110 2.320000 79 58 64
0.428738 0.797372 2.289000 78 58 65
0.423119 0.790876 2.259000 77 55 67
0.420309 0.789553 2.244000 75 52 69
0.417687 0.788530 2.230000 74 53 69
0.417687 0.792434 2.230000 76 55 68
0.412255 0.785982 2.201000 78 57 65
0.412255 0.789834 2.201000 76 60 62
0.404576 0.778903 2.160000 74 59 57
0.397083 0.768190 2.120000 74 62 52
0.397083 0.771901 2.120000 74 57 56
0.394648 0.770856 2.107000 75 53 60
0.392401 0.770133 2.095000 76 54 64
0.389966 0.768998 2.082000 77 55 68
0.387531 0.767819 2.069000 78 55 63
0.383036 0.762492 2.045000 77 54 59
0.378540 0.757081 2.021000 76 54 56
0.371985 0.747446 1.986000 79 55 54
0.369924 0.746763 1.975000 82 54 58
0.369924 0.750221 1.975000 73 53 62
0.367864 0.749480 1.964000 64 53 59
0.365616 0.748318 1.952000 70 55 56
0.363556 0.747499 1.941000 76 54 58
0.361683 0.747028 1.931000 74 54 61
0.359623 0.746133 1.920000 73 55 59
0.573401 0.897266 3.033000 84 63 74
0.568296 0.894541 3.006000 83 63 83
0.563381 0.892020 2.980000 82 64 92
0.553928 0.882182 2.930000 82 63 84
0.549202 0.879740 2.905000 81 64 77
0.549202 0.884825 2.905000 81 64 74
0.540127 0.875206 2.857000 84 61 71
0.535779 0.873122 2.834000 87 56 71
0.531242 0.870646 2.810000 84 57 72
0.518575 0.854689 2.743000 82 61 64
0.514605 0.852910 2.722000 80 62 57
0.510635 0.851058 2.701000 78 64 63
0.506665 0.849133 2.680000 76 63 69
0.502695 0.847134 2.659000 74 63 71
0.498914 0.845381 2.639000 77 61 74
0.491351 0.837117 2.599000 80 60 73
0.487759 0.835514 2.580000 80 61 72
0.487759 0.840030 2.580000 80 59 72
0.483978 0.838000 2.560000 79 59 73
0.483978 0.842481 2.560000 78 59 66
0.480575 0.841007 2.542000 76 57 59
0.473580 0.833151 2.505000 75 56 57
0.466774 0.825499 2.469000 76 56 56
0.453730 0.806631 2.400000 78 57 59
0.450705 0.805426 2.384000 75 58 63
0.447491 0.803826 2.367000 72 58 59
0.444466 0.802508 2.351000 74 58 56
0.441441 0.801134 2.335000 76 56 60
0.441441 0.805221 2.335000 78 56 65
0.438605 0.804110 2.320000 80 58 67
0.429909 0.792147 2.274000 78 56 70
0.424237 0.785625 2.244000 76 54 69
0.421590 0.784627 2.230000 76 52 68
0.421590 0.788530 2.230000 75 51 66
0.418755 0.787104 2.215000 76 56 64
0.413461 0.780982 2.187000 77 59 61
0.411003 0.780145 2.174000 75 58 59
0.405899 0.774215 2.147000 74 57 59
0.400794 0.768190 2.120000 74 59 60
0.398337 0.767167 2.107000 75 59 61
0.398337 0.770856 2.107000 75 56 63
0.396068 0.770133 2.095000 75 55 68
0.393610 0.768998 2.082000 75 56 73
0.391153 0.767819 2.069000 76 58 68
0.386615 0.762492 2.045000 74 54 63
0.384347 0.761576 2.033000 72 54 56
0.373382 0.743306 1.975000 75 54 50
0.373382 0.746763 1.975000 79 54 54
0.371302 0.746042 1.964000 74 53 59
0.371302 0.749480 1.964000 70 51 59
0.371302 0.752918 1.964000 72 53 59
0.366954 0.747499 1.941000 75 53 59
0.362984 0.742772 1.920000 74 54 60
0.360904 0.741858 1.909000 72 57 58
0.594356 0.905166 3.115000 85 70 79
0.594356 0.910619 3.115000 85 70 77
0.583671 0.899603 3.059000 86 68 76
0.578710 0.897266 3.033000 84 64 75
0.573558 0.894541 3.006000 83 66 81
0.568597 0.892020 2.980000 82 67 86
0.563827 0.889709 2.955000 82 67 81
0.559057 0.887311 2.930000 83 69 76
0.554287 0.884825 2.905000 84 66 76
0.549708 0.882559 2.881000 88 61 76
0.540740 0.873122 2.834000 92 59 73
0.536161 0.870646 2.810000 88 57 70
0.527574 0.861544 2.765000 84 62 67
0.523377 0.859490 2.743000 81 64 64
0.519370 0.857675 2.722000 79 64 69
0.511356 0.849133 2.680000 78 64 74
0.503533 0.840762 2.639000 78 63 74
0.499717 0.838975 2.619000 79 62 75
0.495901 0.837117 2.599000 81 62 74
0.492276 0.835514 2.580000 80 62 74
0.492276 0.840030 2.580000 79 62 76
0.488460 0.838000 2.560000 77 63 79
0.488460 0.842481 2.560000 76 60 71
0.485025 0.841007 2.542000 74 55 63
0.477965 0.833151 2.505000 73 55 62
0.461175 0.808113 2.417000 75 57 62
0.457931 0.806631 2.400000 77 58 63
0.454878 0.805426 2.384000 71 59 64
0.451634 0.803826 2.367000 65 59 59
0.448581 0.802508 2.351000 71 61 55
0.445529 0.801134 2.335000 77 57 60
0.445529 0.805221 2.335000 79 55 66
0.442666 0.804110 2.320000 82 56 70
0.439614 0.802597 2.304000 79 56 74
0.428165 0.785625 2.244000 76 55 73
0.425494 0.784627 2.230000 76 52 72
0.425494 0.788530 2.230000 77 54 67
0.422632 0.787104 2.215000 76 60 62
0.419961 0.785982 2.201000 76 59 58
0.419961 0.789834 2.201000 75 59 54
0.412138 0.778903 2.160000 74 58 58
0.406986 0.772900 2.133000 75 59 62
0.404506 0.771901 2.120000 76 59 62
0.402025 0.770856 2.107000 75 59 63
0.402025 0.774544 2.107000 74 57 66
0.399735 0.773800 2.095000 74 57 68
0.397255 0.772643 2.082000 74 56 67
0.390195 0.762492 2.045000 71 51 66
0.376839 0.739849 1.975000 69 54 59
0.376839 0.743306 1.975000 72 56 52
0.376839 0.746763 1.975000 76 57 54
0.376839 0.750221 1.975000 76 55 57
0.374740 0.749480 1.964000 76 54 58
0.374740 0.752918 1.964000 75 54 60
0.372450 0.751735 1.952000 75 53 58
0.368443 0.747028 1.931000 73 54 57
0.366345 0.746133 1.920000 72 56 54
0.594417 0.902434 3.087000 88 75 77
0.589026 0.899603 3.059000 88 75 77
0.584019 0.897266 3.033000 86 72 77
0.578820 0.894541 3.006000 85 73 79
0.573814 0.892020 2.980000 85 71 81
0.569000 0.889709 2.955000 85 69 78
0.564186 0.887311 2.930000 84 71 76
0.559372 0.884825 2.905000 84 73 79
0.554751 0.882559 2.881000 86 66 82
0.550130 0.880208 2.857000 89 63 75
0.545701 0.878082 2.834000 86 64 68
0.536843 0.868710 2.788000 83 67 70
0.532415 0.866384 2.765000 82 66 72
0.520091 0.851058 2.701000 81 64 75
0.516047 0.849133 2.680000 81 64 79
0.508153 0.840762 2.639000 80 64 78
0.504302 0.838975 2.619000 80 64 77
0.500450 0.837117 2.599000 81 65 76
0.496792 0.835514 2.580000 80 63 76
0.496792 0.840030 2.580000 79 65 80
0.492941 0.838000 2.560000 78 64 85
0.489475 0.836557 2.542000 77 65 76
0.489475 0.841007 2.542000 76 59 68
0.482350 0.833151 2.505000 76 55 68
0.465405 0.808113 2.417000 77 58 68
0.462132 0.806631 2.400000 78 60 66
0.459051 0.805426 2.384000 74 60 65
0.455778 0.803826 2.367000 71 60 59
0.452697 0.802508 2.351000 74 60 54
0.449616 0.801134 2.335000 78 56 61
0.449616 0.805221 2.335000 79 56 68
0.446728 0.804110 2.320000 81 57 73
0.437870 0.792147 2.274000 79 58 79
0.434982 0.790876 2.259000 77 59 77
0.432093 0.789553 2.244000 77 57 76
0.429398 0.788530 2.230000 77 56 68
0.426509 0.787104 2.215000 76 59 60
0.426509 0.790981 2.215000 75 60 54
0.423814 0.789834 2.201000 72 60 49
0.413416 0.774215 2.147000 69 60 56
0.408217 0.768190 2.120000 72 60 64
0.408217 0.771901 2.120000 76 59 64
0.405713 0.770856 2.107000 75 59 64
0.405713 0.774544 2.107000 75 58 64
0.403403 0.773800 2.095000 74 58 64
0.400900 0.772643 2.082000 73 58 66
0.393775 0.762492 2.045000 70 55 69
0.385880 0.750713 2.004000 67 55 62
0.380296 0.743306 1.975000 70 58 55
0.382414 0.750923 1.986000 74 63 55
0.380296 0.750221 1.975000 75 58 55
0.378178 0.749480 1.964000 76 56 58
0.378178 0.752918 1.964000 73 55 61
0.375867 0.751735 1.952000 70 53 57
0.371824 0.747028 1.931000 71 55 54
0.369706 0.746133 1.920000 72 57 49
0.599821 0.902434 3.087000 90 80 78
0.594381 0.899603 3.059000 90 77 79
0.589329 0.897266 3.033000 89 76 80
0.584082 0.894541 3.006000 88 74 83
0.579030 0.892020 2.980000 88 76 86
0.574173 0.889709 2.955000 88 73 82
0.569315 0.887311 2.930000 86 73 79
0.564458 0.884825 2.905000 85 72 78
0.559794 0.882559 2.881000 85 70 78
0.555131 0.880208 2.857000 86 68 74
0.550662 0.878082 2.834000 84 69 70
0.541724 0.868710 2.788000 83 69 75
0.537255 0.866384 2.765000 83 70 80
0.528900 0.857675 2.722000 84 66 79
0.524819 0.855786 2.701000 83 65 78
0.512772 0.840762 2.639000 83 66 78
0.508886 0.838975 2.619000 82 65 78
0.505000 0.837117 2.599000 81 65 77
0.501308 0.835514 2.580000 80 63 76
0.497422 0.833518 2.560000 80 64 78
0.497422 0.838000 2.560000 79 64 80
0.493925 0.836557 2.542000 78 64 75
0.493925 0.841007 2.542000 78 64 70
0.486735 0.833151 2.505000 79 61 69
0.469636 0.808113 2.417000 79 61 68
0.466333 0.806631 2.400000 79 62 66
0.463224 0.805426 2.384000 78 63 65
0.459921 0.803826 2.367000 77 63 62
0.456812 0.802508 2.351000 78 63 60
0.456812 0.806624 2.351000 79 61 63
0.453703 0.805221 2.335000 80 59 66
0.450789 0.804110 2.320000 81 60 70
0.441851 0.792147 2.274000 79 60 73
0.436022 0.785625 2.244000 78 61 68
0.433301 0.784627 2.230000 77 61 63
0.433301 0.788530 2.230000 77 61 63
0.430387 0.787104 2.215000 75 60 64
0.430387 0.790981 2.215000 74 61 60
0.427666 0.789834 2.201000 69 62 57
0.414454 0.769166 2.133000 65 62 60
0.411928 0.768190 2.120000 70 63 64
0.411928 0.771901 2.120000 76 63 63
0.409402 0.770856 2.107000 76 62 62
0.409402 0.774544 2.107000 76 62 62
0.407070 0.773800 2.095000 74 62 63
0.404544 0.772643 2.082000 73 61 66
0.397355 0.762492 2.045000 69 59 69
0.395023 0.761576 2.033000 65 58 65
0.388222 0.751962 1.998000 68 60 61
0.385891 0.750923 1.986000 72 62 61
0.383753 0.750221 1.975000 74 60 62
0.383753 0.753678 1.975000 76 59 61
0.381616 0.752918 1.964000 71 59 61
0.377147 0.747499 1.941000 66 59 59
0.375204 0.747028 1.931000 69 59 56
0.375204 0.750408 1.931000 73 60 55
0.605225 0.902434 3.087000 91 78 80
0.599735 0.899603 3.059000 93 78 82
0.594638 0.897266 3.033000 90 75 84
0.589344 0.894541 3.006000 88 72 88
0.584247 0.892020 2.980000 89 74 92
0.579345 0.889709 2.955000 91 75 87
0.574444 0.887311 2.930000 89 72 82
0.569543 0.884825 2.905000 87 73 78
0.564837 0.882559 2.881000 87 72 75
0.560132 0.880208 2.857000 86 73 74
0.555623 0.878082 2.834000 85 70 73
0.550917 0.875565 2.810000 84 70 80
0.542095 0.866384 2.765000 84 69 88
0.537782 0.864292 2.743000 84 68 83
0.529547 0.855786 2.701000 84 69 78
0.517392 0.840762 2.639000 83 71 78
0.513471 0.838975 2.619000 82 68 79
0.509549 0.837117 2.599000 82 68 78
0.505825 0.835514 2.580000 81 64 77
0.505825 0.840030 2.580000 80 64 76
0.501903 0.838000 2.560000 80 65 76
0.498374 0.836557 2.542000 81 65 74
0.498374 0.841007 2.542000 80 64 72
0.473867 0.803882 2.417000 80 65 70
0.473867 0.808113 2.417000 80 66 68
0.470534 0.806631 2.400000 81 67 67
0.467398 0.805426 2.384000 80 67 66
0.464065 0.803826 2.367000 79 68 66
0.460928 0.802508 2.351000 80 67 66
0.457791 0.801134 2.335000 82 68 65
0.454850 0.800049 2.320000 84 64 65
0.451713 0.798564 2.304000 87 64 66
0.448772 0.797372 2.289000 83 63 68
0.445831 0.796127 2.274000 79 65 59
0.437205 0.784627 2.230000 79 66 50
0.434264 0.783226 2.215000 78 68 59
0.434264 0.787104 2.215000 77 66 69
0.431519 0.785982 2.201000 76 65 67
0.431519 0.789834 2.201000 74 64 65
0.418187 0.769166 2.133000 73 64 65
0.415639 0.768190 2.120000 75 66 65
0.415639 0.771901 2.120000 77 71 62
0.413090 0.770856 2.107000 78 67 60
0.413090 0.774544 2.107000 78 67 61
0.405640 0.764197 2.069000 77 65 63
0.405640 0.767819 2.069000 76 65 66
0.403287 0.766966 2.057000 73 61 70
0.400935 0.766071 2.045000 71 60 69
0.393876 0.756102 2.009000 73 62 68
0.389367 0.750923 1.986000 76 65 68
0.389367 0.754399 1.986000 76 62 69
0.387211 0.753678 1.975000 77 62 65
0.385054 0.752918 1.964000 74 64 62
0.382701 0.751735 1.952000 72 67 60
0.380545 0.750896 1.941000 74 63 59
0.378584 0.750408 1.931000 77 63 62
0.607859 0.898341 3.073000 93 78 81
0.605090 0.899603 3.059000 96 76 83
0.599947 0.897266 3.033000 92 74 85
0.594606 0.894541 3.006000 88 73 87
0.589463 0.892020 2.980000 91 73 89
0.589463 0.897236 2.980000 94 72 85
0.579573 0.887311 2.930000 92 69 81
0.574628 0.884825 2.905000 90 71 78
0.574628 0.889911 2.905000 88 73 76
0.565133 0.880208 2.857000 87 72 72
0.560584 0.878082 2.834000 86 69 69
0.555836 0.875565 2.810000 86 70 68
0.551485 0.873591 2.788000 85 71 68
0.538429 0.857675 2.722000 85 69 72
0.530121 0.849133 2.680000 84 72 77
0.522011 0.840762 2.639000 84 71 77
0.518055 0.838975 2.619000 83 71 78
0.518055 0.843559 2.619000 83 67 78
0.514099 0.841667 2.599000 81 64 79
0.510341 0.840030 2.580000 80 66 77
0.510341 0.844546 2.580000 82 70 76
0.506385 0.842481 2.560000 84 67 75
0.502824 0.841007 2.542000 83 64 74
0.478098 0.803882 2.417000 82 67 73
0.478098 0.808113 2.417000 82 71 72
0.474736 0.806631 2.400000 83 70 69
0.471571 0.805426 2.384000 82 70 67
0.468208 0.803826 2.367000 81 69 69
0.468208 0.807970 2.367000 83 70 71
0.465043 0.806624 2.351000 85 68 70
0.458911 0.800049 2.320000 89 66 70
0.455746 0.798564 2.304000 93 64 71
0.452779 0.797372 2.289000 87 65 73
0.449812 0.796127 2.274000 81 68 68
0.443878 0.789553 2.244000 80 72 63
0.438141 0.783226 2.215000 80 72 68
0.438141 0.787104 2.215000 79 74 72
0.435372 0.785982 2.201000 78 68 71
0.435372 0.789834 2.201000 79 67 70
0.432603 0.788639 2.187000 81 66 71
0.419350 0.768190 2.120000 80 68 72
0.419350 0.771901 2.120000 79 68 70
0.416778 0.770856 2.107000 80 69 68
0.416778 0.774544 2.107000 81 68 67
0.409262 0.764197 2.069000 80 69 66
0.406888 0.763365 2.057000 79 64 64
0.406888 0.766966 2.057000 78 61 62
0.402141 0.761576 2.033000 77 61 66
0.397393 0.756102 2.009000 78 64 71
0.392844 0.750923 1.986000 80 64 72
0.390668 0.750221 1.975000 79 64 73
0.390668 0.753678 1.975000 79 64 70
0.388492 0.752918 1.964000 78 68 67
0.386118 0.751735 1.952000 78 66 66
0.383942 0.750896 1.941000 80 66 65
0.381964 0.750408 1.931000 82 64 67
0.610445 0.894248 3.059000 91 76 82
0.605256 0.891957 3.033000 93 74 84
0.599868 0.889279 3.006000 90 73 86
0.599868 0.894541 3.006000 86 73 86
0.594680 0.892020 2.980000 89 73 86
0.589691 0.889709 2.955000 92 72 83
0.584702 0.887311 2.930000 90 71 80
0.579713 0.884825 2.905000 89 71 79
0.574924 0.882559 2.881000 88 73 78
0.570134 0.880208 2.857000 87 73 71
0.565545 0.878082 2.834000 86 72 65
0.560755 0.875565 2.810000 85 72 57
0.551775 0.866384 2.765000 83 71 49
0.543194 0.857675 2.722000 82 68 62
0.534813 0.849133 2.680000 83 70 76
0.526631 0.840762 2.639000 85 71 76
0.526631 0.845381 2.639000 84 70 77
0.522640 0.843559 2.619000 84 67 79
0.518649 0.841667 2.599000 83 66 82
0.518649 0.846216 2.599000 82 66 79
0.514857 0.844546 2.580000 83 70 76
0.510866 0.842481 2.560000 85 71 76
0.478937 0.806631 2.400000 86 74 72
0.475744 0.805426 2.384000 84 71 68
0.472351 0.803826 2.367000 83 70 72
0.472351 0.807970 2.367000 84 70 76
0.469159 0.806624 2.351000 85 70 76
0.465966 0.805221 2.335000 87 68 76
0.459779 0.798564 2.304000 90 64 77
0.456786 0.797372 2.289000 85 66 78
0.453793 0.796127 2.274000 80 70 77
0.445012 0.784627 2.230000 80 72 77
0.442019 0.783226 2.215000 80 74 76
0.442019 0.787104 2.215000 80 72 76
0.439225 0.785982 2.201000 80 69 76
0.436431 0.784811 2.187000 81 68 76
0.428449 0.774215 2.147000 83 66 78
0.423061 0.768190 2.120000 83 66 80
0.423061 0.771901 2.120000 82 67 78
0.420467 0.770856 2.107000 83 68 77
0.420467 0.774544 2.107000 84 67 73
0.412883 0.764197 2.069000 83 67 70
0.412883 0.767819 2.069000 82 62 62
0.410489 0.766966 2.057000 82 61 54
0.408094 0.766071 2.045000 81 62 64
0.400910 0.756102 2.009000 82 64 75
0.398715 0.755460 1.998000 83 63 76
0.396320 0.754399 1.986000 82 62 78
0.394125 0.753678 1.975000 81 63 75
0.391930 0.752918 1.964000 81 66 72
0.389535 0.751735 1.952000 80 66 71
0.387340 0.750896 1.941000 82 65 71
0.385345 0.750408 1.931000 83 64 72
0.615800 0.894248 3.059000 90 78 82
0.610566 0.891957 3.033000 91 75 83
0.605130 0.889279 3.006000 88 73 85
0.605130 0.894541 3.006000 85 75 85
0.599896 0.892020 2.980000 87 77 85
0.594864 0.889709 2.955000 90 74 83
0.589831 0.887311 2.930000 89 72 82
0.584798 0.884825 2.905000 89 74 79
0.584798 0.889911 2.905000 88 78 76
0.575136 0.880208 2.857000 88 77 73
0.570505 0.878082 2.834000 86 77 70
0.561245 0.868710 2.788000 84 75 66
0.556615 0.866384 2.765000 81 73 62
0.547959 0.857675 2.722000 79 72 70
0.539504 0.849133 2.680000 83 72 78
0.535277 0.847134 2.659000 87 71 78
0.531251 0.845381 2.639000 86 71 79
0.527224 0.843559 2.619000 85 70 82
0.523198 0.841667 2.599000 84 67 84
0.523198 0.846216 2.599000 84 70 81
0.519373 0.844546 2.580000 85 74 78
0.515347 0.842481 2.560000 87 74 78
0.483138 0.806631 2.400000 89 74 75
0.479917 0.805426 2.384000 87 71 73
0.476495 0.803826 2.367000 86 71 74
0.476495 0.807970 2.367000 85 73 75
0.473274 0.806624 2.351000 85 73 76
0.467033 0.800049 2.320000 86 72 78
0.463813 0.798564 2.304000 87 70 82
0.460793 0.797372 2.289000 83 68 87
0.457773 0.796127 2.274000 79 71 83
0.454754 0.794830 2.259000 80 72 80
0.445896 0.783226 2.215000 81 74 79
0.445896 0.787104 2.215000 81 73 79
0.443078 0.785982 2.201000 82 71 78
0.443078 0.789834 2.201000 84 71 76
0.434824 0.778903 2.160000 86 69 78
0.429389 0.772900 2.133000 86 65 80
0.426772 0.771901 2.120000 86 68 79
0.424155 0.770856 2.107000 87 69 78
0.424155 0.774544 2.107000 88 70 76
0.421739 0.773800 2.095000 87 71 75
0.416505 0.767819 2.069000 86 66 70
0.414090 0.766966 2.057000 86 60 65
0.411674 0.766071 2.045000 86 64 70
0.406842 0.760619 2.021000 86 67 76
0.402212 0.755460 1.998000 86 66 77
0.399797 0.754399 1.986000 85 61 78
0.397582 0.753678 1.975000 84 65 75
0.395368 0.752918 1.964000 83 68 73
0.392952 0.751735 1.952000 83 69 68
0.390738 0.750896 1.941000 84 66 63
0.388725 0.750408 1.931000 85 67 69
0.618515 0.890448 3.046000 95 77 82
0.610392 0.884017 3.006000 93 78 83
0.610392 0.889279 3.006000 91 76 84
0.610392 0.894541 3.006000 89 78 84
0.605113 0.892020 2.980000 92 78 85
0.600037 0.889709 2.955000 95 76 84
0.594960 0.887311 2.930000 93 75 84
0.594960 0.892440 2.930000 91 77 79
0.589884 0.889911 2.905000 90 79 75
0.580137 0.880208 2.857000 89 80 75
0.570593 0.870646 2.810000 88 78 76
0.566126 0.868710 2.788000 87 79 75
0.556988 0.859490 2.743000 85 76 75
0.552724 0.857675 2.722000 83 76 77
0.544196 0.849133 2.680000 85 74 80
0.539931 0.847134 2.659000 87 73 81
0.535870 0.845381 2.639000 87 73 82
0.531809 0.843559 2.619000 87 76 84
0.531809 0.848144 2.619000 86 73 87
0.527748 0.846216 2.599000 85 74 83
0.523890 0.844546 2.580000 87 76 80
0.490791 0.812344 2.417000 90 78 77
0.487339 0.810832 2.400000 89 75 78
0.484090 0.809599 2.384000 87 72 76
0.480638 0.807970 2.367000 87 74 74
0.477389 0.806624 2.351000 87 77 77
0.471095 0.800049 2.320000 88 75 81
0.464800 0.793365 2.289000 89 76 88
0.464800 0.797372 2.289000 86 73 96
0.461754 0.796127 2.274000 83 74 89
0.458708 0.794830 2.259000 84 76 83
0.452819 0.788530 2.230000 85 77 83
0.449774 0.787104 2.215000 85 75 83
0.446931 0.785982 2.201000 86 74 80
0.441448 0.780145 2.174000 87 75 77
0.435966 0.774215 2.147000 89 76 79
0.430483 0.768190 2.120000 89 71 81
0.427843 0.767167 2.107000 89 72 80
0.425407 0.766465 2.095000 89 73 79
0.422767 0.765354 2.082000 90 75 79
0.420127 0.764197 2.069000 89 75 80
0.417690 0.763365 2.057000 88 74 78
0.415254 0.762492 2.045000 88 68 77
0.412817 0.761576 2.033000 88 68 77
0.410380 0.760619 2.021000 88 70 77
0.405710 0.755460 1.998000 89 73 77
0.403273 0.754399 1.986000 88 70 78
0.401040 0.753678 1.975000 87 70 76
0.398806 0.752918 1.964000 86 72 74
0.394136 0.747499 1.941000 85 76 64
0.394136 0.750896 1.941000 86 72 55
0.392105 0.750408 1.931000 87 72 66
0.621184 0.886648 3.033000 99 77 82
0.615654 0.884017 3.006000 95 77 83
0.615654 0.889279 3.006000 94 78 85
0.610329 0.886803 2.980000 93 79 85
0.610329 0.892020 2.980000 96 81 86
0.605209 0.889709 2.955000 100 77 87
0.600089 0.887311 2.930000 97 75 88
0.600089 0.892440 2.930000 94 77 83
0.594969 0.889911 2.905000 92 81 78
0.585138 0.880208 2.857000 90 79 77
0.575512 0.870646 2.810000 90 79 77
0.566296 0.861544 2.765000 90 79 77
0.561790 0.859490 2.743000 88 79 77
0.553188 0.851058 2.701000 87 76 78
0.548887 0.849133 2.680000 87 76 80
0.544586 0.847134 2.659000 88 74 81
0.540490 0.845381 2.639000 88 72 83
0.536393 0.843559 2.619000 89 75 86
0.532297 0.841667 2.599000 88 76 89
0.532297 0.846216 2.599000 87 76 83
0.528406 0.844546 2.580000 90 79 77
0.495022 0.812344 2.417000 92 78 81
0.491540 0.810832 2.400000 90 79 79
0.488263 0.809599 2.384000 89 77 77
0.484782 0.807970 2.367000 89 77 76
0.481505 0.806624 2.351000 90 77 77
0.478228 0.805221 2.335000 91 77 79
0.471879 0.798564 2.304000 92 76 85
0.465735 0.792147 2.274000 89 76 91
0.465735 0.796127 2.274000 87 77 87
0.459590 0.789553 2.244000 88 81 83
0.456723 0.788530 2.230000 89 78 83
0.450784 0.782129 2.201000 89 77 84
0.447916 0.780982 2.187000 90 77 83
0.445254 0.780145 2.174000 91 80 83
0.442386 0.778903 2.160000 92 77 82
0.434194 0.768190 2.120000 92 73 82
0.431531 0.767167 2.107000 93 75 80
0.429074 0.766465 2.095000 92 78 78
0.423749 0.760575 2.069000 92 78 79
0.423749 0.764197 2.069000 91 80 79
0.421291 0.763365 2.057000 91 76 79
0.418833 0.762492 2.045000 91 72 79
0.416376 0.761576 2.033000 91 72 79
0.411460 0.756102 2.009000 91 74 79
0.409207 0.755460 1.998000 92 75 78
0.404497 0.750221 1.975000 91 78 78
0.404497 0.753678 1.975000 90 76 78
0.402244 0.752918 1.964000 89 77 78
0.397533 0.747499 1.941000 88 77 72
0.395485 0.747028 1.931000 88 77 66
0.395485 0.750408 1.931000 89 75 72
0.626493 0.886648 3.033000 98 77 83
0.620916 0.884017 3.006000 96 78 84
0.620916 0.889279 3.006000 95 79 86
0.620916 0.894541 3.006000 94 79 86
0.615546 0.892020 2.980000 95 79 87
0.615546 0.897236 2.980000 97 76 89
0.610382 0.894882 2.955000 96 76 92
0.605218 0.892440 2.930000 94 78 86
0.600054 0.889911 2.905000 94 79 81
0.585388 0.873122 2.834000 93 79 79
0.580431 0.870646 2.810000 94 78 78
0.571136 0.861544 2.765000 94 79 78
0.566591 0.859490 2.743000 92 77 79
0.562254 0.857675 2.722000 91 76 80
0.553578 0.849133 2.680000 91 76 81
0.549240 0.847134 2.659000 92 75 82
0.545109 0.845381 2.639000 91 75 84
0.540978 0.843559 2.619000 90 78 87
0.536847 0.841667 2.599000 89 77 91
0.532922 0.840030 2.580000 89 76 82
0.528791 0.838000 2.560000 91 78 74
0.499253 0.812344 2.417000 94 77 85
0.492437 0.805426 2.384000 92 78 81
0.488925 0.803826 2.367000 91 80 79
0.485620 0.802508 2.351000 90 79 78
0.485620 0.806624 2.351000 90 80 77
0.482315 0.805221 2.335000 92 78 77
0.472814 0.793365 2.289000 94 77 81
0.469715 0.792147 2.274000 92 77 86
0.469715 0.796127 2.274000 91 79 84
0.466617 0.794830 2.259000 90 79 83
0.460627 0.788530 2.230000 90 79 84
0.454636 0.782129 2.201000 91 79 85
0.451745 0.780982 2.187000 93 79 87
0.449059 0.780145 2.174000 94 81 90
0.446167 0.778903 2.160000 95 82 86
0.440590 0.772900 2.133000 95 78 83
0.437905 0.771901 2.120000 95 79 80
0.432741 0.766465 2.095000 94 79 78
0.427371 0.760575 2.069000 94 80 78
0.427371 0.764197 2.069000 93 79 79
0.424892 0.763365 2.057000 93 79 80
0.422413 0.762492 2.045000 92 76 81
0.419934 0.761576 2.033000 92 76 81
0.414977 0.756102 2.009000 92 76 82
0.412705 0.755460 1.998000 92 78 80
0.407954 0.750221 1.975000 91 78 78
0.407954 0.753678 1.975000 91 80 80
0.403203 0.748318 1.952000 90 79 83
0.400931 0.747499 1.941000 89 80 80
0.398865 0.747028 1.931000 90 78 77
0.396593 0.746133 1.920000 90 77 79
0.631803 0.886648 3.033000 98 78 85
0.626178 0.884017 3.006000 97 80 86
0.626178 0.889279 3.006000 96 82 87
0.626178 0.894541 3.006000 95 80 87
0.626178 0.899803 3.006000 95 80 87
0.620762 0.897236 2.980000 95 78 87
0.610347 0.887311 2.930000 95 78 88
0.610347 0.892440 2.930000 95 78 85
0.605139 0.889911 2.905000 96 79 83
0.590349 0.873122 2.834000 97 79 82
0.580767 0.863830 2.788000 98 78 81
0.571393 0.854689 2.743000 99 78 80
0.567019 0.852910 2.722000 97 77 79
0.562644 0.851058 2.701000 95 76 75
0.562644 0.855786 2.701000 95 77 71
0.558270 0.853824 2.680000 96 76 76
0.553895 0.851788 2.659000 93 78 81
0.545563 0.843559 2.619000 91 78 84
0.541396 0.841667 2.599000 91 79 87
0.537439 0.840030 2.580000 92 78 84
0.533272 0.838000 2.560000 93 79 80
0.503484 0.812344 2.417000 96 77 86
0.496610 0.805426 2.384000 94 78 83
0.493069 0.803826 2.367000 93 79 81
0.489736 0.802508 2.351000 92 82 78
0.486403 0.801134 2.335000 91 80 77
0.479945 0.794531 2.304000 94 78 75
0.476820 0.793365 2.289000 97 78 82
0.473696 0.792147 2.274000 96 79 88
0.473696 0.796127 2.274000 95 79 84
0.470571 0.794830 2.259000 93 80 81
0.464530 0.788530 2.230000 92 80 80
0.461406 0.787104 2.215000 94 81 80
0.458489 0.785982 2.201000 96 81 84
0.452865 0.780145 2.174000 97 83 87
0.449949 0.778903 2.160000 98 82 85
0.444324 0.772900 2.133000 97 81 82
0.438908 0.767167 2.107000 97 80 81
0.433700 0.761709 2.082000 97 81 81
0.430992 0.760575 2.069000 97 80 81
0.430992 0.764197 2.069000 96 79 82
0.428493 0.763365 2.057000 95 79 82
0.425993 0.762492 2.045000 94 78 82
0.423493 0.761576 2.033000 94 77 83
0.420994 0.760619 2.021000 93 78 84
0.416202 0.755460 1.998000 93 78 83
0.411411 0.750221 1.975000 92 78 82
0.411411 0.753678 1.975000 92 79 82
0.409120 0.752918 1.964000 91 80 82
0.404329 0.747499 1.941000 91 80 80
0.402246 0.747028 1.931000 91 79 78
0.402246 0.750408 1.931000 92 78 80
0.637112 0.886648 3.033000 96 80 88
0.637112 0.891957 3.033000 94 82 88
0.631440 0.889279 3.006000 94 81 89
0.631440 0.894541 3.006000 95 82 88
0.631440 0.899803 3.006000 95 80 87
0.625979 0.897236 2.980000 95 79 85
0.620727 0.894882 2.955000 95 77 84
0.615476 0.892440 2.930000 96 80 84
0.610224 0.889911 2.905000 96 79 85
0.595310 0.873122 2.834000 96 80 84
0.585647 0.863830 2.788000 96 79 84
0.580816 0.861544 2.765000 96 79 82
0.571783 0.852910 2.722000 95 77 80
0.571783 0.857675 2.722000 94 77 71
0.567372 0.855786 2.701000 94 75 62
0.562961 0.853824 2.680000 95 74 70
0.558550 0.851788 2.659000 93 76 79
0.550147 0.843559 2.619000 91 79 81
0.545946 0.841667 2.599000 92 79 84
0.537754 0.833518 2.560000 93 79 85
0.533973 0.832107 2.542000 94 77 87
0.507715 0.812344 2.417000 95 78 88
0.500783 0.805426 2.384000 94 79 86
0.497212 0.803826 2.367000 94 79 82
0.493851 0.802508 2.351000 92 80 79
0.487339 0.795988 2.320000 90 82 76
0.483978 0.794531 2.304000 94 79 74
0.480827 0.793365 2.289000 97 78 82
0.477677 0.792147 2.274000 96 78 91
0.477677 0.796127 2.274000 95 78 85
0.474526 0.794830 2.259000 94 80 79
0.471375 0.793481 2.244000 94 81 77
0.465283 0.787104 2.215000 96 81 76
0.462342 0.785982 2.201000 97 83 80
0.456670 0.780145 2.174000 98 83 85
0.453730 0.778903 2.160000 98 84 83
0.448058 0.772900 2.133000 98 81 82
0.445327 0.771901 2.120000 98 80 83
0.440076 0.766465 2.095000 98 80 84
0.437345 0.765354 2.082000 97 80 84
0.437345 0.768998 2.082000 96 79 85
0.432093 0.763365 2.057000 95 80 84
0.429573 0.762492 2.045000 95 79 84
0.427052 0.761576 2.033000 94 77 85
0.424531 0.760619 2.021000 96 77 87
0.419700 0.755460 1.998000 98 78 86
0.414869 0.750221 1.975000 96 78 86
0.414869 0.753678 1.975000 93 78 84
0.412558 0.752918 1.964000 94 81 82
0.407726 0.747499 1.941000 94 84 81
0.405626 0.747028 1.931000 94 80 80
0.403315 0.746133 1.920000 93 78 82
0.647928 0.894248 3.059000 94 81 93
0.642421 0.891957 3.033000 91 81 92
0.642421 0.897266 3.033000 93 80 91
0.636702 0.894541 3.006000 95 80 89
0.636702 0.899803 3.006000 95 81 87
0.631195 0.897236 2.980000 96 78 86
0.625900 0.894882 2.955000 96 74 84
0.620605 0.892440 2.930000 97 77 86
0.595188 0.860809 2.810000 96 80 87
0.595188 0.865727 2.810000 96 80 86
0.590528 0.863830 2.788000 95 80 85
0.585656 0.861544 2.765000 94 79 83
0.576548 0.852910 2.722000 93 78 82
0.576548 0.857675 2.722000 93 77 76
0.572100 0.855786 2.701000 93 74 71
0.572100 0.860515 2.701000 94 74 76
0.558968 0.845381 2.639000 93 75 82
0.554732 0.843559 2.619000 92 78 82
0.550496 0.841667 2.599000 93 80 83
0.542235 0.833518 2.560000 94 77 85
0.538422 0.832107 2.542000 95 74 87
0.511946 0.808113 2.417000 95 78 89
0.508345 0.806631 2.400000 95 79 87
0.504956 0.805426 2.384000 95 82 85
0.501355 0.803826 2.367000 95 81 82
0.497967 0.802508 2.351000 92 80 80
0.494578 0.801134 2.335000 90 80 78
0.491400 0.800049 2.320000 94 81 76
0.484834 0.793365 2.289000 98 78 80
0.481657 0.792147 2.274000 96 77 84
0.481657 0.796127 2.274000 95 79 82
0.478480 0.794830 2.259000 96 82 79
0.475303 0.793481 2.244000 97 82 79
0.466195 0.782129 2.201000 98 82 80
0.463230 0.780982 2.187000 99 83 82
0.460476 0.780145 2.174000 99 84 85
0.457511 0.778903 2.160000 99 84 86
0.451792 0.772900 2.133000 99 82 87
0.449038 0.771901 2.120000 100 81 86
0.446285 0.770856 2.107000 99 82 85
0.440989 0.765354 2.082000 98 81 85
0.440989 0.768998 2.082000 97 80 85
0.435694 0.763365 2.057000 96 81 83
0.433152 0.762492 2.045000 95 81 81
0.430611 0.761576 2.033000 95 78 86
0.428069 0.760619 2.021000 99 78 92
0.423197 0.755460 1.998000 104 78 88
0.418326 0.750221 1.975000 99 80 85
0.418326 0.753678 1.975000 95 80 84
0.415996 0.752918 1.964000 96 82 84
0.411124 0.747499 1.941000 98 82 82
0.409006 0.747028 1.931000 96 82 81
0.406676 0.746133 1.920000 95 79 85
0.647731 0.902575 3.033000 99 78 90
0.641964 0.899803 3.006000 97 78 88
0.636412 0.897236 2.980000 96 78 86
0.631073 0.894882 2.955000 96 76 85
0.620395 0.884825 2.905000 97 77 87
0.610144 0.875206 2.857000 98 78 90
0.600106 0.865727 2.810000 99 80 88
0.595408 0.863830 2.788000 96 79 86
0.590496 0.861544 2.765000 94 80 85
0.581313 0.852910 2.722000 92 78 84
0.581313 0.857675 2.722000 90 79 82
0.576828 0.855786 2.701000 91 76 81
0.576828 0.860515 2.701000 93 76 83
0.563587 0.845381 2.639000 93 76 85
0.563587 0.850001 2.639000 93 78 84
0.546716 0.829037 2.560000 93 78 83
0.546716 0.833518 2.560000 94 78 85
0.542872 0.832107 2.542000 96 75 87
0.527282 0.812533 2.469000 98 73 87
0.527282 0.816855 2.469000 97 75 87
0.523438 0.815191 2.451000 96 77 87
0.519807 0.813797 2.434000 96 78 88
0.516177 0.812344 2.417000 97 80 86
0.512546 0.810832 2.400000 96 81 84
0.505499 0.803826 2.367000 96 83 83
0.502082 0.802508 2.351000 95 80 82
0.495462 0.795988 2.320000 94 80 80
0.492045 0.794531 2.304000 99 78 79
0.488841 0.793365 2.289000 105 77 78
0.485638 0.792147 2.274000 101 77 78
0.485638 0.796127 2.274000 98 79 79
0.482434 0.794830 2.259000 97 81 80
0.479231 0.793481 2.244000 96 85 82
0.473038 0.787104 2.215000 97 83 84
0.470048 0.785982 2.201000 97 83 84
0.464282 0.780145 2.174000 98 85 85
0.461292 0.778903 2.160000 99 88 89
0.455526 0.772900 2.133000 101 84 93
0.452749 0.771901 2.120000 103 82 89
0.449973 0.770856 2.107000 100 82 86
0.444634 0.765354 2.082000 98 83 86
0.444634 0.768998 2.082000 97 82 86
0.439295 0.763365 2.057000 97 83 82
0.436732 0.762492 2.045000 94 81 79
0.431607 0.757081 2.021000 92 78 88
0.429044 0.756102 2.009000 96 77 97
0.426695 0.755460 1.998000 99 77 90
0.421783 0.750221 1.975000 97 79 84
0.421783 0.753678 1.975000 95 82 85
0.419434 0.752918 1.964000 96 82 86
0.414522 0.747499 1.941000 96 82 84
0.412386 0.747028 1.931000 95 81 83
0.410037 0.746133 1.920000 93 80 88
0.647226 0.894541 3.006000 104 78 89
0.641628 0.892020 2.980000 100 77 88
0.636246 0.889709 2.955000 96 77 87
0.636246 0.894882 2.955000 96 76 85
0.625480 0.884825 2.905000 97 77 86
0.615145 0.875206 2.857000 99 78 87
0.610193 0.873122 2.834000 102 78 86
0.605025 0.870646 2.810000 98 78 85
0.600288 0.868710 2.788000 95 78 84
0.590599 0.859490 2.743000 91 76 84
0.586078 0.857675 2.722000 87 76 82
0.586078 0.862440 2.722000 89 78 80
0.581556 0.860515 2.701000 92 77 81
0.568207 0.845381 2.639000 93 77 83
0.563901 0.843559 2.619000 94 76 83
0.559595 0.841667 2.599000 94 77 84
0.551197 0.833518 2.560000 95 77 86
0.531604 0.808211 2.469000 98 77 87
0.531604 0.812533 2.469000 101 74 85
0.531604 0.816855 2.469000 99 75 83
0.527728 0.815191 2.451000 97 77 87
0.527728 0.819481 2.451000 98 78 91
0.520408 0.812344 2.417000 99 78 88
0.516748 0.810832 2.400000 98 80 85
0.506197 0.798393 2.351000 97 81 83
0.506197 0.802508 2.351000 97 80 82
0.499523 0.795988 2.320000 98 79 80
0.499523 0.800049 2.320000 105 77 79
0.492848 0.793365 2.289000 112 77 77
0.489618 0.792147 2.274000 106 77 76
0.486389 0.790876 2.259000 101 79 79
0.486389 0.794830 2.259000 98 80 81
0.483159 0.793481 2.244000 96 81 83
0.476915 0.787104 2.215000 96 82 85
0.473901 0.785982 2.201000 96 84 85
0.468087 0.780145 2.174000 98 87 86
0.465073 0.778903 2.160000 100 86 88
0.456460 0.768190 2.120000 103 84 91
0.453661 0.767167 2.107000 106 83 88
0.453661 0.770856 2.107000 102 84 85
0.451078 0.770133 2.095000 98 83 87
0.448279 0.768998 2.082000 98 82 90
0.445479 0.767819 2.069000 98 82 86
0.440312 0.762492 2.045000 94 82 83
0.437728 0.761576 2.033000 90 79 87
0.432561 0.756102 2.009000 92 76 92
0.430192 0.755460 1.998000 95 76 85
0.427609 0.754399 1.986000 95 78 78
0.425240 0.753678 1.975000 96 81 84
0.422872 0.752918 1.964000 95 82 90
0.417920 0.747499 1.941000 95 82 87
0.417920 0.750896 1.941000 93 82 84
0.413398 0.746133 1.920000 92 79 86
0.641418 0.884537 2.955000 97 78 89
0.635992 0.882182 2.930000 95 79 87
0.635992 0.887311 2.930000 95 77 86
0.630565 0.884825 2.905000 96 77 85
0.620146 0.875206 2.857000 97 77 84
0.615154 0.873122 2.834000 98 77 84
0.609944 0.870646 2.810000 96 78 84
0.605169 0.868710 2.788000 95 78 84
0.600176 0.866384 2.765000 92 75 84
0.595401 0.864292 2.743000 89 74 82
0.586285 0.855786 2.701000 91 77 80
0.577168 0.847134 2.659000 93 78 80
0.572827 0.845381 2.639000 94 76 81
0.568485 0.843559 2.619000 94 74 83
0.564144 0.841667 2.599000 93 77 86
0.564144 0.846216 2.599000 92 79 87
0.535926 0.808211 2.469000 94 76 88
0.535926 0.812533 2.469000 97 72 83
0.535926 0.816855 2.469000 97 75 79
0.532019 0.815191 2.451000 97 78 87
0.532019 0.819481 2.451000 97 77 95
0.524639 0.812344 2.417000 98 77 90
0.524639 0.816575 2.417000 97 79 86
0.510313 0.798393 2.351000 97 82 84
0.510313 0.802508 2.351000 97 81 83
0.500111 0.790498 2.304000 96 82 81
0.500111 0.794531 2.304000 101 79 79
0.496855 0.793365 2.289000 106 78 77
0.493599 0.792147 2.274000 103 77 75
0.490343 0.790876 2.259000 100 80 79
0.490343 0.794830 2.259000 97 79 83
0.484048 0.788530 2.230000 95 79 85
0.480792 0.787104 2.215000 95 81 87
0.477754 0.785982 2.201000 94 84 87
0.474715 0.784811 2.187000 96 85 87
0.471893 0.783951 2.174000 99 86 88
0.460171 0.768190 2.120000 101 84 89
0.457350 0.767167 2.107000 103 83 86
0.457350 0.770856 2.107000 101 83 84
0.454745 0.770133 2.095000 99 85 89
0.454745 0.773800 2.095000 99 83 94
0.449101 0.767819 2.069000 99 84 90
0.449101 0.771440 2.069000 96 83 87
0.438682 0.757081 2.021000 94 82 87
0.436078 0.756102 2.009000 95 78 88
0.434775 0.757350 2.003000 97 76 80
0.433690 0.758957 1.998000 96 79 72
0.428697 0.753678 1.975000 96 84 83
0.426310 0.752918 1.964000 95 83 95
0.421317 0.747499 1.941000 95 82 90
0.419147 0.747028 1.931000 95 80 86
0.416759 0.746133 1.920000 95 78 85
0.641121 0.882182 2.930000 94 78 90
0.641121 0.887311 2.930000 94 77 87
0.635650 0.884825 2.905000 95 77 87
0.625147 0.875206 2.857000 94 79 87
0.620115 0.873122 2.834000 94 78 86
0.614863 0.870646 2.810000 94 79 85
0.610049 0.868710 2.788000 95 77 85
0.600203 0.859490 2.743000 93 75 85
0.591013 0.851058 2.701000 92 74 83
0.586418 0.849133 2.680000 93 78 81
0.581822 0.847134 2.659000 95 77 81
0.577446 0.845381 2.639000 95 76 82
0.573070 0.843559 2.619000 95 76 83
0.568694 0.841667 2.599000 92 78 85
0.568694 0.846216 2.599000 89 78 89
0.540248 0.808211 2.469000 91 78 94
0.540248 0.812533 2.469000 94 76 88
0.540248 0.816855 2.469000 95 77 82
0.536309 0.815191 2.451000 97 77 85
0.536309 0.819481 2.451000 97 77 88
0.528870 0.812344 2.417000 97 77 85
0.528870 0.816575 2.417000 97 79 82
0.525150 0.815033 2.400000 98 81 82
0.517929 0.807970 2.367000 96 82 83
0.504144 0.790498 2.304000 95 81 82
0.504144 0.794531 2.304000 98 81 81
0.500862 0.793365 2.289000 101 78 83
0.497580 0.792147 2.274000 100 76 85
0.494297 0.790876 2.259000 99 78 84
0.491015 0.789553 2.244000 97 80 83
0.487952 0.788530 2.230000 95 80 84
0.484670 0.787104 2.215000 94 82 86
0.484670 0.790981 2.215000 93 83 87
0.481606 0.789834 2.201000 95 85 88
0.472635 0.778903 2.160000 98 85 90
0.469790 0.777973 2.147000 99 85 93
0.461038 0.767167 2.107000 100 84 89
0.461038 0.770856 2.107000 100 83 85
0.458412 0.770133 2.095000 100 83 88
0.455568 0.768998 2.082000 100 83 91
0.452723 0.767819 2.069000 100 83 89
0.450097 0.766966 2.057000 99 85 87
0.447472 0.766071 2.045000 99 81 87
0.444846 0.765135 2.033000 99 79 88
0.439594 0.759619 2.009000 99 78 83
0.438281 0.760857 2.003000 97 78 78
0.432155 0.753678 1.975000 96 82 85
0.427122 0.748318 1.952000 96 84 91
0.424715 0.747499 1.941000 96 81 88
0.422527 0.747028 1.931000 97 79 86
0.420120 0.746133 1.920000 99 79 84
0.651764 0.889709 2.955000 94 77 93
0.651764 0.894882 2.955000 93 77 89
0.640736 0.884825 2.905000 93 78 89
0.630149 0.875206 2.857000 93 79 90
0.625076 0.873122 2.834000 93 80 88
0.619782 0.870646 2.810000 94 78 87
0.614930 0.868710 2.788000 94 77 86
0.600373 0.852910 2.722000 92 73 86
0.595741 0.851058 2.701000 91 70 84
0.586477 0.842479 2.659000 92 75 83
0.586477 0.847134 2.659000 93 77 83
0.582066 0.845381 2.639000 93 75 83
0.577655 0.843559 2.619000 93 76 84
0.577655 0.848144 2.619000 89 77 85
0.573243 0.846216 2.599000 86 78 92
0.544570 0.808211 2.469000 89 78 100
0.544570 0.812533 2.469000 93 78 93
0.544570 0.816855 2.469000 94 77 86
0.540600 0.815191 2.451000 96 78 84
0.540600 0.819481 2.451000 96 78 82
0.536850 0.818058 2.434000 97 78 80
0.533101 0.816575 2.417000 96 79 79
0.529351 0.815033 2.400000 96 83 81
0.525822 0.813773 2.384000 94 80 83
0.515015 0.801134 2.335000 93 79 83
0.511706 0.800049 2.320000 96 79 83
0.508177 0.798564 2.304000 99 79 89
0.504869 0.797372 2.289000 98 77 95
0.498252 0.790876 2.259000 97 79 89
0.498252 0.794830 2.259000 96 79 83
0.494943 0.793481 2.244000 95 79 84
0.491856 0.792434 2.230000 95 80 85
0.488547 0.790981 2.215000 95 81 87
0.482371 0.784811 2.187000 97 82 90
0.476416 0.778903 2.160000 100 84 93
0.473549 0.777973 2.147000 99 85 97
0.467594 0.771901 2.120000 99 86 91
0.464726 0.770856 2.107000 100 84 86
0.462080 0.770133 2.095000 101 83 87
0.459212 0.768998 2.082000 102 83 89
0.456345 0.767819 2.069000 103 83 88
0.456345 0.771440 2.069000 101 83 87
0.453698 0.770567 2.057000 100 81 88
0.448405 0.765135 2.033000 99 79 89
0.445758 0.764156 2.021000 98 79 87
0.443111 0.763136 2.009000 98 79 85
0.438038 0.757876 1.986000 98 82 86
0.430539 0.748318 1.952000 99 82 88
0.428113 0.747499 1.941000 100 81 87
0.425907 0.747028 1.931000 99 80 86
0.423481 0.746133 1.920000 99 80 84
0.656936 0.889709 2.955000 94 78 89
0.656936 0.894882 2.955000 93 77 87
0.645821 0.884825 2.905000 92 78 86
0.640485 0.882559 2.881000 92 79 85
0.630036 0.873122 2.834000 93 79 85
0.624701 0.870646 2.810000 93 79 85
0.619810 0.868710 2.788000 94 76 88
0.605137 0.852910 2.722000 92 73 92
0.591132 0.837824 2.659000 90 73 88
0.591132 0.842479 2.659000 91 76 84
0.586685 0.840762 2.639000 92 75 83
0.586685 0.845381 2.639000 91 74 83
0.582239 0.843559 2.619000 91 76 82
0.577793 0.841667 2.599000 87 77 81
0.577793 0.846216 2.599000 83 77 83
0.552894 0.814104 2.487000 87 79 86
0.552894 0.818457 2.487000 92 77 84
0.548892 0.816855 2.469000 93 76 83
0.548892 0.821177 2.469000 95 77 79
0.544890 0.819481 2.451000 96 79 76
0.541111 0.818058 2.434000 97 77 77
0.537332 0.816575 2.417000 95 76 78
0.533552 0.815033 2.400000 94 78 80
0.526216 0.807970 2.367000 92 79 82
0.519102 0.801134 2.335000 91 77 77
0.515767 0.800049 2.320000 94 77 73
0.512210 0.798564 2.304000 97 76 80
0.505541 0.792147 2.274000 96 76 88
0.505541 0.796127 2.274000 96 77 85
0.495759 0.784627 2.230000 95 78 82
0.495759 0.788530 2.230000 95 78 83
0.492424 0.787104 2.215000 96 79 85
0.492424 0.790981 2.215000 97 80 87
0.489312 0.789834 2.201000 99 81 89
0.483310 0.783951 2.174000 102 84 91
0.477307 0.777973 2.147000 100 86 92
0.471305 0.771901 2.120000 98 85 87
0.468415 0.770856 2.107000 100 84 82
0.465747 0.770133 2.095000 102 83 85
0.462857 0.768998 2.082000 104 83 88
0.459967 0.767819 2.069000 106 83 87
0.457299 0.766966 2.057000 103 83 86
0.457299 0.770567 2.057000 101 81 86
0.451963 0.765135 2.033000 99 80 87
0.449296 0.764156 2.021000 97 80 83
0.446628 0.763136 2.009000 98 80 79
0.441515 0.757876 1.986000 100 81 82
0.433956 0.748318 1.952000 102 84 85
0.430621 0.745958 1.937000 105 82 85
0.429287 0.747028 1.931000 102 81 85
0.425286 0.743413 1.913000 99 81 84
0.656508 0.882182 2.930000 93 79 85
0.656508 0.887311 2.930000 90 77 86
0.650906 0.884825 2.905000 88 78 83
0.645528 0.882559 2.881000 91 78 80
0.640151 0.880208 2.857000 95 81 82
0.634997 0.878082 2.834000 94 78 84
0.629620 0.875565 2.810000 94 76 91
0.609902 0.852910 2.722000 91 75 98
0.600492 0.844441 2.680000 89 76 92
0.591305 0.836142 2.639000 89 74 86
0.591305 0.840762 2.639000 89 74 84
0.586824 0.838975 2.619000 90 75 83
0.586824 0.843559 2.619000 91 77 80
0.582342 0.841667 2.599000 89 77 78
0.582342 0.846216 2.599000 87 77 75
0.573604 0.838000 2.560000 89 77 72
0.557247 0.818457 2.487000 92 78 76
0.553214 0.816855 2.469000 92 76 80
0.553214 0.821177 2.469000 93 77 75
0.549181 0.819481 2.451000 93 77 70
0.545372 0.818058 2.434000 93 77 73
0.541563 0.816575 2.417000 91 76 77
0.541563 0.820806 2.417000 88 77 79
0.530360 0.807970 2.367000 89 75 82
0.523189 0.801134 2.335000 90 73 72
0.519829 0.800049 2.320000 92 75 63
0.516244 0.798564 2.304000 94 75 72
0.509522 0.792147 2.274000 95 75 82
0.506161 0.790876 2.259000 95 76 82
0.499663 0.784627 2.230000 94 76 82
0.499663 0.788530 2.230000 93 76 83
0.496302 0.787104 2.215000 94 77 85
0.499663 0.796338 2.230000 96 79 87
0.496302 0.794858 2.215000 98 81 89
0.490028 0.788639 2.187000 101 85 88
0.483978 0.782684 2.160000 99 85 88
0.472103 0.767167 2.107000 98 86 83
0.472103 0.770856 2.107000 99 83 78
0.469414 0.770133 2.095000 100 82 83
0.463588 0.764197 2.069000 101 83 88
0.463588 0.767819 2.069000 103 83 87
0.460900 0.766966 2.057000 101 82 86
0.460900 0.770567 2.057000 100 82 85
0.458211 0.769651 2.045000 99 82 85
0.452833 0.764156 2.021000 98 83 79
0.450145 0.763136 2.009000 99 81 74
0.444095 0.756349 1.982000 99 81 78
0.434908 0.744101 1.941000 100 82 83
0.433340 0.744803 1.934000 101 82 83
0.432668 0.747028 1.931000 98 82 84
0.427066 0.740693 1.906000 96 83 84
0.661637 0.882182 2.930000 92 77 89
0.661637 0.887311 2.930000 88 76 87
0.655991 0.884825 2.905000 85 77 84
0.655991 0.889911 2.905000 91 77 81
0.650572 0.887602 2.881000 97 79 82
0.639958 0.878082 2.834000 95 78 84
0.634539 0.875565 2.810000 94 76 87
0.614667 0.852910 2.722000 91 75 91
0.605183 0.844441 2.680000 89 74 87
0.595924 0.836142 2.639000 87 73 83
0.595924 0.840762 2.639000 86 75 81
0.591408 0.838975 2.619000 88 77 79
0.591408 0.843559 2.619000 91 77 78
0.586892 0.841667 2.599000 91 79 78
0.582601 0.840030 2.580000 91 77 77
0.578085 0.838000 2.560000 91 76 76
0.561601 0.818457 2.487000 92 76 78
