ply
format ascii 1.0
element vertex 1206
property float x
property float y
property float z
property uchar red
property uchar green
property uchar blue
end_header
0.351675 0.086125 0.820000 154 141 132
0.351675 0.087560 0.820000 154 145 134
0.351675 0.088995 0.820000 154 141 139
0.351675 0.090431 0.820000 157 136 145
0.351675 0.091866 0.820000 161 139 143
0.351675 0.093302 0.820000 153 145 142
0.351675 0.094737 0.820000 146 136 149
0.351675 0.096172 0.820000 148 131 156
0.350818 0.097370 0.818000 151 133 151
0.350818 0.098802 0.818000 150 134 146
0.349960 0.099989 0.816000 150 135 140
0.349960 0.101417 0.816000 147 134 135
0.349960 0.102845 0.816000 144 134 138
0.349531 0.104146 0.815000 145 137 142
0.349531 0.105573 0.815000 146 134 139
0.349531 0.106999 0.815000 146 138 136
0.349531 0.108426 0.815000 147 140 140
0.349531 0.109853 0.815000 148 149 144
0.349102 0.111143 0.814000 149 143 147
0.349102 0.112568 0.814000 153 151 150
0.349531 0.114133 0.815000 157 134 145
0.349531 0.115559 0.815000 147 124 141
0.348673 0.116699 0.813000 138 129 134
0.348673 0.118122 0.813000 142 132 127
0.348673 0.119545 0.813000 147 135 133
0.348673 0.120968 0.813000 149 137 139
0.348673 0.122391 0.813000 152 135 142
0.348673 0.123815 0.813000 151 138 145
0.348673 0.125238 0.813000 150 135 144
0.348673 0.126661 0.813000 149 132 143
0.348673 0.128084 0.813000 149 135 143
0.347816 0.129189 0.811000 145 146 144
0.347816 0.130608 0.811000 142 137 145
0.347816 0.132028 0.811000 146 136 146
0.346958 0.133119 0.809000 151 134 145
0.346958 0.134535 0.809000 154 132 144
0.346958 0.135951 0.809000 157 130 142
0.346958 0.137367 0.809000 153 129 140
0.346958 0.138783 0.809000 149 130 135
0.346958 0.140199 0.809000 149 138 131
0.346958 0.141615 0.809000 150 135 141
0.346958 0.143032 0.809000 150 133 151
0.346100 0.144091 0.807000 150 133 142
0.346100 0.145503 0.807000 148 132 132
0.346100 0.146916 0.807000 146 132 136
0.346100 0.148329 0.807000 148 135 139
0.346100 0.149741 0.807000 150 133 138
0.346100 0.151154 0.807000 151 132 137
0.345242 0.152188 0.805000 153 135 139
0.345242 0.153598 0.805000 156 140 142
0.345242 0.155007 0.805000 159 133 141
0.345242 0.156416 0.805000 153 129 140
0.345242 0.157825 0.805000 148 132 139
0.345242 0.159234 0.805000 141 138 139
0.344385 0.160244 0.803000 135 139 135
0.344385 0.161650 0.803000 140 139 131
0.344385 0.163056 0.803000 145 134 134
0.343527 0.164052 0.801000 147 133 137
0.343527 0.165454 0.801000 149 136 132
0.343527 0.166856 0.801000 149 144 127
0.403063 -0.367017 0.936000 154 133 144
0.403063 -0.365378 0.936000 149 133 143
0.401771 -0.362574 0.933000 145 133 141
0.400910 -0.360167 0.931000 150 134 140
0.401771 -0.359308 0.933000 156 131 145
0.401771 -0.357674 0.933000 153 130 150
0.400910 -0.355278 0.931000 150 131 145
0.400910 -0.353648 0.931000 150 135 140
0.400910 -0.352019 0.931000 151 144 140
0.399618 -0.349260 0.928000 148 135 141
0.400910 -0.348759 0.931000 146 131 139
0.400910 -0.347129 0.931000 149 128 138
0.400910 -0.345500 0.931000 152 123 130
0.401771 -0.344609 0.933000 155 131 122
0.400910 -0.342240 0.931000 158 134 129
0.401771 -0.341342 0.933000 157 135 137
0.400910 -0.338981 0.931000 156 135 143
0.398757 -0.335539 0.926000 157 136 149
0.398326 -0.333558 0.925000 158 137 143
0.397896 -0.331580 0.924000 155 138 137
0.397896 -0.329962 0.924000 153 136 124
0.397896 -0.328345 0.924000 153 138 112
0.398757 -0.327435 0.926000 153 138 123
0.397465 -0.324758 0.923000 151 141 134
0.397465 -0.323142 0.923000 149 143 140
0.396604 -0.320830 0.921000 152 132 147
0.396604 -0.319218 0.921000 154 134 149
0.396604 -0.317605 0.921000 153 136 152
0.396604 -0.315993 0.921000 152 135 147
0.395743 -0.313698 0.919000 154 134 142
0.394451 -0.311071 0.916000 156 133 144
0.394451 -0.309467 0.916000 156 135 146
0.394451 -0.307864 0.916000 156 146 141
0.394451 -0.306261 0.916000 158 140 137
0.394451 -0.304657 0.916000 161 141 139
0.393589 -0.302392 0.914000 159 137 141
0.393589 -0.300792 0.914000 157 136 143
0.393589 -0.299192 0.914000 155 136 146
0.393589 -0.297592 0.914000 152 135 150
0.392298 -0.295021 0.911000 154 138 154
0.392298 -0.293426 0.911000 156 138 164
0.391436 -0.291190 0.909000 155 138 174
0.391436 -0.289599 0.909000 155 139 161
0.391436 -0.288008 0.909000 156 140 149
0.391436 -0.286417 0.909000 157 140 147
0.391436 -0.284826 0.909000 157 139 146
0.390575 -0.282611 0.907000 157 138 144
0.390575 -0.281024 0.907000 157 138 142
0.390575 -0.279436 0.907000 157 135 142
0.390575 -0.277848 0.907000 156 135 143
0.391436 -0.276870 0.909000 156 139 138
0.391436 -0.275278 0.909000 157 137 133
0.391436 -0.273687 0.909000 159 136 142
0.392298 -0.272695 0.911000 157 135 151
0.391436 -0.270505 0.909000 156 135 157
0.390575 -0.268322 0.907000 154 137 164
0.389283 -0.265852 0.904000 153 139 155
0.389283 -0.264270 0.904000 151 140 147
0.389283 -0.262687 0.904000 149 142 149
0.388422 -0.260527 0.902000 153 144 152
0.388422 -0.258948 0.902000 157 144 153
0.388422 -0.257369 0.902000 157 140 154
0.388422 -0.255790 0.902000 158 136 149
0.387130 -0.253366 0.899000 159 137 145
0.388422 -0.252632 0.902000 161 137 137
0.388422 -0.251053 0.902000 158 137 129
0.387130 -0.248645 0.899000 155 137 139
0.387130 -0.247071 0.899000 153 139 149
0.387130 -0.245497 0.899000 151 140 149
0.387130 -0.243923 0.899000 155 140 149
0.387130 -0.242350 0.899000 159 140 150
0.387130 -0.240776 0.899000 157 139 152
0.387130 -0.239202 0.899000 156 139 150
0.387130 -0.237629 0.899000 157 139 149
0.387130 -0.236055 0.899000 158 139 150
0.387130 -0.234481 0.899000 159 138 152
0.387130 -0.232908 0.899000 161 139 151
0.387130 -0.231334 0.899000 158 137 150
0.387130 -0.229760 0.899000 156 136 151
0.387130 -0.228186 0.899000 157 134 153
0.386269 -0.226109 0.897000 158 126 145
0.386269 -0.224538 0.897000 157 136 137
0.386269 -0.222968 0.897000 156 143 147
0.385408 -0.220904 0.895000 155 140 158
0.385408 -0.219338 0.895000 153 137 155
0.384116 -0.217041 0.892000 154 140 153
0.384116 -0.215480 0.892000 155 142 139
0.384116 -0.213918 0.892000 157 140 126
0.384116 -0.212357 0.892000 159 141 135
0.384116 -0.210795 0.892000 157 140 145
0.384116 -0.209234 0.892000 156 141 144
0.385408 -0.208371 0.895000 156 140 143
0.384116 -0.206111 0.892000 157 139 146
0.384116 -0.204549 0.892000 156 141 150
0.384116 -0.202988 0.892000 156 142 154
0.384116 -0.201427 0.892000 155 142 159
0.383255 -0.199417 0.890000 154 138 161
0.385408 -0.198971 0.895000 153 140 164
0.385408 -0.197404 0.895000 153 142 160
0.382393 -0.194306 0.888000 154 141 156
0.382393 -0.192751 0.888000 155 140 152
0.381532 -0.190766 0.886000 155 142 149
0.381532 -0.189215 0.886000 156 142 151
0.380240 -0.187029 0.883000 156 140 153
0.380240 -0.185483 0.883000 156 140 159
0.380240 -0.183937 0.883000 157 142 166
0.380240 -0.182392 0.883000 158 142 159
0.380240 -0.180846 0.883000 156 143 152
0.380240 -0.179300 0.883000 154 145 148
0.380240 -0.177755 0.883000 158 142 144
0.380240 -0.176209 0.883000 161 140 147
0.380240 -0.174663 0.883000 157 139 150
0.380240 -0.173117 0.883000 153 139 152
0.380240 -0.171572 0.883000 156 141 155
0.379379 -0.169641 0.881000 160 142 147
0.379379 -0.168099 0.881000 155 142 139
0.378518 -0.166178 0.879000 150 143 147
0.378518 -0.164640 0.879000 152 144 155
0.378518 -0.163101 0.879000 155 142 151
0.378518 -0.161562 0.879000 157 143 148
0.378518 -0.160024 0.879000 160 145 149
0.378518 -0.158485 0.879000 158 143 150
0.378518 -0.156946 0.879000 157 141 145
0.378518 -0.155408 0.879000 155 141 141
0.378518 -0.153869 0.879000 152 142 145
0.378518 -0.152330 0.879000 155 142 149
0.378518 -0.150792 0.879000 157 142 145
0.377656 -0.148913 0.877000 160 144 142
0.377656 -0.147378 0.877000 163 144 140
0.377656 -0.145843 0.877000 159 139 139
0.377656 -0.144308 0.877000 155 137 144
0.377656 -0.142773 0.877000 155 141 150
0.377656 -0.141237 0.877000 156 142 154
0.377656 -0.139702 0.877000 156 141 159
0.377656 -0.138167 0.877000 157 140 162
0.376365 -0.136164 0.874000 155 135 165
0.376365 -0.134634 0.874000 154 134 160
0.375503 -0.132800 0.872000 158 137 155
0.375503 -0.131273 0.872000 162 139 153
0.375503 -0.129747 0.872000 159 141 152
0.375503 -0.128221 0.872000 157 145 158
0.374642 -0.126404 0.870000 157 145 164
0.374642 -0.124881 0.870000 158 145 158
0.374642 -0.123358 0.870000 157 143 152
0.374642 -0.121835 0.870000 156 140 150
0.374642 -0.120312 0.870000 158 142 148
0.374642 -0.118789 0.870000 160 146 149
0.374642 -0.117266 0.870000 156 142 150
0.374642 -0.115743 0.870000 153 141 153
0.374642 -0.114220 0.870000 155 140 156
0.374642 -0.112697 0.870000 158 140 158
0.374642 -0.111174 0.870000 156 142 160
0.374642 -0.109651 0.870000 155 146 157
0.374642 -0.108128 0.870000 155 143 155
0.373781 -0.106360 0.868000 156 141 156
0.373781 -0.104841 0.868000 156 142 157
0.373781 -0.103322 0.868000 157 143 156
0.373350 -0.101685 0.867000 160 141 156
0.373350 -0.100167 0.867000 162 139 155
0.372920 -0.098536 0.866000 156 138 154
0.372920 -0.097020 0.866000 151 136 155
0.372920 -0.095504 0.866000 154 141 157
0.372920 -0.093988 0.866000 157 144 151
0.371628 -0.092152 0.863000 156 144 145
0.371628 -0.090641 0.863000 154 144 134
0.371628 -0.089130 0.863000 156 141 124
0.371628 -0.087620 0.863000 157 141 151
0.371628 -0.086109 0.863000 160 142 179
0.371628 -0.084598 0.863000 162 142 165
0.371628 -0.083087 0.863000 156 143 152
0.371628 -0.081577 0.863000 150 144 153
0.370766 -0.079881 0.861000 152 142 155
0.370766 -0.078373 0.861000 155 139 153
0.370766 -0.076866 0.861000 154 143 152
0.370766 -0.075359 0.861000 153 143 161
0.370766 -0.073852 0.861000 155 141 170
0.370766 -0.072345 0.861000 158 139 162
0.370766 -0.070837 0.861000 156 142 154
0.370766 -0.069330 0.861000 154 139 151
0.369905 -0.067666 0.859000 157 141 149
0.369905 -0.066162 0.859000 160 143 147
0.369905 -0.064658 0.859000 157 140 145
0.369905 -0.063155 0.859000 155 139 150
0.369905 -0.061651 0.859000 154 138 155
0.369044 -0.060007 0.857000 154 137 147
0.368183 -0.058370 0.855000 151 140 139
0.368183 -0.056874 0.855000 149 142 144
0.368183 -0.055377 0.855000 152 141 150
0.368183 -0.053880 0.855000 155 141 149
0.368183 -0.052384 0.855000 158 140 148
0.367321 -0.050768 0.853000 161 138 150
0.367321 -0.049275 0.853000 158 138 152
0.367321 -0.047782 0.853000 155 139 159
0.366460 -0.046180 0.851000 154 137 167
0.366460 -0.044690 0.851000 153 138 159
0.366460 -0.043201 0.851000 152 140 151
0.366460 -0.041711 0.851000 152 140 152
0.366460 -0.040221 0.851000 155 139 154
0.367321 -0.038823 0.853000 158 139 153
0.367321 -0.037329 0.853000 156 140 153
0.366460 -0.035752 0.851000 154 142 144
0.366460 -0.034263 0.851000 157 141 135
0.366460 -0.032773 0.851000 160 139 124
0.366460 -0.031283 0.851000 158 142 114
0.366460 -0.029794 0.851000 156 144 135
0.366460 -0.028304 0.851000 154 142 157
0.366460 -0.026814 0.851000 153 139 169
0.366460 -0.025324 0.851000 152 140 181
0.366460 -0.023835 0.851000 152 139 167
0.365599 -0.022293 0.849000 153 142 154
0.364307 -0.020733 0.846000 154 147 153
0.365599 -0.019320 0.849000 153 143 152
0.365599 -0.017834 0.849000 152 138 155
0.364307 -0.016290 0.846000 151 138 159
0.364307 -0.014809 0.846000 151 138 157
0.364307 -0.013328 0.846000 151 138 155
0.364307 -0.011847 0.846000 151 137 150
0.364307 -0.010366 0.846000 149 138 146
0.363446 -0.008865 0.844000 148 141 148
0.363446 -0.007387 0.844000 150 138 151
0.363446 -0.005910 0.844000 152 137 142
0.363446 -0.004432 0.844000 149 136 133
0.363446 -0.002955 0.844000 145 137 138
0.363446 -0.001477 0.844000 149 137 143
0.363446 -0.000000 0.844000 152 139 143
0.363446 0.001477 0.844000 154 134 144
0.363446 0.002955 0.844000 156 126 134
0.362585 0.004422 0.842000 151 134 125
0.363446 0.005910 0.844000 147 139 132
0.362585 0.007370 0.842000 148 140 140
0.362585 0.008844 0.842000 149 140 139
0.362585 0.010317 0.842000 150 138 139
0.362585 0.011791 0.842000 152 137 134
0.362585 0.013265 0.842000 153 140 130
0.362585 0.014739 0.842000 154 142 137
0.361723 0.016175 0.840000 155 140 145
0.361723 0.017645 0.840000 157 140 144
0.360862 0.019070 0.838000 155 141 144
0.360862 0.020537 0.838000 154 138 143
0.360862 0.022004 0.838000 155 141 143
0.360862 0.023471 0.838000 157 142 129
0.360862 0.024938 0.838000 153 141 115
0.360001 0.026342 0.836000 149 142 126
0.360001 0.027805 0.836000 150 138 137
0.360001 0.029268 0.836000 152 136 133
0.360001 0.030732 0.836000 148 136 129
0.360862 0.032272 0.838000 145 138 136
0.360001 0.033659 0.836000 149 138 143
0.360001 0.035122 0.836000 154 137 134
0.360001 0.036585 0.836000 153 134 125
0.360001 0.038049 0.836000 152 132 137
0.359140 0.039418 0.834000 153 137 149
0.359140 0.040878 0.834000 153 137 149
0.359140 0.042338 0.834000 152 141 149
0.359140 0.043798 0.834000 152 143 149
0.358278 0.045149 0.832000 152 143 149
0.358278 0.046605 0.832000 153 145 154
0.358278 0.048062 0.832000 151 143 160
0.358278 0.049518 0.832000 150 141 157
0.358278 0.050975 0.832000 152 139 154
0.358278 0.052431 0.832000 153 138 144
0.357417 0.053758 0.830000 153 139 135
0.357417 0.055211 0.830000 152 141 141
0.357417 0.056664 0.830000 152 138 147
0.357417 0.058117 0.830000 153 135 150
0.357417 0.059570 0.830000 152 136 154
0.357417 0.061022 0.830000 152 139 148
0.356556 0.062325 0.828000 151 140 143
0.356556 0.063774 0.828000 151 140 135
0.356556 0.065224 0.828000 148 140 128
0.356556 0.066673 0.828000 146 141 136
0.356556 0.068123 0.828000 147 142 145
0.356556 0.069572 0.828000 147 146 144
0.355695 0.070850 0.826000 147 138 143
0.355695 0.072296 0.826000 147 137 145
0.355695 0.073742 0.826000 148 136 147
0.354833 0.075005 0.824000 150 135 146
0.354833 0.076448 0.824000 152 135 146
0.354833 0.077890 0.824000 155 137 143
0.354833 0.079333 0.824000 153 137 140
0.354833 0.080775 0.824000 151 137 152
0.354833 0.082218 0.824000 151 142 165
0.353972 0.083457 0.822000 152 147 153
0.353972 0.084896 0.822000 152 139 142
0.353972 0.086335 0.822000 152 139 140
0.353972 0.087774 0.822000 152 139 138
0.353972 0.089213 0.822000 152 136 140
0.353972 0.090651 0.822000 154 136 143
0.353111 0.091866 0.820000 156 139 138
0.353111 0.093302 0.820000 152 138 133
0.353111 0.094737 0.820000 148 135 139
0.353111 0.096172 0.820000 149 132 146
0.352250 0.097370 0.818000 150 132 146
0.352250 0.098802 0.818000 150 133 147
0.351388 0.099989 0.816000 149 136 139
0.351388 0.101417 0.816000 145 133 131
0.351388 0.102845 0.816000 141 133 136
0.351388 0.104274 0.816000 145 136 142
0.351388 0.105702 0.816000 148 139 143
0.351388 0.107131 0.816000 145 135 144
0.351388 0.108559 0.816000 142 130 147
0.351388 0.109987 0.816000 144 135 151
0.351388 0.111416 0.816000 146 131 155
0.351388 0.112844 0.816000 149 138 160
0.351388 0.114273 0.816000 153 135 149
0.350958 0.115559 0.815000 146 129 138
0.350527 0.116842 0.814000 140 128 125
0.350958 0.118413 0.815000 143 131 113
0.350958 0.119839 0.815000 146 134 124
0.350958 0.121266 0.815000 147 134 135
0.350097 0.122391 0.813000 149 134 139
0.350097 0.123815 0.813000 149 135 144
0.350958 0.125546 0.815000 148 136 143
0.350958 0.126973 0.815000 147 131 143
0.350097 0.128084 0.813000 147 128 145
0.350097 0.129507 0.813000 145 134 147
0.350097 0.130930 0.813000 144 134 149
0.350097 0.132354 0.813000 147 135 151
0.349235 0.133448 0.811000 151 138 148
0.349235 0.134867 0.811000 152 133 145
0.349235 0.136287 0.811000 154 129 140
0.349235 0.137707 0.811000 149 128 135
0.349235 0.139126 0.811000 145 121 129
0.349235 0.140546 0.811000 147 131 123
0.349235 0.141966 0.811000 149 134 139
0.349235 0.143385 0.811000 149 133 155
0.348374 0.144448 0.809000 150 134 137
0.348374 0.145864 0.809000 147 132 120
0.348374 0.147280 0.809000 144 131 129
0.348374 0.148696 0.809000 143 133 138
0.347513 0.149741 0.807000 143 132 140
0.347513 0.151154 0.807000 147 133 143
0.347513 0.152567 0.807000 151 135 141
0.346652 0.153598 0.805000 152 134 140
0.346652 0.155007 0.805000 154 130 132
0.346652 0.156416 0.805000 151 132 124
0.346652 0.157825 0.805000 147 136 131
0.346652 0.159234 0.805000 143 137 139
0.346652 0.160643 0.805000 139 139 138
0.346652 0.162053 0.805000 142 136 137
0.346652 0.163462 0.805000 145 132 136
0.345790 0.164461 0.803000 145 132 136
0.345790 0.165867 0.803000 146 132 128
0.344929 0.166856 0.801000 143 134 120
0.344929 0.168258 0.801000 141 129 128
0.344929 0.169660 0.801000 146 130 137
0.344929 0.171062 0.801000 151 127 141
0.405999 -0.368193 0.939000 155 134 147
0.405999 -0.366550 0.939000 147 133 142
0.405999 -0.364906 0.939000 140 134 143
0.404702 -0.362101 0.936000 150 137 144
0.404702 -0.360463 0.936000 161 136 145
0.404702 -0.358825 0.936000 155 128 146
0.404702 -0.357186 0.936000 149 131 143
0.403405 -0.354408 0.933000 149 132 140
0.403405 -0.352775 0.933000 150 134 144
0.403405 -0.351142 0.933000 147 131 149
0.403405 -0.349508 0.933000 145 131 145
0.403405 -0.347875 0.933000 147 128 141
0.403405 -0.346242 0.933000 150 127 135
0.403405 -0.344609 0.933000 152 128 129
0.403405 -0.342975 0.933000 155 133 131
0.404702 -0.342440 0.936000 154 139 133
0.403405 -0.339709 0.933000 154 136 146
0.401243 -0.336264 0.928000 153 135 159
0.401243 -0.334640 0.928000 153 136 150
0.400378 -0.332297 0.926000 151 141 142
0.400378 -0.330676 0.926000 150 140 135
0.400378 -0.329055 0.926000 150 135 129
0.399081 -0.326374 0.923000 151 136 134
0.399081 -0.324758 0.923000 148 142 139
0.399081 -0.323142 0.923000 145 136 144
0.399081 -0.321527 0.923000 148 123 150
0.399081 -0.319911 0.923000 152 133 156
0.399081 -0.318295 0.923000 151 139 162
0.399081 -0.316679 0.923000 151 136 153
0.398216 -0.314381 0.921000 153 135 145
0.397351 -0.312090 0.919000 155 131 142
0.396054 -0.309467 0.916000 155 125 138
0.396054 -0.307864 0.916000 155 135 140
0.396054 -0.306261 0.916000 156 137 141
0.396054 -0.304657 0.916000 157 136 141
0.396054 -0.303054 0.916000 157 134 141
0.395189 -0.300792 0.914000 157 135 141
0.395189 -0.299192 0.914000 153 137 141
0.395189 -0.297592 0.914000 149 137 147
0.395189 -0.295992 0.914000 152 141 152
0.393892 -0.293426 0.911000 156 138 158
0.393892 -0.291831 0.911000 156 135 164
0.393028 -0.289599 0.909000 157 137 153
0.393028 -0.288008 0.909000 157 141 142
0.393028 -0.286417 0.909000 157 139 143
0.393028 -0.284826 0.909000 158 138 144
0.393028 -0.283234 0.909000 160 139 143
0.393028 -0.281643 0.909000 158 141 143
0.393028 -0.280052 0.909000 157 138 142
0.393028 -0.278461 0.909000 157 130 142
0.393892 -0.277479 0.911000 157 135 141
0.393892 -0.275884 0.911000 159 135 141
0.395189 -0.275193 0.914000 162 134 144
0.395189 -0.273593 0.914000 159 128 148
0.395189 -0.271993 0.914000 156 134 148
0.393892 -0.269505 0.911000 153 138 147
0.393028 -0.267322 0.909000 151 139 146
0.392163 -0.265146 0.907000 147 140 146
0.392163 -0.263559 0.907000 144 141 148
0.390866 -0.261105 0.904000 150 147 150
0.390001 -0.258948 0.902000 157 145 151
0.390866 -0.257940 0.904000 158 145 152
0.390001 -0.255790 0.902000 159 139 149
0.390001 -0.254211 0.902000 162 138 146
0.390866 -0.253192 0.904000 165 137 143
0.390001 -0.251053 0.902000 159 138 141
0.390001 -0.249474 0.902000 153 137 149
0.390001 -0.247895 0.902000 150 138 158
0.390001 -0.246316 0.902000 147 139 153
0.390001 -0.244737 0.902000 152 141 149
0.390001 -0.243158 0.902000 158 140 146
0.390001 -0.241580 0.902000 157 139 143
0.390001 -0.240001 0.902000 156 140 150
0.390001 -0.238422 0.902000 158 142 157
0.390001 -0.236843 0.902000 160 139 155
0.388704 -0.234481 0.899000 162 138 154
0.388704 -0.232908 0.899000 165 137 153
0.388704 -0.231334 0.899000 161 136 153
0.388704 -0.229760 0.899000 157 136 154
0.388704 -0.228186 0.899000 157 141 156
0.388704 -0.226613 0.899000 158 137 150
0.387839 -0.224538 0.897000 157 142 144
0.387839 -0.222968 0.897000 156 142 151
0.387839 -0.221398 0.897000 156 140 159
0.386974 -0.219338 0.895000 156 139 155
0.386974 -0.217771 0.895000 156 140 152
0.386974 -0.216204 0.895000 156 138 144
0.386974 -0.214638 0.895000 158 130 136
0.386974 -0.213071 0.895000 160 137 143
0.386974 -0.211504 0.895000 157 139 150
0.386974 -0.209937 0.895000 155 140 148
0.386974 -0.208371 0.895000 156 140 147
0.386974 -0.206804 0.895000 158 140 149
0.386974 -0.205237 0.895000 157 143 151
0.386974 -0.203671 0.895000 157 144 152
0.385677 -0.201427 0.892000 155 149 153
0.385677 -0.199865 0.892000 154 143 156
0.386974 -0.198971 0.895000 152 140 159
0.387839 -0.197845 0.897000 151 141 157
0.384812 -0.194743 0.890000 152 143 156
0.383948 -0.192751 0.888000 154 140 154
0.383948 -0.191197 0.888000 154 138 152
0.383083 -0.189215 0.886000 155 140 152
0.383083 -0.187664 0.886000 155 140 152
0.383083 -0.186113 0.886000 155 140 155
0.383083 -0.184562 0.886000 157 148 159
0.383083 -0.183011 0.886000 159 144 155
0.383083 -0.181460 0.886000 158 141 151
0.383083 -0.179909 0.886000 157 142 144
0.383083 -0.178358 0.886000 161 145 137
0.383083 -0.176808 0.886000 165 141 144
0.383083 -0.175257 0.886000 157 137 152
0.383083 -0.173706 0.886000 150 139 155
0.381786 -0.171572 0.883000 157 142 158
0.380921 -0.169641 0.881000 164 142 154
0.380921 -0.168099 0.881000 154 144 151
0.380921 -0.166557 0.881000 145 145 159
0.380921 -0.165014 0.881000 150 148 167
0.380921 -0.163472 0.881000 155 145 160
0.380921 -0.161930 0.881000 158 144 152
0.380921 -0.160388 0.881000 161 143 152
0.380921 -0.158846 0.881000 159 143 152
0.380921 -0.157303 0.881000 158 141 150
0.380921 -0.155761 0.881000 157 140 149
0.380056 -0.153869 0.879000 156 142 153
0.380056 -0.152330 0.879000 157 146 158
0.380056 -0.150792 0.879000 158 143 154
0.380056 -0.149253 0.879000 163 144 150
0.380056 -0.147714 0.879000 169 143 154
0.380056 -0.146176 0.879000 162 133 158
0.380056 -0.144637 0.879000 155 135 155
0.380056 -0.143098 0.879000 156 143 153
0.380056 -0.141559 0.879000 157 142 156
0.380056 -0.140021 0.879000 157 142 159
0.380056 -0.138482 0.879000 157 140 161
0.379192 -0.136632 0.877000 154 136 163
0.379192 -0.135097 0.877000 151 135 155
0.377894 -0.133105 0.874000 153 138 148
0.377894 -0.131575 0.874000 156 138 150
0.377894 -0.130045 0.874000 155 138 152
0.377030 -0.128221 0.872000 155 142 156
0.377030 -0.126694 0.872000 156 145 160
0.377030 -0.125168 0.872000 157 144 156
0.377030 -0.123641 0.872000 156 143 152
0.377030 -0.122115 0.872000 155 142 151
0.376165 -0.120312 0.870000 156 142 150
0.376165 -0.118789 0.870000 157 142 151
0.376165 -0.117266 0.870000 156 138 153
0.377030 -0.116009 0.872000 155 140 155
0.377030 -0.114483 0.872000 157 141 157
0.377030 -0.112956 0.872000 160 140 158
0.377030 -0.111430 0.872000 157 140 159
0.377030 -0.109903 0.872000 155 142 158
0.377030 -0.108377 0.872000 155 143 158
0.376165 -0.106605 0.870000 156 142 161
0.376165 -0.105083 0.870000 156 143 165
0.375300 -0.103322 0.868000 157 142 162
0.375300 -0.101802 0.868000 158 141 159
0.375300 -0.100283 0.868000 159 139 161
0.374868 -0.098649 0.867000 157 140 164
0.374436 -0.097020 0.866000 156 139 160
0.374436 -0.095504 0.866000 156 142 156
0.374436 -0.093988 0.866000 157 144 153
0.373138 -0.092152 0.863000 156 145 150
0.373138 -0.090641 0.863000 155 143 143
0.373138 -0.089130 0.863000 156 140 137
0.373138 -0.087620 0.863000 158 140 150
0.373138 -0.086109 0.863000 162 141 164
0.373138 -0.084598 0.863000 166 139 150
0.373138 -0.083087 0.863000 156 145 137
0.373138 -0.081577 0.863000 147 144 145
0.373138 -0.080066 0.863000 151 143 153
0.373138 -0.078555 0.863000 155 144 151
0.373138 -0.077045 0.863000 152 154 149
0.372274 -0.075359 0.861000 150 146 154
0.372274 -0.073852 0.861000 152 142 160
0.372274 -0.072345 0.861000 155 140 152
0.372274 -0.070837 0.861000 153 139 144
0.372274 -0.069330 0.861000 152 140 145
0.372274 -0.067823 0.861000 154 143 147
0.372274 -0.066316 0.861000 156 142 151
0.372274 -0.064809 0.861000 155 140 155
0.372274 -0.063302 0.861000 154 139 156
0.372274 -0.061794 0.861000 154 140 157
0.371409 -0.060147 0.859000 155 139 151
0.371409 -0.058643 0.859000 155 141 146
0.371409 -0.057140 0.859000 156 140 149
0.370544 -0.055507 0.857000 155 139 153
0.369679 -0.053880 0.855000 155 139 152
0.369679 -0.052384 0.855000 156 140 151
0.368815 -0.050768 0.853000 157 139 151
0.368815 -0.049275 0.853000 156 138 151
0.368815 -0.047782 0.853000 156 137 154
0.368815 -0.046288 0.853000 153 135 158
0.368815 -0.044795 0.853000 151 133 150
0.367950 -0.043201 0.851000 151 142 143
0.368815 -0.041809 0.853000 151 141 151
0.368815 -0.040316 0.853000 153 138 160
0.368815 -0.038823 0.853000 155 140 155
0.369679 -0.037417 0.855000 155 141 150
0.368815 -0.035836 0.853000 156 139 145
0.368815 -0.034343 0.853000 159 140 140
0.368815 -0.032850 0.853000 163 140 135
0.368815 -0.031357 0.853000 159 143 130
0.368815 -0.029864 0.853000 156 143 142
0.368815 -0.028370 0.853000 154 143 154
0.368815 -0.026877 0.853000 152 139 160
0.368815 -0.025384 0.853000 148 137 167
0.368815 -0.023891 0.853000 144 138 158
0.368815 -0.022398 0.853000 148 140 148
0.367950 -0.020855 0.851000 153 143 148
0.367950 -0.019366 0.851000 153 144 149
0.367950 -0.017876 0.851000 154 141 152
0.367950 -0.016386 0.851000 153 139 156
0.367085 -0.014862 0.849000 152 139 159
0.367085 -0.013376 0.849000 152 140 161
0.365788 -0.011847 0.846000 153 139 156
0.365788 -0.010366 0.846000 153 140 150
0.365788 -0.008886 0.846000 153 139 155
0.365788 -0.007405 0.846000 154 137 159
0.365788 -0.005924 0.846000 156 137 149
0.364923 -0.004432 0.844000 152 140 140
0.364923 -0.002955 0.844000 149 138 140
0.364923 -0.001477 0.844000 151 136 141
0.364923 -0.000000 0.844000 153 139 142
0.364923 0.001477 0.844000 153 142 143
0.364923 0.002955 0.844000 154 135 138
0.364923 0.004432 0.844000 151 133 133
0.364923 0.005910 0.844000 148 137 137
0.364059 0.007370 0.842000 147 138 142
0.364059 0.008844 0.842000 147 136 141
0.364059 0.010317 0.842000 150 134 141
0.364923 0.011819 0.844000 153 136 139
0.364923 0.013297 0.844000 153 138 138
0.364059 0.014739 0.842000 154 138 142
0.364059 0.016213 0.842000 154 138 146
0.364059 0.017687 0.842000 155 139 145
0.363194 0.019115 0.840000 154 145 144
0.363194 0.020586 0.840000 153 140 144
0.362329 0.022004 0.838000 153 141 145
0.362329 0.023471 0.838000 153 143 135
0.362329 0.024938 0.838000 149 146 124
0.362329 0.026405 0.838000 145 139 134
0.362329 0.027872 0.838000 146 140 144
0.362329 0.029338 0.838000 148 136 140
0.362329 0.030805 0.838000 144 136 137
0.362329 0.032272 0.838000 141 138 142
0.362329 0.033739 0.838000 150 139 147
0.362329 0.035206 0.838000 159 137 142
0.361464 0.036585 0.836000 156 136 137
0.361464 0.038049 0.836000 153 135 142
0.361464 0.039512 0.836000 153 136 148
0.361464 0.040976 0.836000 153 135 145
0.360600 0.042338 0.834000 152 134 142
0.360600 0.043798 0.834000 152 139 144
0.360600 0.045257 0.834000 152 141 146
0.360600 0.046717 0.834000 153 140 146
0.360600 0.048177 0.834000 151 144 147
0.359735 0.049518 0.832000 149 141 148
0.359735 0.050975 0.832000 152 139 149
0.359735 0.052431 0.832000 155 138 140
0.358870 0.053758 0.830000 153 135 130
0.358870 0.055211 0.830000 152 137 140
0.358870 0.056664 0.830000 153 137 150
0.358870 0.058117 0.830000 154 135 151
0.358870 0.059570 0.830000 152 135 151
0.358870 0.061022 0.830000 151 138 148
0.358870 0.062475 0.830000 151 140 145
0.358870 0.063928 0.830000 152 138 139
0.358870 0.065381 0.830000 151 137 133
0.358870 0.066834 0.830000 150 139 138
0.358005 0.068123 0.828000 148 140 142
0.358005 0.069572 0.828000 147 139 138
0.358005 0.071021 0.828000 147 135 134
0.357141 0.072296 0.826000 148 137 139
0.357141 0.073742 0.826000 148 139 145
0.356276 0.075005 0.824000 149 137 147
0.356276 0.076448 0.824000 151 137 149
0.357141 0.078079 0.826000 153 137 147
0.357141 0.079525 0.826000 151 139 145
0.357141 0.080971 0.826000 150 138 151
0.356276 0.082218 0.824000 150 141 157
0.356276 0.083660 0.824000 151 140 150
0.356276 0.085102 0.824000 151 135 143
0.356276 0.086545 0.824000 151 137 142
0.355411 0.087774 0.822000 150 137 141
0.355411 0.089213 0.822000 150 136 143
0.355411 0.090651 0.822000 151 135 145
0.355411 0.092090 0.822000 152 136 141
0.355411 0.093529 0.822000 151 136 138
0.355411 0.094968 0.822000 151 134 142
0.355411 0.096407 0.822000 150 133 146
0.354546 0.097608 0.820000 150 132 150
0.353682 0.098802 0.818000 149 132 154
0.353682 0.100234 0.818000 149 133 145
0.353682 0.101666 0.818000 144 132 136
0.353682 0.103097 0.818000 139 133 140
0.353682 0.104529 0.818000 145 135 144
0.353682 0.105961 0.818000 151 136 148
0.353682 0.107393 0.818000 144 136 152
0.353682 0.108825 0.818000 137 133 148
0.353682 0.110257 0.818000 140 132 145
0.353682 0.111689 0.818000 143 132 145
0.353682 0.113121 0.818000 146 135 146
0.352817 0.114273 0.816000 150 134 139
0.352817 0.115701 0.816000 146 132 133
0.352817 0.117129 0.816000 142 131 126
0.352817 0.118558 0.816000 143 132 119
0.352384 0.119839 0.815000 145 133 126
0.352384 0.121266 0.815000 146 133 134
0.352384 0.122693 0.815000 147 134 138
0.352384 0.124119 0.815000 147 134 142
0.352384 0.125546 0.815000 147 133 141
0.352384 0.126973 0.815000 146 129 140
0.352384 0.128399 0.815000 145 127 144
0.352384 0.129826 0.815000 146 128 148
0.351520 0.130930 0.813000 147 132 149
0.351520 0.132354 0.813000 149 135 149
0.351520 0.133777 0.813000 151 135 147
0.351520 0.135200 0.813000 151 133 145
0.351520 0.136623 0.813000 152 132 140
0.351520 0.138046 0.813000 146 133 136
0.350655 0.139126 0.811000 141 131 131
0.351520 0.140893 0.813000 144 134 125
0.350655 0.141966 0.811000 148 135 137
0.350655 0.143385 0.811000 149 134 149
0.350655 0.144805 0.811000 151 133 139
0.349790 0.145864 0.809000 147 131 130
0.349790 0.147280 0.809000 143 133 134
0.349790 0.148696 0.809000 139 136 138
0.349790 0.150112 0.809000 136 135 144
0.348925 0.151154 0.807000 142 135 149
0.348925 0.152567 0.807000 149 135 145
0.348925 0.153979 0.807000 149 132 142
0.348925 0.155392 0.807000 150 132 136
0.348925 0.156805 0.807000 148 133 131
0.348925 0.158217 0.807000 147 135 136
0.348061 0.159234 0.805000 145 138 141
0.348061 0.160643 0.805000 144 136 140
0.348061 0.162053 0.805000 144 134 138
0.348061 0.163462 0.805000 145 132 139
0.348061 0.164871 0.805000 144 132 139
0.348061 0.166280 0.805000 143 132 137
0.347196 0.167273 0.803000 138 133 134
0.347196 0.168678 0.803000 134 131 138
0.347196 0.170084 0.803000 141 129 141
0.347196 0.171490 0.803000 148 129 143
0.346331 0.172465 0.801000 148 129 145
0.346331 0.173867 0.801000 148 130 144
0.346331 0.175269 0.801000 148 133 142
0.346331 0.176671 0.801000 149 131 142
0.408511 -0.368977 0.941000 152 136 151
0.408511 -0.367330 0.941000 148 135 142
0.407642 -0.364906 0.939000 145 135 145
0.407642 -0.363262 0.939000 150 138 148
0.407642 -0.361618 0.939000 156 149 145
0.407642 -0.359975 0.939000 150 138 143
0.406340 -0.357186 0.936000 145 136 141
0.406340 -0.355548 0.936000 148 134 140
0.406340 -0.353909 0.936000 152 132 149
0.405038 -0.351142 0.933000 149 132 158
0.405038 -0.349508 0.933000 147 137 151
0.405038 -0.347875 0.933000 149 131 145
0.406340 -0.347355 0.936000 151 130 140
0.406340 -0.345717 0.936000 152 131 136
0.406340 -0.344078 0.936000 154 132 132
0.406340 -0.342440 0.936000 155 134 129
0.406340 -0.340801 0.936000 157 136 149
0.405038 -0.338076 0.933000 155 135 170
0.404169 -0.335721 0.931000 154 134 158
0.402867 -0.333015 0.928000 153 140 147
0.401999 -0.330676 0.926000 152 150 147
0.401999 -0.329055 0.926000 152 137 147
0.401131 -0.326727 0.924000 151 132 146
0.401131 -0.325110 0.924000 150 138 145
0.401131 -0.323492 0.924000 148 139 149
0.401565 -0.322223 0.925000 150 134 153
0.401131 -0.320257 0.924000 152 137 162
0.401131 -0.318640 0.924000 150 138 172
0.401131 -0.317023 0.924000 148 138 160
0.400696 -0.315064 0.923000 151 135 149
0.398960 -0.312090 0.919000 154 131 140
0.398960 -0.310481 0.919000 154 129 131
0.398960 -0.308872 0.919000 154 132 138
0.398960 -0.307264 0.919000 154 135 146
0.398960 -0.305655 0.919000 155 134 144
0.397658 -0.303054 0.916000 155 135 142
0.397658 -0.301450 0.916000 155 136 139
0.397658 -0.299847 0.916000 153 131 137
0.397658 -0.298243 0.916000 151 136 144
0.397658 -0.296640 0.916000 155 139 151
0.396789 -0.294392 0.914000 159 140 152
0.396789 -0.292792 0.914000 158 136 154
0.395487 -0.290236 0.911000 157 136 144
0.395487 -0.288642 0.911000 156 137 135
0.395487 -0.287047 0.911000 155 138 138
0.395487 -0.285452 0.911000 156 138 142
0.395487 -0.283858 0.911000 157 139 143
0.395487 -0.282263 0.911000 156 140 144
0.395487 -0.280668 0.911000 155 147 143
0.395487 -0.279073 0.911000 154 140 142
0.396789 -0.278393 0.914000 153 138 145
0.396789 -0.276793 0.914000 156 137 149
0.396789 -0.275193 0.914000 158 137 147
0.396789 -0.273593 0.914000 157 135 146
0.396789 -0.271993 0.914000 155 137 138
0.395487 -0.269505 0.911000 153 138 131
0.394619 -0.267322 0.909000 152 140 138
0.394619 -0.265731 0.909000 150 139 145
0.393751 -0.263559 0.907000 148 135 147
0.393751 -0.261971 0.907000 152 141 149
0.393751 -0.260383 0.907000 156 146 149
0.393751 -0.258796 0.907000 156 143 150
0.393751 -0.257208 0.907000 157 140 148
0.393751 -0.255620 0.907000 157 138 147
0.393751 -0.254033 0.907000 157 137 150
0.393751 -0.252445 0.907000 156 137 153
0.393751 -0.250857 0.907000 154 138 160
0.392448 -0.248445 0.904000 153 138 167
0.392448 -0.246863 0.904000 152 139 158
0.392448 -0.245280 0.904000 157 140 150
0.391580 -0.243158 0.902000 163 141 142
0.391580 -0.241580 0.902000 157 139 135
0.391580 -0.240001 0.902000 151 142 150
0.391580 -0.238422 0.902000 155 141 165
0.391580 -0.236843 0.902000 158 138 160
0.390278 -0.234481 0.899000 160 137 156
0.390278 -0.232908 0.899000 161 136 156
0.390278 -0.231334 0.899000 158 134 157
0.390278 -0.229760 0.899000 155 131 158
0.390278 -0.228186 0.899000 155 136 159
0.390278 -0.226613 0.899000 156 141 155
0.389409 -0.224538 0.897000 154 143 152
0.389409 -0.222968 0.897000 153 145 156
0.389409 -0.221398 0.897000 156 141 160
0.389409 -0.219828 0.897000 159 139 156
0.389409 -0.218258 0.897000 158 140 152
0.388541 -0.216204 0.895000 158 142 149
0.388541 -0.214638 0.895000 158 138 147
0.388541 -0.213071 0.895000 159 139 151
0.388541 -0.211504 0.895000 156 139 155
0.388541 -0.209937 0.895000 153 140 153
0.388541 -0.208371 0.895000 157 139 152
0.388541 -0.206804 0.895000 161 139 152
0.388541 -0.205237 0.895000 159 141 152
0.388541 -0.203671 0.895000 157 145 150
0.388541 -0.202104 0.895000 157 146 148
0.388541 -0.200537 0.895000 158 146 151
0.388541 -0.198971 0.895000 155 142 154
0.389409 -0.197845 0.897000 153 140 155
0.386370 -0.194743 0.890000 154 140 156
0.385502 -0.192751 0.888000 155 139 155
0.385502 -0.191197 0.888000 155 138 155
0.385502 -0.189642 0.888000 155 141 153
0.385502 -0.188088 0.888000 154 138 151
0.385502 -0.186533 0.888000 153 133 151
0.385502 -0.184979 0.888000 155 143 152
0.385502 -0.183424 0.888000 158 145 151
0.384634 -0.181460 0.886000 156 141 150
0.385502 -0.180316 0.888000 154 140 140
0.384634 -0.178358 0.886000 158 142 130
0.384634 -0.176808 0.886000 161 142 142
0.384634 -0.175257 0.886000 157 141 155
0.384634 -0.173706 0.886000 154 141 158
0.384634 -0.172155 0.886000 157 141 161
0.383332 -0.170026 0.883000 161 141 162
0.383332 -0.168480 0.883000 155 144 164
0.383332 -0.166935 0.883000 150 148 172
0.382463 -0.165014 0.881000 153 147 180
0.382463 -0.163472 0.881000 156 147 168
0.382463 -0.161930 0.881000 157 143 157
0.382463 -0.160388 0.881000 158 143 156
0.382463 -0.158846 0.881000 157 142 155
0.383332 -0.157661 0.883000 156 140 156
0.383332 -0.156115 0.883000 153 140 157
0.382463 -0.154219 0.881000 151 141 162
0.382463 -0.152677 0.881000 154 142 168
0.382463 -0.151135 0.881000 157 143 163
0.381595 -0.149253 0.879000 159 146 159
0.381595 -0.147714 0.879000 162 153 168
0.381595 -0.146176 0.879000 155 139 177
0.381595 -0.144637 0.879000 149 129 167
0.381595 -0.143098 0.879000 153 140 157
0.381595 -0.141559 0.879000 157 144 158
0.381595 -0.140021 0.879000 157 142 160
0.381595 -0.138482 0.879000 157 142 160
0.381595 -0.136943 0.879000 154 137 161
0.380727 -0.135097 0.877000 152 134 151
0.380727 -0.133561 0.877000 155 137 141
0.379424 -0.131575 0.874000 158 139 146
0.379424 -0.130045 0.874000 156 139 152
0.378556 -0.128221 0.872000 154 143 154
0.378556 -0.126694 0.872000 154 143 157
0.378556 -0.125168 0.872000 154 143 154
0.378556 -0.123641 0.872000 155 142 152
0.378556 -0.122115 0.872000 156 143 152
0.377688 -0.120312 0.870000 156 141 152
0.377688 -0.118789 0.870000 156 143 154
0.377688 -0.117266 0.870000 155 141 157
0.378556 -0.116009 0.872000 154 140 158
0.378556 -0.114483 0.872000 155 141 159
0.378556 -0.112956 0.872000 157 140 158
0.378556 -0.111430 0.872000 154 140 158
0.378556 -0.109903 0.872000 152 141 160
0.378556 -0.108377 0.872000 153 142 162
0.378556 -0.106851 0.872000 155 143 167
0.377688 -0.105083 0.870000 156 144 173
0.376820 -0.103322 0.868000 157 144 167
0.376820 -0.101802 0.868000 158 140 162
0.376820 -0.100283 0.868000 158 139 168
0.376820 -0.098763 0.868000 158 139 175
0.376386 -0.097132 0.867000 157 140 165
0.376386 -0.095614 0.867000 157 141 156
0.376386 -0.094096 0.867000 158 145 155
0.375951 -0.092472 0.866000 156 144 155
0.375951 -0.090956 0.866000 155 143 152
0.375951 -0.089440 0.866000 155 140 150
0.374649 -0.087620 0.863000 156 139 150
0.375951 -0.086408 0.866000 157 137 150
0.374649 -0.084598 0.863000 159 129 136
0.374649 -0.083087 0.863000 155 140 122
0.374649 -0.081577 0.863000 150 145 136
0.374649 -0.080066 0.863000 153 143 151
0.374649 -0.078555 0.863000 157 142 148
0.374649 -0.077045 0.863000 154 145 146
0.374649 -0.075534 0.863000 152 147 148
0.374649 -0.074023 0.863000 153 142 150
0.374649 -0.072513 0.863000 155 140 142
0.374649 -0.071002 0.863000 154 139 134
0.374649 -0.069491 0.863000 154 140 139
0.374649 -0.067981 0.863000 154 143 145
0.374649 -0.066470 0.863000 155 145 155
0.374649 -0.064959 0.863000 152 142 165
0.374649 -0.063449 0.863000 149 140 162
0.373781 -0.061794 0.861000 152 139 160
0.373781 -0.060287 0.861000 155 140 156
0.372913 -0.058643 0.859000 155 139 153
0.372913 -0.057140 0.859000 155 139 154
0.372913 -0.055636 0.859000 155 138 156
0.372044 -0.054006 0.857000 154 137 155
0.371176 -0.052384 0.855000 154 139 155
0.371176 -0.050887 0.855000 154 140 153
0.371176 -0.049390 0.855000 156 138 151
0.370308 -0.047782 0.853000 158 138 150
0.370308 -0.046288 0.853000 155 132 149
0.370308 -0.044795 0.853000 152 120 142
0.370308 -0.043302 0.853000 149 137 135
0.370308 -0.041809 0.853000 147 144 150
0.371176 -0.040410 0.855000 151 142 166
0.371176 -0.038914 0.855000 156 143 156
0.371176 -0.037417 0.855000 155 139 147
0.371176 -0.035920 0.855000 155 136 146
0.371176 -0.034424 0.855000 157 138 145
0.371176 -0.032927 0.855000 159 139 146
0.371176 -0.031430 0.855000 157 141 147
0.370308 -0.029864 0.853000 155 144 149
0.370308 -0.028370 0.853000 153 142 151
0.370308 -0.026877 0.853000 152 140 152
0.370308 -0.025384 0.853000 150 137 154
0.370308 -0.023891 0.853000 148 136 148
0.370308 -0.022398 0.853000 151 138 143
0.370308 -0.020904 0.853000 155 142 144
0.370308 -0.019411 0.853000 155 142 146
0.370308 -0.017918 0.853000 156 143 150
0.369440 -0.016386 0.851000 155 141 154
0.369440 -0.014897 0.851000 154 142 161
0.368571 -0.013376 0.849000 155 143 168
0.368571 -0.011889 0.849000 156 142 161
0.368571 -0.010403 0.849000 154 139 155
0.367269 -0.008886 0.846000 153 138 161
0.367269 -0.007405 0.846000 153 138 168
0.367269 -0.005924 0.846000 154 137 157
0.367269 -0.004443 0.846000 152 139 147
0.367269 -0.002962 0.846000 150 140 143
0.367269 -0.001481 0.846000 152 138 139
0.367269 -0.000000 0.846000 155 139 140
0.367269 0.001481 0.846000 154 142 142
0.367269 0.002962 0.846000 154 142 141
0.367269 0.004443 0.846000 151 138 141
0.367269 0.005924 0.846000 149 138 142
0.366401 0.007387 0.844000 148 137 144
0.366401 0.008865 0.844000 146 134 143
0.366401 0.010342 0.844000 148 134 143
0.366401 0.011819 0.844000 151 135 145
0.366401 0.013297 0.844000 150 135 147
0.366401 0.014774 0.844000 150 137 147
0.366401 0.016252 0.844000 152 135 147
0.365532 0.017687 0.842000 154 135 145
0.365532 0.019161 0.842000 153 137 144
0.364664 0.020586 0.840000 153 139 146
0.364664 0.022056 0.840000 153 140 148
0.364664 0.023527 0.840000 153 143 141
0.364664 0.024997 0.840000 153 139 134
0.363796 0.026405 0.838000 153 128 143
0.363796 0.027872 0.838000 151 132 152
0.363796 0.029338 0.838000 150 133 148
0.363796 0.030805 0.838000 148 138 145
0.363796 0.032272 0.838000 145 142 148
0.363796 0.033739 0.838000 150 139 151
0.363796 0.035206 0.838000 155 137 150
0.363796 0.036673 0.838000 153 136 149
0.362928 0.038049 0.836000 152 137 148
0.362928 0.039512 0.836000 151 135 148
0.362928 0.040976 0.836000 151 133 142
0.362928 0.042439 0.836000 151 135 136
0.362928 0.043903 0.836000 152 139 139
0.362928 0.045366 0.836000 154 136 143
0.362928 0.046829 0.836000 157 131 139
0.362928 0.048293 0.836000 151 140 135
0.362059 0.049637 0.834000 146 143 140
0.362059 0.051097 0.834000 149 141 145
0.362059 0.052557 0.834000 151 141 135
0.362059 0.054017 0.834000 152 139 126
0.361191 0.055344 0.832000 153 138 140
0.362059 0.056937 0.834000 153 137 154
0.361191 0.058257 0.832000 153 135 151
0.361191 0.059713 0.832000 149 135 149
0.361191 0.061170 0.832000 146 138 148
0.361191 0.062626 0.832000 151 137 148
0.361191 0.064082 0.832000 156 136 143
0.361191 0.065539 0.832000 153 136 139
0.360323 0.066834 0.830000 151 138 139
0.360323 0.068287 0.830000 148 139 140
0.360323 0.069740 0.830000 146 138 132
0.360323 0.071193 0.830000 144 137 125
0.359455 0.072471 0.828000 143 138 134
0.359455 0.073920 0.828000 145 138 144
0.359455 0.075370 0.828000 148 138 148
0.359455 0.076819 0.828000 150 136 152
0.359455 0.078268 0.828000 153 138 151
0.359455 0.079718 0.828000 152 137 151
0.359455 0.081167 0.828000 150 136 150
0.358586 0.082417 0.826000 150 139 149
0.358586 0.083863 0.826000 150 140 147
0.358586 0.085309 0.826000 149 137 145
0.357718 0.086545 0.824000 147 137 144
0.357718 0.087987 0.824000 148 136 144
0.357718 0.089430 0.824000 149 136 145
0.356850 0.090651 0.822000 149 134 147
0.356850 0.092090 0.822000 150 136 145
0.356850 0.093529 0.822000 150 135 143
0.356850 0.094968 0.822000 151 135 145
0.356850 0.096407 0.822000 150 133 147
0.356850 0.097846 0.822000 150 131 154
0.355982 0.099043 0.820000 149 132 161
0.355113 0.100234 0.818000 148 134 151
0.355113 0.101666 0.818000 144 132 142
0.355982 0.103350 0.820000 141 134 144
0.355113 0.104529 0.818000 145 135 147
0.355982 0.106220 0.820000 150 137 153
0.355982 0.107656 0.820000 146 136 160
0.355982 0.109091 0.820000 141 136 149
0.355982 0.110527 0.820000 143 133 139
0.355982 0.111962 0.820000 145 133 135
0.355982 0.113397 0.820000 146 132 132
0.355982 0.114833 0.820000 147 136 130
0.355113 0.115985 0.818000 143 133 128
0.355113 0.117417 0.818000 139 132 127
0.355113 0.118848 0.818000 144 133 126
0.354245 0.119986 0.816000 149 135 129
0.354245 0.121415 0.816000 147 135 133
0.353811 0.122693 0.815000 146 135 136
0.353811 0.124119 0.815000 146 135 140
0.353811 0.125546 0.815000 146 136 139
0.353811 0.126973 0.815000 145 130 138
0.353811 0.128399 0.815000 143 125 144
0.353811 0.129826 0.815000 144 130 150
0.353811 0.131253 0.815000 145 132 149
0.353811 0.132679 0.815000 145 134 148
0.353811 0.134106 0.815000 145 135 146
0.353811 0.135532 0.815000 147 133 145
0.352943 0.136623 0.813000 150 133 141
0.352943 0.138046 0.813000 147 134 138
0.352943 0.139469 0.813000 144 136 133
0.352943 0.140893 0.813000 146 136 128
0.352943 0.142316 0.813000 148 138 135
0.352943 0.143739 0.813000 151 135 143
0.352075 0.144805 0.811000 153 135 142
0.352075 0.146225 0.811000 149 133 141
0.352075 0.147644 0.811000 146 135 140
0.352075 0.149064 0.811000 143 135 139
0.351206 0.150112 0.809000 141 137 147
0.351206 0.151529 0.809000 144 137 156
0.350338 0.152567 0.807000 148 138 150
0.350338 0.153979 0.807000 147 134 144
0.350338 0.155392 0.807000 147 133 141
0.350338 0.156805 0.807000 143 133 139
0.350338 0.158217 0.807000 140 136 141
0.350338 0.159630 0.807000 145 136 144
0.350338 0.161043 0.807000 150 135 142
0.350338 0.162455 0.807000 148 134 140
0.350338 0.163868 0.807000 146 133 141
0.350338 0.165281 0.807000 145 132 143
0.349470 0.166280 0.805000 143 134 146
0.349470 0.167689 0.805000 141 132 149
0.349470 0.169098 0.805000 140 134 147
0.349470 0.170507 0.805000 143 130 146
0.348602 0.171490 0.803000 146 131 146
0.348602 0.172895 0.803000 144 130 146
0.348602 0.174301 0.803000 142 131 145
0.347733 0.175269 0.801000 144 132 144
0.347733 0.176671 0.801000 147 134 143
0.347733 0.178073 0.801000 146 131 142
0.410158 -0.368977 0.941000 150 133 143
0.410158 -0.367330 0.941000 150 136 134
0.410158 -0.365683 0.941000 150 137 143
0.411466 -0.365196 0.944000 150 132 152
0.410158 -0.362389 0.941000 151 138 147
0.410158 -0.360741 0.941000 146 141 143
0.409286 -0.358331 0.939000 142 137 141
0.409286 -0.356687 0.939000 148 138 139
0.407979 -0.353909 0.936000 154 133 146
0.407979 -0.352271 0.936000 151 131 153
0.407979 -0.350632 0.936000 149 132 148
0.407979 -0.348994 0.936000 150 132 144
0.407979 -0.347355 0.936000 152 132 141
0.407979 -0.345717 0.936000 153 135 138
0.407979 -0.344078 0.936000 154 133 135
0.407979 -0.342440 0.936000 157 132 132
0.407979 -0.340801 0.936000 160 133 146
0.406671 -0.338076 0.933000 157 135 161
0.405799 -0.335721 0.931000 155 134 154
0.404492 -0.333015 0.928000 155 136 147
0.404492 -0.331391 0.928000 155 138 149
0.403620 -0.329055 0.926000 153 132 152
0.403620 -0.327435 0.926000 152 136 147
0.403620 -0.325814 0.926000 152 139 142
0.403620 -0.324193 0.926000 152 139 140
0.404492 -0.323268 0.928000 152 138 139
0.403620 -0.320951 0.926000 153 138 148
0.403620 -0.319330 0.926000 149 139 158
0.403620 -0.317709 0.926000 146 139 154
0.403620 -0.316088 0.926000 149 139 150
0.402312 -0.313448 0.923000 153 133 143
0.401440 -0.311157 0.921000 153 130 137
0.401440 -0.309544 0.921000 154 134 141
0.401440 -0.307932 0.921000 153 139 146
0.400569 -0.305655 0.919000 153 138 145
0.400569 -0.304046 0.919000 153 137 144
0.400569 -0.302437 0.919000 153 132 144
0.400569 -0.300829 0.919000 153 117 143
0.400569 -0.299220 0.919000 154 134 150
0.400569 -0.297611 0.919000 158 142 156
0.400569 -0.296003 0.919000 162 139 155
0.399261 -0.293433 0.916000 159 136 155
0.399261 -0.291829 0.916000 157 136 148
0.399261 -0.290226 0.916000 155 135 141
0.399261 -0.288622 0.916000 154 137 141
0.398389 -0.286392 0.914000 154 140 142
0.398389 -0.284792 0.914000 155 140 143
0.397082 -0.282263 0.911000 154 136 144
0.398389 -0.281592 0.914000 153 141 145
0.398389 -0.279992 0.914000 151 146 146
0.398389 -0.278393 0.914000 150 143 150
0.398389 -0.276793 0.914000 152 141 155
0.399261 -0.275795 0.916000 155 139 152
0.399261 -0.274191 0.916000 155 139 150
0.398389 -0.271993 0.914000 155 139 145
0.398389 -0.270393 0.914000 154 140 140
0.397082 -0.267911 0.911000 153 140 145
0.397082 -0.266316 0.911000 153 142 151
0.396210 -0.264140 0.909000 153 138 151
0.396210 -0.262549 0.909000 154 137 152
0.396210 -0.260958 0.909000 155 141 154
0.396210 -0.259366 0.909000 155 142 156
0.396210 -0.257775 0.909000 156 140 152
0.395338 -0.255620 0.907000 153 138 148
0.395338 -0.254033 0.907000 150 138 151
0.395338 -0.252445 0.907000 153 138 154
0.395338 -0.250857 0.907000 156 138 158
0.395338 -0.249269 0.907000 157 140 163
0.395338 -0.247682 0.907000 158 140 157
0.394031 -0.245280 0.904000 163 141 151
0.394031 -0.243698 0.904000 168 140 148
0.394031 -0.242115 0.904000 157 137 145
0.394031 -0.240533 0.904000 147 140 152
0.394031 -0.238950 0.904000 152 143 159
0.393159 -0.236843 0.902000 157 140 158
0.393159 -0.235264 0.902000 157 139 157
0.391851 -0.232908 0.899000 158 137 160
0.391851 -0.231334 0.899000 155 134 163
0.391851 -0.229760 0.899000 153 133 161
0.391851 -0.228186 0.899000 154 132 159
0.391851 -0.226613 0.899000 155 138 155
0.391851 -0.225039 0.899000 152 144 151
0.391851 -0.223465 0.899000 150 143 156
0.391851 -0.221892 0.899000 156 141 162
0.391851 -0.220318 0.899000 163 140 163
0.390979 -0.218258 0.897000 161 141 164
0.390979 -0.216687 0.897000 160 142 157
0.390979 -0.215117 0.897000 159 143 151
0.390979 -0.213547 0.897000 158 140 155
0.390979 -0.211977 0.897000 154 138 159
0.390108 -0.209937 0.895000 151 139 156
0.390108 -0.208371 0.895000 158 139 153
0.390108 -0.206804 0.895000 165 138 152
0.390108 -0.205237 0.895000 161 137 151
0.390108 -0.203671 0.895000 157 141 151
0.390108 -0.202104 0.895000 159 144 152
