ply
format ascii 1.0
element vertex 1291
property float x
property float y
property float z
property uchar red
property uchar green
property uchar blue
end_header
-0.827405 0.768305 1.986000 82 66 93
-0.827405 0.771782 1.986000 80 66 90
-0.822823 0.770964 1.975000 81 64 88
-1.494357 0.088274 3.602000 85 25 61
-1.494357 0.094580 3.602000 169 91 59
-1.510122 0.101949 3.640000 254 213 156
-1.510122 0.108321 3.640000 254 254 254
-1.510122 0.114693 3.640000 254 254 254
-1.510122 0.121065 3.640000 254 254 254
-1.510122 0.127436 3.640000 254 254 254
-1.510122 0.133808 3.640000 254 254 254
-1.510122 0.293104 3.640000 86 48 27
-1.494357 0.296349 3.602000 84 52 39
-1.510122 0.305847 3.640000 82 47 32
-1.510122 0.312219 3.640000 82 45 26
-1.510122 0.318591 3.640000 82 44 25
-1.510122 0.324963 3.640000 81 44 24
-1.510122 0.331335 3.640000 80 43 27
-1.494357 0.334181 3.602000 79 44 31
-1.510122 0.344078 3.640000 79 41 29
-1.494357 0.346792 3.602000 79 39 27
-1.494357 0.353097 3.602000 79 40 29
-1.494357 0.359402 3.602000 84 40 30
-1.494357 0.365707 3.602000 89 41 33
-1.494357 0.372013 3.602000 81 41 35
-1.494357 0.378318 3.602000 73 39 31
-1.479006 0.380673 3.565000 74 37 27
-1.479006 0.386913 3.565000 75 39 27
-1.479006 0.393154 3.565000 75 42 28
-1.479006 0.399394 3.565000 76 39 31
-1.479006 0.405635 3.565000 76 38 35
-1.479006 0.411875 3.565000 77 38 31
-1.494357 0.422455 3.602000 75 35 27
-1.494357 0.428761 3.602000 74 35 27
-1.494357 0.435066 3.602000 66 34 27
-1.494357 0.441371 3.602000 59 31 30
-1.494357 0.447676 3.602000 51 30 33
-1.510122 0.458771 3.640000 43 29 30
-1.510122 0.465143 3.640000 49 28 27
-1.510122 0.471515 3.640000 56 26 28
-1.510122 0.477887 3.640000 51 24 29
-1.510122 0.484258 3.640000 47 28 25
-1.510122 0.490630 3.640000 45 30 21
-1.510122 0.497002 3.640000 44 31 26
-1.526301 0.508767 3.679000 43 33 31
-1.526301 0.515207 3.679000 42 34 27
-1.526301 0.521647 3.679000 46 34 24
-1.526301 0.528087 3.679000 51 32 23
-1.526301 0.534528 3.679000 52 32 22
-1.510122 0.535233 3.640000 53 27 30
-1.510122 0.541605 3.640000 54 24 37
-1.510122 0.547977 3.640000 56 24 38
-1.510122 0.554348 3.640000 55 26 40
-1.510122 0.560720 3.640000 54 27 36
-1.510122 0.567092 3.640000 52 26 32
-1.510122 0.573464 3.640000 51 25 29
-1.510122 0.579836 3.640000 51 25 27
-1.510122 0.586208 3.640000 51 25 25
-1.510122 0.592579 3.640000 51 25 24
-1.510122 0.598951 3.640000 51 25 25
-1.510122 0.605323 3.640000 50 24 26
-1.510122 0.611695 3.640000 50 24 28
-1.510122 0.618067 3.640000 50 22 30
-1.510122 0.624439 3.640000 50 23 28
-1.510122 0.630810 3.640000 49 23 26
-1.494357 0.630530 3.602000 49 23 20
-1.494357 0.636836 3.602000 49 21 15
-1.510122 0.649926 3.640000 49 23 20
-1.510122 0.656298 3.640000 49 24 24
-1.510122 0.662669 3.640000 50 24 23
-1.510122 0.669041 3.640000 49 22 22
-1.510122 0.675413 3.640000 49 23 29
-1.510122 0.681785 3.640000 47 26 36
-1.510122 0.688157 3.640000 46 25 31
-1.510122 0.694529 3.640000 49 23 26
-1.510122 0.700900 3.640000 53 24 19
-1.494357 0.699889 3.602000 49 25 12
-1.494357 0.706194 3.602000 46 23 14
-1.494357 0.712499 3.602000 47 21 16
-1.494357 0.718804 3.602000 49 23 19
-1.494357 0.725110 3.602000 49 25 23
-1.479006 0.723902 3.565000 49 23 27
-1.479006 0.730142 3.565000 47 23 31
-1.494357 0.744026 3.602000 45 24 29
-1.494357 0.750331 3.602000 42 26 27
-1.494357 0.756636 3.602000 39 22 28
-1.479006 0.755105 3.565000 40 21 29
-1.479006 0.761345 3.565000 42 21 26
-1.479006 0.767586 3.565000 41 21 24
-1.479006 0.773826 3.565000 41 19 18
-1.479006 0.780067 3.565000 41 19 12
-1.479006 0.786307 3.565000 41 18 14
-1.463656 0.784322 3.528000 41 19 15
-1.463656 0.790498 3.528000 41 17 15
-1.463656 0.796674 3.528000 40 18 15
-1.479006 0.811269 3.565000 40 17 16
-1.463656 0.809025 3.528000 40 18 17
-1.463656 0.815201 3.528000 41 19 12
-1.479006 0.829991 3.565000 41 19 8
-1.479006 0.836231 3.565000 41 19 8
-1.463656 0.833728 3.528000 39 20 9
-1.463656 0.839904 3.528000 38 17 13
-1.463656 0.846080 3.528000 37 18 18
-1.463656 0.852256 3.528000 37 17 15
-1.463656 0.858431 3.528000 34 18 12
-1.463656 0.864607 3.528000 32 16 19
-1.463656 0.870783 3.528000 33 13 26
-1.463656 0.876959 3.528000 35 13 15
-1.463656 0.883134 3.528000 33 12 4
-1.479006 0.898637 3.565000 32 12 6
-1.479006 0.904877 3.565000 31 13 8
-1.479006 0.911118 3.565000 30 13 9
-1.479006 0.917358 3.565000 28 12 10
-1.479006 0.923599 3.565000 26 10 9
-1.479006 0.929839 3.565000 19 9 9
-1.479006 0.936080 3.565000 13 10 7
-1.479006 0.942320 3.565000 18 12 6
-1.463656 0.938716 3.528000 24 10 4
-1.479006 0.954802 3.565000 31 9 3
-1.463656 0.951068 3.528000 39 8 6
-1.463656 0.957244 3.528000 28 4 10
-1.479006 0.973523 3.565000 17 4 8
-1.463656 0.969595 3.528000 16 6 7
-1.463656 0.975771 3.528000 15 7 8
-1.479006 0.992245 3.565000 14 7 10
-1.463656 0.988122 3.528000 14 7 10
-1.463656 0.994298 3.528000 13 9 10
-1.463656 1.000474 3.528000 12 6 18
-1.078243 0.855316 2.599000 89 77 103
-1.070361 0.853579 2.580000 89 77 105
-1.062064 0.851443 2.560000 90 75 104
-1.062064 0.855925 2.560000 90 73 103
-1.054596 0.854356 2.542000 90 73 102
-1.046713 0.852387 2.523000 90 76 102
-1.039246 0.850691 2.505000 90 75 102
-1.031778 0.848931 2.487000 91 73 102
-1.016843 0.840933 2.451000 93 75 103
-1.009790 0.839361 2.434000 91 79 104
-1.002737 0.837730 2.417000 89 77 106
-0.995685 0.836039 2.400000 87 77 109
-0.981994 0.828687 2.367000 86 75 104
-0.962495 0.816293 2.320000 88 75 99
-0.955857 0.814697 2.304000 90 74 99
-0.949634 0.813400 2.289000 91 73 100
-0.943411 0.812050 2.274000 92 73 98
-0.937188 0.810648 2.259000 90 75 97
-0.925157 0.804145 2.230000 89 74 96
-0.918934 0.802613 2.215000 92 72 95
-0.918934 0.806491 2.215000 95 69 92
-0.907317 0.800124 2.187000 93 68 89
-0.901924 0.799173 2.174000 91 68 94
-0.890723 0.793006 2.147000 89 69 100
-0.890723 0.796765 2.147000 88 66 98
-0.879521 0.790456 2.120000 86 62 97
-0.869150 0.784802 2.095000 85 65 95
-0.858363 0.778684 2.069000 85 69 93
-0.858363 0.782306 2.069000 85 67 93
-0.848406 0.776811 2.045000 85 66 93
-0.838449 0.771232 2.021000 85 64 91
-0.833471 0.770169 2.009000 85 64 89
-0.828907 0.769450 1.998000 85 65 90
-0.823929 0.768305 1.986000 82 68 91
-0.823929 0.771782 1.986000 80 66 90
-0.819365 0.770964 1.975000 80 63 88
-1.472766 0.081127 3.565000 120 45 61
-1.488051 0.088274 3.602000 84 6 59
-1.488051 0.094580 3.602000 169 107 58
-1.503750 0.101949 3.640000 254 254 156
-1.503750 0.108321 3.640000 254 254 254
-1.503750 0.114693 3.640000 254 254 254
-1.503750 0.121065 3.640000 254 254 254
-1.503750 0.127436 3.640000 254 254 254
-1.503750 0.133808 3.640000 254 254 254
-1.488051 0.290044 3.602000 86 53 21
-1.488051 0.296349 3.602000 84 50 39
-1.488051 0.302655 3.602000 82 46 32
-1.488051 0.308960 3.602000 82 46 25
-1.488051 0.315265 3.602000 82 47 23
-1.488051 0.321571 3.602000 80 45 21
-1.503750 0.331335 3.640000 79 44 27
-1.488051 0.334181 3.602000 79 43 34
-1.503750 0.344078 3.640000 78 42 29
-1.503750 0.350450 3.640000 78 40 24
-1.488051 0.353097 3.602000 78 42 27
-1.488051 0.359402 3.602000 81 40 30
-1.488051 0.365707 3.602000 85 39 28
-1.472766 0.368192 3.565000 79 40 26
-1.472766 0.374432 3.565000 73 42 23
-1.472766 0.380673 3.565000 74 40 21
-1.472766 0.386913 3.565000 75 38 23
-1.472766 0.393154 3.565000 75 39 26
-1.472766 0.399394 3.565000 75 38 33
-1.472766 0.405635 3.565000 75 39 41
-1.472766 0.411875 3.565000 76 42 35
-1.488051 0.422455 3.602000 74 39 29
-1.488051 0.428761 3.602000 72 39 28
-1.503750 0.439656 3.640000 64 34 28
-1.503750 0.446028 3.640000 57 32 30
-1.503750 0.452399 3.640000 51 30 33
-1.503750 0.458771 3.640000 45 29 30
-1.503750 0.465143 3.640000 48 27 27
-1.503750 0.471515 3.640000 51 26 26
-1.503750 0.477887 3.640000 49 26 26
-1.503750 0.484258 3.640000 47 28 19
-1.503750 0.490630 3.640000 46 29 13
-1.503750 0.497002 3.640000 45 30 22
-1.503750 0.503374 3.640000 44 34 31
-1.503750 0.509746 3.640000 43 37 28
-1.503750 0.516118 3.640000 46 34 26
-1.503750 0.522489 3.640000 50 34 28
-1.503750 0.528861 3.640000 50 30 31
-1.503750 0.535233 3.640000 50 26 36
-1.503750 0.541605 3.640000 51 24 41
-1.503750 0.547977 3.640000 53 25 43
-1.503750 0.554348 3.640000 51 28 46
-1.503750 0.560720 3.640000 50 31 40
-1.503750 0.567092 3.640000 48 26 34
-1.503750 0.573464 3.640000 46 24 30
-1.503750 0.579836 3.640000 47 25 26
-1.503750 0.586208 3.640000 49 25 23
-1.503750 0.592579 3.640000 49 25 20
-1.503750 0.598951 3.640000 50 25 23
-1.503750 0.605323 3.640000 49 25 26
-1.503750 0.611695 3.640000 48 27 26
-1.503750 0.618067 3.640000 48 25 27
-1.503750 0.624439 3.640000 48 26 26
-1.503750 0.630810 3.640000 48 25 26
-1.488051 0.630530 3.602000 49 25 23
-1.488051 0.636836 3.602000 51 24 21
-1.503750 0.649926 3.640000 52 25 21
-1.503750 0.656298 3.640000 51 25 21
-1.503750 0.662669 3.640000 50 24 17
-1.503750 0.669041 3.640000 51 21 14
-1.503750 0.675413 3.640000 52 21 22
-1.503750 0.681785 3.640000 49 23 31
-1.503750 0.688157 3.640000 46 25 28
-1.488051 0.687278 3.602000 46 23 26
-1.488051 0.693583 3.602000 46 26 23
-1.488051 0.699889 3.602000 46 26 21
-1.488051 0.706194 3.602000 46 27 19
-1.488051 0.712499 3.602000 48 24 17
-1.488051 0.718804 3.602000 51 24 21
-1.488051 0.725110 3.602000 50 24 26
-1.488051 0.731415 3.602000 50 23 29
-1.488051 0.737720 3.602000 49 23 32
-1.488051 0.744026 3.602000 49 26 26
-1.488051 0.750331 3.602000 44 24 20
-1.488051 0.756636 3.602000 40 21 24
-1.488051 0.762942 3.602000 40 20 29
-1.472766 0.761345 3.565000 41 21 27
-1.488051 0.775552 3.602000 40 18 26
-1.472766 0.773826 3.565000 39 15 20
-1.472766 0.780067 3.565000 37 15 15
-1.472766 0.786307 3.565000 36 16 16
-1.472766 0.792548 3.565000 37 16 17
-1.472766 0.798788 3.565000 39 15 14
-1.472766 0.805029 3.565000 40 16 11
-1.472766 0.811269 3.565000 42 17 14
-1.472766 0.817510 3.565000 41 18 18
-1.472766 0.823750 3.565000 40 20 15
-1.472766 0.829991 3.565000 39 19 13
-1.472766 0.836231 3.565000 38 17 12
-1.472766 0.842472 3.565000 37 17 11
-1.457480 0.839904 3.528000 37 14 16
-1.457480 0.846080 3.528000 35 16 21
-1.457480 0.852256 3.528000 34 18 18
-1.457480 0.858431 3.528000 33 17 16
-1.457480 0.864607 3.528000 32 17 27
-1.457480 0.870783 3.528000 30 14 39
-1.457480 0.876959 3.528000 28 14 21
-1.457480 0.883134 3.528000 30 13 3
-1.472766 0.898637 3.565000 32 12 4
-1.472766 0.904877 3.565000 30 12 6
-1.472766 0.911118 3.565000 29 15 8
-1.472766 0.917358 3.565000 27 13 11
-1.472766 0.923599 3.565000 26 12 10
-1.472766 0.929839 3.565000 22 10 9
-1.472766 0.936080 3.565000 18 10 9
-1.472766 0.942320 3.565000 20 10 9
-1.472766 0.948561 3.565000 22 10 6
-1.457480 0.944892 3.528000 27 10 4
-1.457480 0.951068 3.528000 31 12 7
-1.457480 0.957244 3.528000 22 7 10
-1.457480 0.963419 3.528000 13 4 7
-1.457480 0.969595 3.528000 13 7 5
-1.457480 0.975771 3.528000 14 10 7
-1.472766 0.992245 3.565000 14 8 10
-1.457480 0.988122 3.528000 14 7 10
-1.457480 0.994298 3.528000 14 7 10
-1.457480 1.000474 3.528000 15 4 20
-1.073694 0.855316 2.599000 91 76 107
-1.065845 0.853579 2.580000 90 75 107
-1.057582 0.851443 2.560000 90 75 105
-1.057582 0.855925 2.560000 89 72 103
-1.042297 0.847970 2.523000 89 70 102
-1.034861 0.846306 2.505000 89 74 102
-1.027425 0.844578 2.487000 90 76 101
-1.027425 0.848931 2.487000 90 75 100
-1.012552 0.840933 2.451000 91 77 103
-1.005529 0.839361 2.434000 90 77 106
-0.998506 0.837730 2.417000 90 76 110
-0.984873 0.830465 2.384000 89 74 114
-0.977850 0.828687 2.367000 88 72 106
-0.958434 0.816293 2.320000 89 72 99
-0.951824 0.814697 2.304000 90 72 98
-0.945627 0.813400 2.289000 90 71 98
-0.939431 0.812050 2.274000 90 72 97
-0.933234 0.810648 2.259000 89 73 97
-0.921253 0.804145 2.230000 88 74 97
-0.915057 0.802613 2.215000 89 72 97
-0.909273 0.801393 2.201000 91 69 95
-0.903489 0.800124 2.187000 89 68 93
-0.892335 0.794027 2.160000 88 68 94
-0.886964 0.793006 2.147000 87 68 95
-0.886964 0.796765 2.147000 87 68 95
-0.881181 0.795303 2.133000 86 64 95
-0.865482 0.784802 2.095000 86 64 94
-0.854741 0.778684 2.069000 84 66 93
-0.854741 0.782306 2.069000 83 66 93
-0.839869 0.772252 2.033000 81 65 93
-0.834912 0.771232 2.021000 79 66 92
-0.829954 0.770169 2.009000 81 64 91
-0.825410 0.769450 1.998000 83 64 90
-0.825410 0.772947 1.998000 81 66 90
-0.820453 0.771782 1.986000 78 67 89
-0.815908 0.770964 1.975000 79 65 89
-1.466525 0.081127 3.565000 122 50 59
-1.481746 0.088274 3.602000 83 34 57
-1.481746 0.094580 3.602000 168 80 55
-1.497378 0.101949 3.640000 254 210 154
-1.497378 0.108321 3.640000 254 254 254
-1.497378 0.114693 3.640000 254 254 254
-1.497378 0.121065 3.640000 254 254 254
-1.497378 0.127436 3.640000 254 254 254
-1.497378 0.133808 3.640000 254 254 254
-1.497378 0.293104 3.640000 86 42 22
-1.481746 0.296349 3.602000 84 51 41
-1.481746 0.302655 3.602000 83 48 35
-1.481746 0.308960 3.602000 82 46 28
-1.481746 0.315265 3.602000 82 46 27
-1.481746 0.321571 3.602000 80 47 26
-1.481746 0.327876 3.602000 79 45 29
-1.481746 0.334181 3.602000 78 42 33
-1.497378 0.344078 3.640000 78 41 26
-1.481746 0.346792 3.602000 78 40 19
-1.481746 0.353097 3.602000 78 41 22
-1.481746 0.359402 3.602000 79 41 26
-1.481746 0.365707 3.602000 81 41 24
-1.481746 0.372013 3.602000 77 41 22
-1.466525 0.374432 3.565000 74 43 18
-1.466525 0.380673 3.565000 74 44 14
-1.466525 0.386913 3.565000 75 40 19
-1.466525 0.393154 3.565000 74 39 25
-1.466525 0.399394 3.565000 74 38 31
-1.466525 0.405635 3.565000 74 39 37
-1.466525 0.411875 3.565000 75 39 31
-1.481746 0.422455 3.602000 73 42 25
-1.481746 0.428761 3.602000 71 39 22
-1.497378 0.439656 3.640000 63 34 19
-1.497378 0.446028 3.640000 55 32 24
-1.497378 0.452399 3.640000 51 30 29
-1.497378 0.458771 3.640000 47 29 25
-1.497378 0.465143 3.640000 47 28 21
-1.497378 0.471515 3.640000 47 27 24
-1.497378 0.477887 3.640000 47 26 27
-1.497378 0.484258 3.640000 47 27 22
-1.497378 0.490630 3.640000 47 29 17
-1.497378 0.497002 3.640000 47 31 23
-1.497378 0.503374 3.640000 45 37 29
-1.497378 0.509746 3.640000 44 35 28
-1.497378 0.516118 3.640000 46 33 28
-1.497378 0.522489 3.640000 49 31 29
-1.497378 0.528861 3.640000 48 29 30
-1.497378 0.535233 3.640000 47 25 34
-1.497378 0.541605 3.640000 49 23 37
-1.497378 0.547977 3.640000 51 26 38
-1.497378 0.554348 3.640000 48 32 38
-1.497378 0.560720 3.640000 46 29 34
-1.497378 0.567092 3.640000 43 26 31
-1.497378 0.573464 3.640000 41 26 32
-1.497378 0.579836 3.640000 44 26 33
-1.497378 0.586208 3.640000 47 26 28
-1.497378 0.592579 3.640000 48 26 23
-1.497378 0.598951 3.640000 50 25 28
-1.497378 0.605323 3.640000 48 26 33
-1.497378 0.611695 3.640000 46 26 30
-1.497378 0.618067 3.640000 46 27 26
-1.497378 0.624439 3.640000 46 26 24
-1.497378 0.630810 3.640000 48 26 22
-1.481746 0.630530 3.602000 50 25 23
-1.497378 0.643554 3.640000 53 26 24
-1.497378 0.649926 3.640000 56 26 22
-1.497378 0.656298 3.640000 53 27 21
-1.497378 0.662669 3.640000 50 23 19
-1.497378 0.669041 3.640000 53 17 17
-1.481746 0.668362 3.602000 56 18 26
-1.497378 0.681785 3.640000 51 20 34
-1.497378 0.688157 3.640000 47 21 29
-1.481746 0.687278 3.602000 43 20 23
-1.481746 0.693583 3.602000 39 24 23
-1.481746 0.699889 3.602000 43 27 24
-1.481746 0.706194 3.602000 47 26 22
-1.481746 0.712499 3.602000 50 24 21
-1.481746 0.718804 3.602000 53 24 22
-1.481746 0.725110 3.602000 52 25 23
-1.481746 0.731415 3.602000 51 24 30
-1.481746 0.737720 3.602000 52 22 37
-1.481746 0.744026 3.602000 54 23 27
-1.497378 0.758247 3.640000 47 24 18
-1.481746 0.756636 3.602000 41 21 23
-1.481746 0.762942 3.602000 41 20 27
-1.481746 0.769247 3.602000 41 19 25
-1.481746 0.775552 3.602000 39 17 22
-1.466525 0.773826 3.565000 37 15 19
-1.466525 0.780067 3.565000 34 13 16
-1.466525 0.786307 3.565000 32 15 15
-1.466525 0.792548 3.565000 34 17 14
-1.451305 0.790498 3.528000 37 16 12
-1.466525 0.805029 3.565000 40 17 11
-1.466525 0.811269 3.565000 44 17 16
-1.466525 0.817510 3.565000 42 18 20
-1.466525 0.823750 3.565000 40 18 16
-1.466525 0.829991 3.565000 37 20 12
-1.466525 0.836231 3.565000 35 17 11
-1.466525 0.842472 3.565000 35 17 11
-1.451305 0.839904 3.528000 36 15 14
-1.451305 0.846080 3.528000 33 14 18
-1.466525 0.861194 3.565000 31 16 15
-1.466525 0.867434 3.565000 31 18 13
-1.466525 0.873675 3.565000 32 16 19
-1.466525 0.879915 3.565000 26 13 25
-1.451305 0.876959 3.528000 21 14 15
-1.451305 0.883134 3.528000 26 14 5
-1.466525 0.898637 3.565000 32 12 6
-1.466525 0.904877 3.565000 30 10 8
-1.466525 0.911118 3.565000 29 12 9
-1.466525 0.917358 3.565000 27 13 10
-1.466525 0.923599 3.565000 26 11 9
-1.466525 0.929839 3.565000 25 10 9
-1.466525 0.936080 3.565000 24 10 9
-1.466525 0.942320 3.565000 22 11 9
-1.466525 0.948561 3.565000 21 10 6
-1.466525 0.954802 3.565000 22 9 3
-1.451305 0.951068 3.528000 24 10 4
-1.451305 0.957244 3.528000 16 10 6
-1.451305 0.963419 3.528000 9 8 5
-1.451305 0.969595 3.528000 11 9 3
-1.451305 0.975771 3.528000 14 9 6
-1.451305 0.981947 3.528000 14 8 10
-1.436907 0.978320 3.493000 14 8 8
-1.451305 0.994298 3.528000 16 10 6
-1.436907 0.990549 3.493000 19 5 11
-1.436907 0.996663 3.493000 31 3 17
-1.073258 0.858606 2.609000 93 76 110
-1.061328 0.853579 2.580000 91 73 107
-1.061328 0.858095 2.580000 90 73 108
-1.053101 0.855925 2.560000 89 72 108
-1.037880 0.847970 2.523000 88 72 105
-1.030476 0.846306 2.505000 89 75 102
-1.023071 0.844578 2.487000 90 75 99
-1.015666 0.842787 2.469000 90 77 97
-1.008262 0.840933 2.451000 90 76 100
-1.001269 0.839361 2.434000 90 77 104
-0.994275 0.837730 2.417000 91 75 106
-0.987282 0.836039 2.400000 90 74 109
-0.967125 0.823085 2.351000 90 71 103
-0.947791 0.810664 2.304000 90 71 98
-0.941620 0.809393 2.289000 90 71 97
-0.935450 0.808070 2.274000 89 69 96
-0.935450 0.812050 2.274000 88 72 96
-0.923109 0.805265 2.244000 87 73 96
-0.917350 0.804145 2.230000 87 72 96
-0.911179 0.802613 2.215000 87 73 96
-0.905420 0.801393 2.201000 88 69 95
-0.894313 0.795368 2.174000 86 68 95
-0.888554 0.794027 2.160000 85 68 95
-0.883206 0.793006 2.147000 86 67 95
-0.888554 0.801589 2.160000 87 66 95
-0.877447 0.795303 2.133000 87 65 96
-0.861815 0.784802 2.095000 87 65 95
-0.851119 0.778684 2.069000 84 67 95
-0.851119 0.782306 2.069000 82 66 98
-0.836310 0.772252 2.033000 78 64 101
-0.826437 0.766653 2.009000 74 64 96
-0.826437 0.770169 2.009000 78 63 91
-0.821912 0.769450 1.998000 82 65 90
-0.821912 0.772947 1.998000 79 68 90
-0.816976 0.771782 1.986000 77 66 90
-0.812451 0.770964 1.975000 78 63 90
-1.460285 0.081127 3.565000 120 42 58
-1.475441 0.088274 3.602000 77 1 55
-1.475441 0.094580 3.602000 165 97 53
-1.491006 0.101949 3.640000 254 254 153
-1.491006 0.108321 3.640000 254 254 254
-1.491006 0.114693 3.640000 254 254 254
-1.491006 0.121065 3.640000 254 254 254
-1.506981 0.128802 3.679000 254 254 254
-1.506981 0.135242 3.679000 254 254 254
-1.491006 0.293104 3.640000 87 53 22
-1.475441 0.296349 3.602000 85 51 44
-1.475441 0.302655 3.602000 84 50 38
-1.475441 0.308960 3.602000 83 47 32
-1.475441 0.315265 3.602000 82 47 32
-1.475441 0.321571 3.602000 80 47 32
-1.475441 0.327876 3.602000 78 47 32
-1.475441 0.334181 3.602000 78 43 32
-1.491006 0.344078 3.640000 78 41 23
-1.491006 0.350450 3.640000 78 42 14
-1.475441 0.353097 3.602000 77 42 18
-1.475441 0.359402 3.602000 78 42 22
-1.475441 0.365707 3.602000 79 43 20
-1.475441 0.372013 3.602000 75 44 19
-1.475441 0.378318 3.602000 71 46 13
-1.460285 0.380673 3.565000 73 43 7
-1.460285 0.386913 3.565000 75 41 15
-1.475441 0.397234 3.602000 75 40 24
-1.475441 0.403539 3.602000 76 39 29
-1.475441 0.409845 3.602000 76 37 34
-1.475441 0.416150 3.602000 76 34 28
-1.475441 0.422455 3.602000 72 39 22
-1.475441 0.428761 3.602000 68 41 16
-1.491006 0.439656 3.640000 60 36 10
-1.491006 0.446028 3.640000 52 33 17
-1.491006 0.452399 3.640000 47 31 25
-1.491006 0.458771 3.640000 42 30 20
-1.491006 0.465143 3.640000 43 30 15
-1.491006 0.471515 3.640000 45 30 21
-1.491006 0.477887 3.640000 46 28 28
-1.491006 0.484258 3.640000 48 27 24
-1.491006 0.490630 3.640000 49 28 21
-1.491006 0.497002 3.640000 50 31 24
-1.491006 0.503374 3.640000 48 33 27
-1.491006 0.509746 3.640000 47 35 28
-1.491006 0.516118 3.640000 50 32 30
-1.491006 0.522489 3.640000 52 30 30
-1.491006 0.528861 3.640000 50 28 30
-1.491006 0.535233 3.640000 49 24 32
-1.491006 0.541605 3.640000 49 25 34
-1.491006 0.547977 3.640000 50 26 32
-1.491006 0.554348 3.640000 48 28 31
-1.491006 0.560720 3.640000 46 29 29
-1.491006 0.567092 3.640000 45 27 28
-1.491006 0.573464 3.640000 44 28 34
-1.491006 0.579836 3.640000 45 27 41
-1.491006 0.586208 3.640000 47 27 33
-1.491006 0.592579 3.640000 49 25 26
-1.491006 0.598951 3.640000 52 25 33
-1.491006 0.605323 3.640000 49 25 41
-1.491006 0.611695 3.640000 46 26 33
-1.491006 0.618067 3.640000 44 26 26
-1.491006 0.624439 3.640000 42 27 22
-1.491006 0.630810 3.640000 44 25 18
-1.475441 0.630530 3.602000 47 23 22
-1.475441 0.636836 3.602000 50 25 27
-1.491006 0.649926 3.640000 53 27 24
-1.491006 0.656298 3.640000 50 26 21
-1.475441 0.655751 3.602000 47 26 21
-1.491006 0.669041 3.640000 48 20 21
-1.475441 0.668362 3.602000 48 17 29
-1.491006 0.681785 3.640000 47 20 38
-1.491006 0.688157 3.640000 47 22 29
-1.475441 0.687278 3.602000 44 24 21
-1.475441 0.693583 3.602000 42 26 24
-1.475441 0.699889 3.602000 44 26 27
-1.475441 0.706194 3.602000 46 27 26
-1.475441 0.712499 3.602000 48 24 26
-1.491006 0.726388 3.640000 51 24 23
-1.475441 0.725110 3.602000 49 24 20
-1.475441 0.731415 3.602000 48 28 31
-1.491006 0.745503 3.640000 48 24 42
-1.491006 0.751875 3.640000 48 21 29
-1.491006 0.758247 3.640000 44 21 17
-1.491006 0.764619 3.640000 41 20 21
-1.491006 0.770990 3.640000 41 19 26
-1.475441 0.769247 3.602000 41 20 22
-1.475441 0.775552 3.602000 39 18 19
-1.475441 0.781858 3.602000 38 18 18
-1.475441 0.788163 3.602000 36 15 17
-1.475441 0.794468 3.602000 35 17 14
-1.460285 0.792548 3.565000 35 17 11
-1.460285 0.798788 3.565000 35 17 11
-1.460285 0.805029 3.565000 35 17 12
-1.460285 0.811269 3.565000 35 18 17
-1.460285 0.817510 3.565000 36 17 23
-1.460285 0.823750 3.565000 37 17 17
-1.460285 0.829991 3.565000 37 18 12
-1.460285 0.836231 3.565000 37 17 11
-1.460285 0.842472 3.565000 36 16 11
-1.445129 0.839904 3.528000 36 15 13
-1.445129 0.846080 3.528000 35 15 15
-1.460285 0.861194 3.565000 34 16 12
-1.460285 0.867434 3.565000 33 16 10
-1.460285 0.873675 3.565000 32 16 11
-1.460285 0.879915 3.565000 28 15 12
-1.460285 0.886156 3.565000 25 15 10
-1.460285 0.892396 3.565000 30 14 8
-1.460285 0.898637 3.565000 36 13 9
-1.460285 0.904877 3.565000 32 10 10
-1.460285 0.911118 3.565000 29 10 10
-1.460285 0.917358 3.565000 28 10 10
-1.460285 0.923599 3.565000 28 9 9
-1.460285 0.929839 3.565000 26 9 9
-1.460285 0.936080 3.565000 24 10 9
-1.460285 0.942320 3.565000 22 11 9
-1.445129 0.938716 3.528000 21 13 5
-1.445129 0.944892 3.528000 22 11 2
-1.445129 0.951068 3.528000 23 10 2
-1.430793 0.947747 3.493000 17 9 3
-1.430793 0.953862 3.493000 12 9 2
-1.445129 0.969595 3.528000 12 9 2
-1.430793 0.966091 3.493000 12 10 6
-1.445129 0.981947 3.528000 9 9 10
-1.430793 0.978320 3.493000 7 10 6
-1.430793 0.984434 3.493000 13 8 2
-1.430793 0.990549 3.493000 18 5 3
-1.437756 1.001514 3.510000 32 12 4
-1.275957 0.943336 3.115000 90 73 127
-1.072787 0.861897 2.619000 93 79 112
-1.064595 0.859865 2.599000 93 76 108
-1.056812 0.858095 2.580000 94 75 111
-1.048620 0.855925 2.560000 90 72 114
-1.033464 0.847970 2.523000 87 73 108
-1.033464 0.852387 2.523000 88 73 103
-1.018718 0.844578 2.487000 90 73 98
-1.011345 0.842787 2.469000 89 75 94
-0.997008 0.835101 2.434000 89 76 98
-0.990044 0.833499 2.417000 91 75 102
-0.990044 0.837730 2.417000 93 75 103
-0.983081 0.836039 2.400000 91 73 104
-0.950312 0.812232 2.320000 90 70 100
-0.937613 0.805386 2.289000 89 71 97
-0.937613 0.809393 2.289000 89 72 95
-0.931469 0.808070 2.274000 88 72 94
-0.925325 0.806694 2.259000 88 76 95
-0.919181 0.805265 2.244000 87 72 96
-0.913446 0.804145 2.230000 87 71 95
-0.907302 0.802613 2.215000 88 71 95
-0.901567 0.801393 2.201000 88 69 96
-0.890507 0.795368 2.174000 86 69 98
-0.890507 0.799173 2.174000 85 70 96
-0.884773 0.797808 2.160000 87 67 95
-0.884773 0.801589 2.160000 89 64 96
-0.873713 0.795303 2.133000 87 64 97
-0.852823 0.779932 2.082000 86 66 97
-0.847498 0.778684 2.069000 84 66 97
-0.842582 0.777768 2.057000 82 67 103
-0.827836 0.767694 2.021000 81 65 109
-0.822921 0.766653 2.009000 81 64 100
-0.818415 0.765952 1.998000 82 64 92
-0.818415 0.769450 1.998000 83 67 91
-0.818415 0.772947 1.998000 81 66 90
-0.813499 0.771782 1.986000 79 67 91
-0.813499 0.775258 1.986000 80 64 92
-1.438953 0.080285 3.528000 118 11 61
-1.469135 0.088274 3.602000 72 16 55
-1.469135 0.094580 3.602000 163 54 49
-1.484634 0.101949 3.640000 254 204 151
-1.484634 0.108321 3.640000 254 254 254
-1.484634 0.114693 3.640000 254 254 254
-1.484634 0.121065 3.640000 254 254 254
-1.484634 0.127436 3.640000 254 254 254
-1.484634 0.133808 3.640000 254 254 254
-1.484634 0.286732 3.640000 68 1 1
-1.469135 0.290044 3.602000 89 39 22
-1.469135 0.296349 3.602000 87 50 43
-1.469135 0.302655 3.602000 85 47 41
-1.469135 0.308960 3.602000 83 46 39
-1.469135 0.315265 3.602000 82 46 35
-1.469135 0.321571 3.602000 79 47 32
-1.469135 0.327876 3.602000 77 47 32
-1.469135 0.334181 3.602000 78 44 33
-1.469135 0.340486 3.602000 79 43 26
-1.469135 0.346792 3.602000 78 45 20
-1.469135 0.353097 3.602000 77 44 21
-1.469135 0.359402 3.602000 77 42 23
-1.484634 0.369566 3.640000 77 43 22
-1.469135 0.372013 3.602000 72 46 22
-1.469135 0.378318 3.602000 68 43 17
-1.469135 0.384623 3.602000 71 41 13
-1.469135 0.390929 3.602000 75 41 17
-1.469135 0.397234 3.602000 77 44 22
-1.469135 0.403539 3.602000 79 39 26
-1.469135 0.409845 3.602000 78 37 30
-1.469135 0.416150 3.602000 77 37 29
-1.469135 0.422455 3.602000 71 40 28
-1.484634 0.433284 3.640000 65 41 28
-1.484634 0.439656 3.640000 57 39 28
-1.484634 0.446028 3.640000 49 34 28
-1.484634 0.452399 3.640000 43 33 27
-1.484634 0.458771 3.640000 37 31 23
-1.484634 0.465143 3.640000 40 34 19
-1.484634 0.471515 3.640000 44 30 24
-1.484634 0.477887 3.640000 46 29 29
-1.484634 0.484258 3.640000 49 27 27
-1.484634 0.490630 3.640000 51 26 25
-1.484634 0.497002 3.640000 53 29 27
-1.484634 0.503374 3.640000 52 30 29
-1.484634 0.509746 3.640000 51 32 31
-1.484634 0.516118 3.640000 53 33 34
-1.484634 0.522489 3.640000 56 30 32
-1.484634 0.528861 3.640000 53 29 30
-1.484634 0.535233 3.640000 51 26 30
-1.484634 0.541605 3.640000 50 28 30
-1.484634 0.547977 3.640000 50 26 26
-1.484634 0.554348 3.640000 48 27 22
-1.484634 0.560720 3.640000 47 28 24
-1.484634 0.567092 3.640000 47 28 26
-1.484634 0.573464 3.640000 47 27 28
-1.484634 0.579836 3.640000 47 29 31
-1.484634 0.586208 3.640000 47 27 29
-1.484634 0.592579 3.640000 50 25 27
-1.484634 0.598951 3.640000 54 25 30
-1.484634 0.605323 3.640000 50 25 34
-1.484634 0.611695 3.640000 46 26 31
-1.484634 0.618067 3.640000 42 25 28
-1.484634 0.624439 3.640000 38 25 25
-1.484634 0.630810 3.640000 41 25 21
-1.469135 0.630530 3.602000 44 23 24
-1.469135 0.636836 3.602000 47 25 26
-1.469135 0.643141 3.602000 50 25 25
-1.469135 0.649446 3.602000 47 25 23
-1.469135 0.655751 3.602000 45 24 21
-1.469135 0.662057 3.602000 43 21 19
-1.469135 0.668362 3.602000 41 20 22
-1.484634 0.681785 3.640000 44 23 26
-1.469135 0.680973 3.602000 47 23 23
-1.469135 0.687278 3.602000 46 28 21
-1.484634 0.700900 3.640000 46 26 24
-1.484634 0.707272 3.640000 46 26 28
-1.484634 0.713644 3.640000 46 24 26
-1.484634 0.720016 3.640000 47 23 24
-1.484634 0.726388 3.640000 49 22 19
-1.484634 0.732759 3.640000 47 20 14
-1.484634 0.739131 3.640000 46 24 23
-1.484634 0.745503 3.640000 44 26 31
-1.484634 0.751875 3.640000 42 22 21
-1.484634 0.758247 3.640000 41 19 10
-1.484634 0.764619 3.640000 41 19 15
-1.484634 0.770990 3.640000 41 17 19
-1.484634 0.777362 3.640000 41 18 17
-1.484634 0.783734 3.640000 40 18 15
-1.469135 0.781858 3.602000 39 16 14
-1.469135 0.788163 3.602000 38 15 12
-1.469135 0.794468 3.602000 38 16 13
-1.454044 0.792548 3.565000 36 18 14
-1.454044 0.798788 3.565000 34 17 12
-1.454044 0.805029 3.565000 30 19 10
-1.454044 0.811269 3.565000 27 17 14
-1.454044 0.817510 3.565000 30 17 19
-1.454044 0.823750 3.565000 34 18 14
-1.454044 0.829991 3.565000 36 20 10
-1.454044 0.836231 3.565000 39 16 11
-1.438953 0.833728 3.528000 38 16 12
-1.438953 0.839904 3.528000 37 15 13
-1.438953 0.846080 3.528000 37 15 14
-1.438953 0.852256 3.528000 37 14 12
-1.454044 0.867434 3.565000 34 15 10
-1.454044 0.873675 3.565000 32 16 10
-1.454044 0.879915 3.565000 31 17 10
-1.454044 0.886156 3.565000 30 15 9
-1.454044 0.892396 3.565000 35 14 8
-1.454044 0.898637 3.565000 40 12 9
-1.454044 0.904877 3.565000 35 10 10
-1.469135 0.920574 3.602000 30 10 12
-1.469135 0.926879 3.602000 30 11 13
-1.469135 0.933185 3.602000 30 9 11
-1.454044 0.929839 3.565000 27 9 9
-1.454044 0.936080 3.565000 25 9 10
-1.454044 0.942320 3.565000 23 11 12
-1.438953 0.938716 3.528000 21 11 7
-1.438953 0.944892 3.528000 21 12 3
-1.438953 0.951068 3.528000 22 9 7
-1.424678 0.947747 3.493000 18 7 11
-1.424678 0.953862 3.493000 15 8 7
-1.438953 0.969595 3.528000 12 10 3
-1.438953 0.975771 3.528000 10 9 7
-1.438953 0.981947 3.528000 5 8 12
-1.424678 0.978320 3.493000 1 8 11
-1.424678 0.984434 3.493000 9 9 9
-1.438953 1.000474 3.528000 18 5 13
-1.438953 1.006650 3.528000 34 3 17
-1.281924 0.951815 3.143000 91 76 117
-1.281924 0.957317 3.143000 91 75 112
-1.068202 0.861897 2.619000 94 78 108
-1.052296 0.853579 2.580000 96 78 105
-1.052296 0.858095 2.580000 98 75 104
-1.044138 0.855925 2.560000 92 71 104
-1.029047 0.847970 2.523000 87 72 103
-1.021706 0.846306 2.505000 88 73 102
-1.014364 0.844578 2.487000 90 74 99
-0.999681 0.836643 2.451000 89 74 95
-0.992747 0.835101 2.434000 89 74 99
-0.985813 0.833499 2.417000 92 72 103
-0.978880 0.831838 2.400000 95 73 105
-0.972354 0.830465 2.384000 93 73 108
-0.946250 0.812232 2.320000 91 72 103
-0.933607 0.805386 2.289000 89 72 98
-0.933607 0.809393 2.289000 88 72 96
-0.927489 0.808070 2.274000 88 73 95
-0.921370 0.806694 2.259000 88 72 96
-0.915253 0.805265 2.244000 88 69 97
-0.909542 0.804145 2.230000 88 70 95
-0.903424 0.802613 2.215000 88 71 93
-0.886702 0.791562 2.174000 89 70 94
-0.886702 0.795368 2.174000 87 70 95
-0.880992 0.794027 2.160000 85 69 93
-0.875689 0.793006 2.147000 88 68 92
-0.880992 0.801589 2.160000 91 66 95
-0.869979 0.795303 2.133000 88 64 98
-0.849178 0.779932 2.082000 86 64 96
-0.843876 0.778684 2.069000 84 64 94
-0.829193 0.768694 2.033000 83 65 95
-0.824298 0.767694 2.021000 85 65 96
-0.819404 0.766653 2.009000 88 65 92
-0.816957 0.767869 2.003000 86 65 89
-0.814917 0.769450 1.998000 84 65 88
-0.814917 0.772947 1.998000 83 65 87
-0.810023 0.771782 1.986000 82 65 88
-0.805536 0.770964 1.975000 82 64 90
-1.418563 0.073374 3.493000 169 117 159
-1.432777 0.080285 3.528000 121 35 65
-1.462830 0.088274 3.602000 74 1 55
-1.462830 0.094580 3.602000 164 94 46
-1.478262 0.101949 3.640000 254 254 150
-1.478262 0.108321 3.640000 254 254 254
-1.478262 0.114693 3.640000 254 254 254
-1.494101 0.122362 3.679000 254 254 254
-1.494101 0.128802 3.679000 254 254 254
-1.494101 0.135242 3.679000 254 254 254
-1.478262 0.293104 3.640000 89 55 22
-1.478262 0.299476 3.640000 86 49 43
-1.462830 0.302655 3.602000 84 44 44
-1.462830 0.308960 3.602000 82 44 46
-1.462830 0.315265 3.602000 81 45 39
-1.462830 0.321571 3.602000 79 47 33
-1.462830 0.327876 3.602000 77 50 33
-1.462830 0.334181 3.602000 77 46 34
-1.462830 0.340486 3.602000 78 44 30
-1.462830 0.346792 3.602000 77 45 26
-1.462830 0.353097 3.602000 75 47 25
-1.462830 0.359402 3.602000 76 44 24
-1.462830 0.365707 3.602000 77 44 25
-1.462830 0.372013 3.602000 75 43 26
-1.478262 0.382309 3.640000 74 41 22
-1.462830 0.384623 3.602000 74 40 19
-1.462830 0.390929 3.602000 75 41 20
-1.462830 0.397234 3.602000 76 41 21
-1.462830 0.403539 3.602000 78 39 23
-1.462830 0.409845 3.602000 76 37 26
-1.478262 0.420540 3.640000 75 38 30
-1.478262 0.426912 3.640000 70 39 34
-1.478262 0.433284 3.640000 66 44 40
-1.478262 0.439656 3.640000 58 37 47
-1.478262 0.446028 3.640000 50 33 38
-1.478262 0.452399 3.640000 46 32 30
-1.478262 0.458771 3.640000 42 30 27
-1.462830 0.460287 3.602000 44 30 24
-1.478262 0.471515 3.640000 46 29 27
-1.478262 0.477887 3.640000 48 26 30
-1.478262 0.484258 3.640000 49 26 29
-1.478262 0.490630 3.640000 53 27 29
-1.478262 0.497002 3.640000 57 29 30
-1.478262 0.503374 3.640000 55 30 32
-1.478262 0.509746 3.640000 52 32 35
-1.478262 0.516118 3.640000 52 30 38
-1.478262 0.522489 3.640000 53 28 34
-1.478262 0.528861 3.640000 52 27 30
-1.478262 0.535233 3.640000 51 26 28
-1.478262 0.541605 3.640000 51 26 27
-1.478262 0.547977 3.640000 51 23 20
-1.478262 0.554348 3.640000 52 26 14
-1.478262 0.560720 3.640000 52 29 19
-1.478262 0.567092 3.640000 50 27 24
-1.478262 0.573464 3.640000 48 25 22
-1.478262 0.579836 3.640000 47 26 21
-1.478262 0.586208 3.640000 46 28 24
-1.478262 0.592579 3.640000 49 26 28
-1.478262 0.598951 3.640000 52 26 27
-1.478262 0.605323 3.640000 49 26 27
-1.478262 0.611695 3.640000 46 28 29
-1.478262 0.618067 3.640000 44 25 31
-1.462830 0.617920 3.602000 41 24 28
-1.478262 0.630810 3.640000 44 24 25
-1.462830 0.630530 3.602000 46 22 25
-1.478262 0.643554 3.640000 48 23 26
-1.478262 0.649926 3.640000 50 25 26
-1.462830 0.649446 3.602000 47 25 26
-1.462830 0.655751 3.602000 45 27 22
-1.462830 0.662057 3.602000 43 24 18
-1.462830 0.668362 3.602000 42 22 16
-1.478262 0.681785 3.640000 43 21 14
-1.462830 0.680973 3.602000 45 21 17
-1.462830 0.687278 3.602000 45 25 21
-1.462830 0.693583 3.602000 46 26 25
-1.478262 0.707272 3.640000 44 24 30
-1.478262 0.713644 3.640000 43 22 26
-1.478262 0.720016 3.640000 45 22 22
-1.478262 0.726388 3.640000 47 23 15
-1.478262 0.732759 3.640000 46 22 9
-1.478262 0.739131 3.640000 45 22 15
-1.478262 0.745503 3.640000 43 22 21
-1.478262 0.751875 3.640000 42 22 12
-1.478262 0.758247 3.640000 41 21 4
-1.478262 0.764619 3.640000 40 21 8
-1.478262 0.770990 3.640000 40 19 13
-1.478262 0.777362 3.640000 41 20 12
-1.478262 0.783734 3.640000 39 17 12
-1.462830 0.781858 3.602000 37 16 10
-1.462830 0.788163 3.602000 37 14 8
-1.462830 0.794468 3.602000 37 14 13
-1.447804 0.792548 3.565000 36 16 18
-1.447804 0.798788 3.565000 36 17 13
-1.462830 0.813384 3.602000 33 17 8
-1.462830 0.819689 3.602000 30 17 11
-1.462830 0.825995 3.602000 32 17 15
-1.447804 0.823750 3.565000 34 18 11
-1.447804 0.829991 3.565000 35 16 8
-1.447804 0.836231 3.565000 36 13 11
-1.447804 0.842472 3.565000 33 15 14
-1.447804 0.848713 3.565000 30 17 14
-1.447804 0.854953 3.565000 34 14 14
-1.447804 0.861194 3.565000 37 12 12
-1.447804 0.867434 3.565000 34 15 10
-1.447804 0.873675 3.565000 32 18 9
-1.447804 0.879915 3.565000 31 17 9
-1.447804 0.886156 3.565000 30 17 8
-1.447804 0.892396 3.565000 32 14 8
-1.447804 0.898637 3.565000 34 12 9
-1.447804 0.904877 3.565000 31 12 11
-1.462830 0.920574 3.602000 28 11 14
-1.462830 0.926879 3.602000 29 10 17
-1.462830 0.933185 3.602000 30 8 13
-1.447804 0.929839 3.565000 27 9 10
-1.447804 0.936080 3.565000 24 9 12
-1.447804 0.942320 3.565000 23 10 15
-1.447804 0.948561 3.565000 22 11 9
-1.432777 0.944892 3.528000 22 10 4
-1.432777 0.951068 3.528000 22 10 11
-1.418563 0.947747 3.493000 19 8 19
-1.418563 0.953862 3.493000 16 7 11
-1.418563 0.959976 3.493000 14 8 4
-1.418563 0.966091 3.493000 12 9 9
-1.418563 0.972205 3.493000 9 8 15
-1.418563 0.978320 3.493000 7 7 16
-1.418563 0.984434 3.493000 14 7 17
-1.432777 1.000474 3.528000 21 3 24
-1.432777 1.006650 3.528000 34 12 31
-1.265051 0.943336 3.115000 91 76 108
-1.253680 0.940260 3.087000 91 78 107
-1.242309 0.937087 3.059000 92 76 106
-1.079863 0.856443 2.659000 92 74 106
-1.079863 0.861097 2.659000 91 77 105
-1.088391 0.872589 2.680000 90 78 105
-1.071740 0.868479 2.639000 92 79 104
-1.055496 0.859865 2.599000 93 78 102
-1.047779 0.858095 2.580000 94 76 98
-1.010011 0.831517 2.487000 91 74 94
-1.010011 0.835871 2.487000 88 73 98
-1.017321 0.846306 2.505000 89 75 102
-1.010011 0.844578 2.487000 90 77 99
-0.995390 0.836643 2.451000 89 75 97
-0.988486 0.835101 2.434000 89 75 100
-0.981582 0.833499 2.417000 89 73 104
-0.974678 0.831838 2.400000 90 74 108
-0.961277 0.824543 2.367000 89 74 112
-0.948281 0.817484 2.335000 89 75 105
-0.935691 0.810664 2.304000 88 73 99
-0.929600 0.809393 2.289000 88 74 97
-0.923508 0.808070 2.274000 88 71 96
-0.923508 0.812050 2.274000 89 71 97
-0.917416 0.810648 2.259000 88 70 99
-0.911325 0.809193 2.244000 87 70 95
-0.905639 0.808048 2.230000 86 70 91
-0.899547 0.806491 2.215000 85 71 91
-0.877211 0.790246 2.160000 85 70 92
-0.871931 0.789248 2.147000 85 69 91
-0.866246 0.787835 2.133000 87 69 90
-0.871931 0.796765 2.147000 89 68 94
-0.860966 0.790456 2.120000 88 66 99
-0.850813 0.784802 2.095000 86 65 95
-0.845534 0.783576 2.082000 84 64 92
-0.830507 0.773231 2.045000 83 65 87
-0.820760 0.767694 2.021000 84 65 83
-0.815887 0.766653 2.009000 86 67 84
-0.815887 0.770169 2.009000 85 65 86
-0.811420 0.769450 1.998000 85 63 85
-0.811420 0.772947 1.998000 83 65 85
-0.806546 0.771782 1.986000 82 65 86
-0.802079 0.770964 1.975000 82 64 88
-1.412449 0.073374 3.493000 173 128 159
-1.426602 0.080285 3.528000 124 12 64
-1.456525 0.088274 3.602000 76 20 50
-1.471891 0.095577 3.640000 165 69 37
-1.471891 0.101949 3.640000 254 207 145
-1.487661 0.109482 3.679000 254 254 254
-1.487661 0.115922 3.679000 254 254 254
-1.487661 0.122362 3.679000 254 254 254
-1.487661 0.128802 3.679000 254 254 254
-1.487661 0.135242 3.679000 254 254 254
-1.471891 0.299476 3.640000 86 48 43
-1.471891 0.305847 3.640000 84 45 43
-1.456525 0.308960 3.602000 82 42 44
-1.456525 0.315265 3.602000 80 45 40
-1.456525 0.321571 3.602000 78 49 36
-1.456525 0.327876 3.602000 77 49 34
-1.456525 0.334181 3.602000 77 49 32
-1.456525 0.340486 3.602000 78 45 30
-1.456525 0.346792 3.602000 76 44 29
-1.456525 0.353097 3.602000 74 44 28
-1.456525 0.359402 3.602000 76 44 27
-1.456525 0.365707 3.602000 78 42 31
-1.456525 0.372013 3.602000 79 43 35
-1.456525 0.378318 3.602000 80 40 28
-1.456525 0.384623 3.602000 78 38 21
-1.456525 0.390929 3.602000 76 37 19
-1.456525 0.397234 3.602000 76 40 17
-1.456525 0.403539 3.602000 77 38 20
-1.456525 0.409845 3.602000 75 34 23
-1.471891 0.420540 3.640000 73 36 25
-1.456525 0.422455 3.602000 70 36 28
-1.471891 0.433284 3.640000 68 36 32
-1.471891 0.439656 3.640000 60 34 36
-1.471891 0.446028 3.640000 52 33 32
-1.471891 0.452399 3.640000 49 34 28
-1.471891 0.458771 3.640000 47 31 27
-1.456525 0.460287 3.602000 48 30 27
-1.471891 0.471515 3.640000 49 27 29
-1.471891 0.477887 3.640000 49 23 31
-1.471891 0.484258 3.640000 50 24 32
-1.471891 0.490630 3.640000 56 28 33
-1.471891 0.497002 3.640000 62 28 34
-1.471891 0.503374 3.640000 58 30 35
-1.471891 0.509746 3.640000 54 29 38
-1.471891 0.516118 3.640000 52 28 41
-1.471891 0.522489 3.640000 50 28 37
-1.471891 0.528861 3.640000 50 28 34
-1.471891 0.535233 3.640000 51 28 34
-1.487661 0.547408 3.679000 52 30 34
-1.487661 0.553848 3.679000 53 27 27
-1.487661 0.560288 3.679000 55 26 20
-1.487661 0.566728 3.679000 58 26 21
-1.487661 0.573168 3.679000 53 28 22
-1.487661 0.579608 3.679000 49 25 20
-1.471891 0.579836 3.640000 47 24 18
-1.471891 0.586208 3.640000 46 25 26
-1.471891 0.592579 3.640000 48 26 34
-1.471891 0.598951 3.640000 50 25 30
-1.471891 0.605323 3.640000 48 28 26
-1.471891 0.611695 3.640000 47 25 28
-1.471891 0.618067 3.640000 46 23 30
-1.456525 0.617920 3.602000 45 24 27
-1.471891 0.630810 3.640000 47 25 25
-1.471891 0.637182 3.640000 49 22 28
-1.471891 0.643554 3.640000 49 22 32
-1.471891 0.649926 3.640000 50 23 27
-1.456525 0.649446 3.602000 48 25 23
-1.456525 0.655751 3.602000 46 26 20
-1.456525 0.662057 3.602000 44 27 18
-1.456525 0.668362 3.602000 43 24 19
-1.456525 0.674667 3.602000 43 21 20
-1.456525 0.680973 3.602000 44 23 20
-1.456525 0.687278 3.602000 45 27 20
-1.456525 0.693583 3.602000 46 25 23
-1.471891 0.707272 3.640000 43 22 26
-1.471891 0.713644 3.640000 41 22 23
-1.471891 0.720016 3.640000 43 23 20
-1.471891 0.726388 3.640000 45 24 18
-1.471891 0.732759 3.640000 45 23 17
-1.471891 0.739131 3.640000 45 22 19
-1.471891 0.745503 3.640000 43 21 21
-1.471891 0.751875 3.640000 42 21 15
-1.471891 0.758247 3.640000 40 23 9
-1.471891 0.764619 3.640000 39 21 11
-1.471891 0.770990 3.640000 40 21 13
-1.471891 0.777362 3.640000 41 19 16
-1.471891 0.783734 3.640000 38 17 19
-1.456525 0.781858 3.602000 35 15 16
-1.456525 0.788163 3.602000 35 14 14
-1.456525 0.794468 3.602000 36 14 15
-1.456525 0.800773 3.602000 37 16 17
-1.456525 0.807079 3.602000 39 16 14
-1.456525 0.813384 3.602000 36 15 12
-1.456525 0.819689 3.602000 33 16 12
-1.456525 0.825995 3.602000 34 17 13
-1.441563 0.823750 3.565000 35 16 18
-1.441563 0.829991 3.565000 34 14 23
-1.441563 0.836231 3.565000 34 14 19
-1.441563 0.842472 3.565000 29 16 15
-1.441563 0.848713 3.565000 24 15 18
-1.441563 0.854953 3.565000 31 14 22
-1.441563 0.861194 3.565000 38 13 17
-1.441563 0.867434 3.565000 35 15 13
-1.441563 0.873675 3.565000 32 16 11
-1.441563 0.879915 3.565000 31 16 9
-1.441563 0.886156 3.565000 30 16 8
-1.441563 0.892396 3.565000 29 15 7
-1.441563 0.898637 3.565000 29 13 9
-1.441563 0.904877 3.565000 27 15 11
-1.456525 0.920574 3.602000 26 12 12
-1.456525 0.926879 3.602000 28 10 13
-1.456525 0.933185 3.602000 30 10 11
-1.456525 0.939490 3.602000 26 10 10
-1.456525 0.945795 3.602000 23 9 11
-1.441563 0.942320 3.565000 23 10 12
-1.441563 0.948561 3.565000 24 10 8
-1.426602 0.944892 3.528000 23 9 4
-1.426602 0.951068 3.528000 23 8 8
-1.412449 0.947747 3.493000 20 8 12
-1.412449 0.953862 3.493000 17 7 8
-1.412449 0.959976 3.493000 15 8 4
-1.412449 0.966091 3.493000 14 7 8
-1.412449 0.972205 3.493000 14 8 13
-1.412449 0.978320 3.493000 14 8 15
-1.426602 0.994298 3.528000 19 10 17
-1.426602 1.000474 3.528000 24 4 19
-1.426602 1.006650 3.528000 35 2 22
-1.259599 0.943336 3.115000 91 76 107
-1.248276 0.940260 3.087000 92 76 106
-1.226441 0.929122 3.033000 94 76 105
-1.226441 0.934431 3.033000 97 76 106
-1.215523 0.931375 3.006000 94 77 107
-1.092191 0.869971 2.701000 93 75 107
-1.075208 0.861097 2.659000 92 77 107
-1.083700 0.872589 2.680000 92 77 108
-1.067121 0.868479 2.639000 90 78 106
-1.050946 0.859865 2.599000 90 79 103
-1.043263 0.858095 2.580000 90 77 100
-1.008083 0.833524 2.493000 89 76 98
-1.005657 0.835871 2.487000 89 75 98
-1.005657 0.840224 2.487000 89 77 99
-0.998379 0.838465 2.469000 90 76 98
-0.991100 0.836643 2.451000 89 77 98
-0.977352 0.829268 2.417000 89 75 100
-0.977352 0.833499 2.417000 87 72 102
-0.970477 0.831838 2.400000 85 73 104
-0.957133 0.824543 2.367000 86 76 107
-0.944194 0.817484 2.335000 88 75 103
-0.925593 0.805386 2.289000 88 73 100
-0.925593 0.809393 2.289000 88 71 98
-0.919527 0.808070 2.274000 89 69 95
-0.913462 0.806694 2.259000 90 70 95
-0.913462 0.810648 2.259000 88 71 96
-0.907396 0.809193 2.244000 86 70 94
-0.901735 0.808048 2.230000 83 68 93
-0.895670 0.806491 2.215000 81 71 94
-0.862512 0.780368 2.133000 83 72 95
-0.862512 0.784102 2.133000 85 70 93
-0.862512 0.787835 2.133000 86 71 92
-0.862512 0.791569 2.133000 88 70 93
-0.857255 0.790456 2.120000 87 69 95
-0.847146 0.784802 2.095000 87 66 93
-0.841889 0.783576 2.082000 85 63 91
-0.822075 0.768694 2.033000 83 65 92
-0.817223 0.767694 2.021000 84 65 93
-0.812370 0.766653 2.009000 85 66 90
-0.812370 0.770169 2.009000 85 65 88
-0.807922 0.769450 1.998000 86 66 86
-0.807922 0.772947 1.998000 84 67 84
-0.803070 0.771782 1.986000 83 65 86
-0.798622 0.770964 1.975000 82 64 88
-1.465519 0.089206 3.640000 72 1 45
-1.465519 0.095577 3.640000 163 92 28
-1.465519 0.101949 3.640000 254 254 141
-1.481221 0.109482 3.679000 254 254 254
-1.481221 0.115922 3.679000 254 254 254
-1.481221 0.122362 3.679000 254 254 254
-1.481221 0.128802 3.679000 254 254 254
-1.465519 0.299476 3.640000 86 49 44
-1.465519 0.305847 3.640000 83 46 43
-1.450219 0.308960 3.602000 81 45 42
-1.450219 0.315265 3.602000 79 45 41
-1.450219 0.321571 3.602000 78 47 40
-1.450219 0.327876 3.602000 77 49 35
-1.450219 0.334181 3.602000 77 46 30
-1.465519 0.344078 3.640000 77 45 31
-1.465519 0.350450 3.640000 77 42 32
-1.465519 0.356822 3.640000 77 41 31
-1.465519 0.363194 3.640000 77 40 30
-1.465519 0.369566 3.640000 77 40 37
-1.465519 0.375937 3.640000 78 40 44
-1.465519 0.382309 3.640000 78 41 34
-1.465519 0.388681 3.640000 76 36 24
-1.450219 0.390929 3.602000 75 32 18
-1.450219 0.397234 3.602000 76 37 13
-1.465519 0.407797 3.640000 77 41 16
-1.450219 0.409845 3.602000 76 37 20
-1.465519 0.420540 3.640000 75 36 21
-1.450219 0.422455 3.602000 74 34 22
-1.450219 0.428761 3.602000 73 30 24
-1.465519 0.439656 3.640000 63 31 26
-1.465519 0.446028 3.640000 54 32 26
-1.465519 0.452399 3.640000 51 32 26
-1.465519 0.458771 3.640000 48 33 28
-1.465519 0.465143 3.640000 48 29 30
-1.465519 0.471515 3.640000 48 28 31
-1.465519 0.477887 3.640000 49 24 33
-1.465519 0.484258 3.640000 50 21 35
-1.465519 0.490630 3.640000 53 26 37
-1.465519 0.497002 3.640000 57 28 37
-1.465519 0.503374 3.640000 55 29 38
-1.465519 0.509746 3.640000 52 28 41
-1.465519 0.516118 3.640000 51 29 45
-1.465519 0.522489 3.640000 50 31 41
-1.465519 0.528861 3.640000 51 29 38
-1.465519 0.535233 3.640000 52 28 39
-1.481221 0.547408 3.679000 51 29 41
-1.481221 0.553848 3.679000 51 31 34
-1.481221 0.560288 3.679000 52 27 27
-1.481221 0.566728 3.679000 54 24 24
-1.481221 0.573168 3.679000 51 25 21
-1.481221 0.579608 3.679000 49 23 18
-1.465519 0.579836 3.640000 49 22 15
-1.465519 0.586208 3.640000 50 22 27
-1.465519 0.592579 3.640000 49 23 40
-1.465519 0.598951 3.640000 49 22 32
-1.465519 0.605323 3.640000 49 23 25
-1.465519 0.611695 3.640000 50 21 27
-1.465519 0.618067 3.640000 48 22 30
-1.465519 0.624439 3.640000 46 25 27
-1.465519 0.630810 3.640000 47 23 25
-1.465519 0.637182 3.640000 48 21 31
-1.465519 0.643554 3.640000 48 22 38
-1.465519 0.649926 3.640000 49 23 29
-1.465519 0.656298 3.640000 47 25 20
-1.465519 0.662669 3.640000 46 27 19
-1.465519 0.669041 3.640000 45 26 19
-1.450219 0.668362 3.602000 44 26 22
-1.450219 0.674667 3.602000 43 25 26
-1.450219 0.680973 3.602000 42 26 23
-1.450219 0.687278 3.602000 44 26 20
-1.465519 0.700900 3.640000 46 26 21
-1.465519 0.707272 3.640000 45 23 23
-1.465519 0.713644 3.640000 44 21 20
-1.465519 0.720016 3.640000 44 23 18
-1.465519 0.726388 3.640000 45 27 22
-1.465519 0.732759 3.640000 44 25 26
-1.465519 0.739131 3.640000 43 25 23
-1.465519 0.745503 3.640000 41 23 21
-1.465519 0.751875 3.640000 40 21 17
-1.465519 0.758247 3.640000 40 22 14
-1.465519 0.764619 3.640000 40 21 14
-1.465519 0.770990 3.640000 42 20 14
-1.465519 0.777362 3.640000 44 21 20
-1.465519 0.783734 3.640000 40 17 26
-1.465519 0.790106 3.640000 36 15 23
-1.465519 0.796478 3.640000 36 14 21
-1.465519 0.802850 3.640000 36 14 18
-1.465519 0.809221 3.640000 39 15 16
-1.465519 0.815593 3.640000 42 16 16
-1.450219 0.813384 3.602000 38 16 16
-1.450219 0.819689 3.602000 35 17 14
-1.450219 0.825995 3.602000 36 17 12
-1.450219 0.832300 3.602000 37 17 25
-1.435323 0.829991 3.565000 37 14 39
-1.435323 0.836231 3.565000 38 14 27
-1.435323 0.842472 3.565000 36 15 16
-1.435323 0.848713 3.565000 34 14 23
-1.435323 0.854953 3.565000 37 13 30
-1.435323 0.861194 3.565000 40 14 23
-1.435323 0.867434 3.565000 37 15 16
-1.435323 0.873675 3.565000 35 16 13
-1.435323 0.879915 3.565000 32 16 10
-1.435323 0.886156 3.565000 30 16 8
-1.435323 0.892396 3.565000 29 14 7
-1.435323 0.898637 3.565000 29 13 9
-1.450219 0.914269 3.602000 27 13 12
-1.450219 0.920574 3.602000 26 12 11
-1.450219 0.926879 3.602000 27 12 10
-1.450219 0.933185 3.602000 28 12 10
-1.450219 0.939490 3.602000 25 10 10
-1.450219 0.945795 3.602000 23 10 9
-1.450219 0.952101 3.602000 23 10 9
-1.435323 0.948561 3.565000 24 10 7
-1.435323 0.954802 3.565000 22 8 5
-1.420426 0.951068 3.528000 21 7 5
-1.420426 0.957244 3.528000 17 8 6
-1.420426 0.963419 3.528000 13 7 5
-1.420426 0.969595 3.528000 13 6 4
-1.406334 0.966091 3.493000 14 5 8
-1.406334 0.972205 3.493000 17 7 12
-1.420426 0.988122 3.528000 20 7 15
-1.420426 0.994298 3.528000 17 7 18
-1.420426 1.000474 3.528000 14 4 15
-1.420426 1.006650 3.528000 31 13 13
-1.254146 0.943336 3.115000 90 76 106
-1.242873 0.940260 3.087000 90 76 105
-1.221131 0.929122 3.033000 91 75 104
-1.221131 0.934431 3.033000 93 76 100
-1.210261 0.931375 3.006000 90 77 96
-1.087463 0.869971 2.701000 92 75 107
-1.079008 0.867898 2.680000 92 77 109
