ply
format ascii 1.0
element vertex 1337
property float x
property float y
property float z
property uchar red
property uchar green
property uchar blue
end_header
0.937188 0.761699 2.133000 83 65 73
0.937188 0.765432 2.133000 89 65 76
0.931476 0.764479 2.120000 95 61 74
0.925764 0.763479 2.107000 90 59 71
0.925764 0.767167 2.107000 85 60 69
0.920492 0.766465 2.095000 84 60 68
0.914780 0.765354 2.082000 83 59 73
0.903795 0.759764 2.057000 88 54 78
0.877872 0.741470 1.998000 94 55 73
0.872600 0.740493 1.986000 90 55 69
0.867767 0.739849 1.975000 86 58 69
0.867767 0.743306 1.975000 87 60 70
0.862934 0.742604 1.964000 89 59 66
0.857661 0.741484 1.952000 86 62 62
0.852828 0.740703 1.941000 84 61 64
0.838768 0.731833 1.909000 85 62 66
0.834374 0.731324 1.899000 87 62 70
0.829541 0.730393 1.888000 86 62 74
0.829541 0.733698 1.888000 86 61 73
0.825147 0.733099 1.878000 92 59 72
1.733625 -0.626031 3.930000 111 78 95
1.713775 -0.612062 3.885000 107 79 90
1.694806 -0.598562 3.842000 104 77 86
1.676279 -0.585367 3.800000 101 77 85
1.676279 -0.578715 3.800000 101 75 84
1.694806 -0.578386 3.842000 102 76 81
1.694806 -0.571661 3.842000 100 76 79
1.676279 -0.558760 3.800000 99 77 79
1.694806 -0.558210 3.842000 98 75 80
1.694806 -0.551485 3.842000 98 75 84
1.694806 -0.544759 3.842000 96 73 88
1.694806 -0.538034 3.842000 94 74 80
1.694806 -0.531308 3.842000 92 70 73
1.676279 -0.518848 3.800000 90 72 70
1.676279 -0.512196 3.800000 88 67 68
1.676279 -0.505544 3.800000 86 62 65
1.676279 -0.498892 3.800000 82 59 62
1.676279 -0.492241 3.800000 78 58 59
1.676279 -0.485589 3.800000 73 52 57
1.676279 -0.478937 3.800000 69 48 59
1.676279 -0.472285 3.800000 65 46 61
1.676279 -0.465633 3.800000 62 48 64
1.676279 -0.458981 3.800000 60 48 67
1.676279 -0.452329 3.800000 59 50 70
1.676279 -0.445677 3.800000 63 47 74
1.676279 -0.439025 3.800000 66 45 70
1.676279 -0.432374 3.800000 65 46 67
1.694806 -0.430427 3.842000 63 46 65
1.694806 -0.423702 3.842000 70 52 64
1.713775 -0.421643 3.885000 78 58 70
1.713775 -0.414842 3.885000 73 56 77
1.733625 -0.412768 3.930000 69 46 68
1.733625 -0.405888 3.930000 111 86 59
1.753476 -0.403578 3.975000 152 133 112
1.658193 -0.052641 3.759000 90 77 71
1.658193 -0.046061 3.759000 91 73 73
1.658193 -0.039481 3.759000 92 71 75
1.658193 -0.032901 3.759000 92 70 78
1.658193 -0.026320 3.759000 92 71 75
1.658193 -0.019740 3.759000 91 69 72
1.658193 -0.013160 3.759000 90 69 70
1.676279 -0.006652 3.800000 92 66 69
1.658193 -0.000000 3.759000 94 66 71
1.658193 0.006580 3.759000 91 67 74
1.658193 0.013160 3.759000 87 68 73
1.658193 0.019740 3.759000 87 66 72
1.658193 0.026321 3.759000 87 65 66
1.658193 0.032901 3.759000 83 61 60
1.658193 0.039481 3.759000 80 56 52
1.658193 0.046061 3.759000 55 39 44
1.658193 0.052641 3.759000 31 4 32
1.658193 0.059221 3.759000 33 5 20
1.658193 0.065801 3.759000 35 7 21
1.658193 0.072381 3.759000 46 14 23
1.658193 0.078962 3.759000 56 23 24
1.658193 0.085542 3.759000 45 24 26
1.658193 0.092122 3.759000 33 14 23
1.658193 0.098702 3.759000 44 18 21
1.658193 0.105282 3.759000 56 31 45
1.658193 0.111862 3.759000 61 43 69
1.658193 0.118442 3.759000 66 49 59
1.658193 0.125023 3.759000 70 47 49
1.658193 0.131603 3.759000 74 43 45
1.658193 0.138183 3.759000 71 45 41
1.658193 0.144763 3.759000 68 45 45
1.658193 0.151343 3.759000 62 43 49
1.658193 0.157923 3.759000 57 41 41
1.658193 0.164503 3.759000 42 22 34
1.658193 0.171083 3.759000 28 10 27
1.676279 0.179601 3.800000 26 9 21
1.676279 0.186253 3.800000 25 9 24
1.676279 0.192905 3.800000 24 10 28
1.676279 0.199557 3.800000 23 11 17
1.676279 0.206209 3.800000 25 13 6
1.658193 0.210564 3.759000 28 13 8
1.683337 0.688031 3.816000 21 6 5
1.658193 0.684334 3.759000 25 4 3
1.676279 0.698450 3.800000 18 6 2
1.733625 0.729223 3.930000 12 9 8
1.640107 0.696395 3.718000 15 6 14
1.640107 0.702903 3.718000 19 5 10
1.640107 0.709411 3.718000 18 6 7
1.622903 0.708410 3.679000 18 5 4
1.622903 0.714850 3.679000 21 6 1
1.622903 0.721290 3.679000 25 10 5
1.605699 0.720016 3.640000 21 11 9
1.605699 0.726388 3.640000 17 12 7
1.605699 0.732759 3.640000 18 8 5
1.605699 0.739131 3.640000 18 6 4
1.733625 0.804898 3.930000 19 6 4
1.540853 0.831572 3.493000 5 1 20
1.540853 0.837686 3.493000 5 2 9
1.540853 0.843801 3.493000 5 6 6
1.540853 0.849915 3.493000 4 5 3
1.540853 0.856030 3.493000 3 7 3
1.540853 0.862144 3.493000 5 4 4
1.540853 0.868259 3.493000 8 4 3
1.525414 0.865612 3.458000 6 4 2
1.525414 0.871665 3.458000 5 7 2
1.525414 0.877718 3.458000 7 5 3
1.525414 0.883772 3.458000 10 4 3
1.525414 0.889825 3.458000 8 3 4
1.540853 0.904946 3.493000 7 3 4
1.540853 0.911060 3.493000 7 3 4
1.556293 0.926365 3.528000 7 3 4
1.556293 0.932540 3.528000 9 2 4
1.556293 0.938716 3.528000 12 2 4
1.556293 0.944892 3.528000 10 4 5
1.556293 0.951068 3.528000 9 9 3
1.556293 0.957244 3.528000 12 7 1
1.540853 0.953862 3.493000 15 5 5
1.540853 0.959976 3.493000 22 6 9
1.337935 0.881338 3.033000 62 44 38
1.326025 0.878755 3.006000 68 48 50
1.314556 0.876370 2.980000 75 54 55
1.314556 0.881587 2.980000 78 55 61
1.303527 0.879364 2.955000 82 56 69
1.292499 0.877053 2.930000 81 52 78
1.281471 0.874655 2.905000 80 46 68
1.182218 0.835059 2.680000 63 50 52
1.172954 0.833170 2.659000 69 50 46
1.172954 0.837824 2.659000 76 51 52
1.164132 0.836142 2.639000 74 49 58
1.155309 0.834390 2.619000 73 47 57
1.146487 0.832568 2.599000 71 51 56
1.129283 0.824556 2.560000 70 53 57
1.112961 0.817055 2.523000 73 51 58
1.105021 0.815611 2.505000 76 52 59
1.097080 0.814104 2.487000 75 50 60
1.089140 0.812533 2.469000 74 51 61
1.073701 0.805276 2.434000 75 50 63
1.058703 0.798228 2.400000 77 50 62
1.051644 0.797080 2.384000 79 52 62
1.051644 0.801253 2.384000 81 55 61
1.044145 0.799683 2.367000 80 55 60
1.030029 0.792959 2.335000 79 57 62
1.016354 0.786465 2.304000 82 57 65
1.009737 0.785351 2.289000 85 57 63
1.003121 0.784186 2.274000 80 58 62
0.989887 0.777768 2.244000 75 58 63
0.983711 0.776819 2.230000 78 57 64
0.983711 0.780723 2.230000 80 59 64
0.977094 0.779349 2.215000 80 61 64
0.964743 0.773326 2.187000 80 65 67
0.952832 0.767559 2.160000 80 65 71
0.940922 0.761699 2.133000 81 65 73
0.940922 0.765432 2.133000 83 62 76
0.935187 0.764479 2.120000 86 59 73
0.929453 0.763479 2.107000 84 61 70
0.929453 0.767167 2.107000 82 63 69
0.924159 0.766465 2.095000 80 61 69
0.918424 0.765354 2.082000 78 59 71
0.907396 0.759764 2.057000 83 56 74
0.881370 0.741470 1.998000 87 55 69
0.876076 0.740493 1.986000 85 56 65
0.871224 0.739849 1.975000 84 59 66
0.871224 0.743306 1.975000 85 58 67
0.866372 0.742604 1.964000 87 57 62
0.861078 0.741484 1.952000 85 58 57
0.856226 0.740703 1.941000 84 60 61
0.846962 0.736050 1.920000 87 62 65
0.837698 0.731324 1.899000 91 62 69
0.832846 0.730393 1.888000 88 62 73
0.832846 0.733698 1.888000 86 62 72
0.828435 0.733099 1.878000 89 59 71
1.701532 -0.605288 3.842000 108 78 89
1.701532 -0.598562 3.842000 105 76 86
1.701532 -0.591837 3.842000 103 76 85
1.682931 -0.578715 3.800000 102 77 84
1.701532 -0.578386 3.842000 101 76 82
1.701532 -0.571661 3.842000 100 76 80
1.701532 -0.564935 3.842000 99 76 78
1.701532 -0.558210 3.842000 98 76 76
1.701532 -0.551485 3.842000 97 74 80
1.701532 -0.544759 3.842000 96 72 83
1.701532 -0.538034 3.842000 95 71 78
1.701532 -0.531308 3.842000 92 70 72
1.682931 -0.518848 3.800000 90 71 69
1.682931 -0.512196 3.800000 87 68 65
1.682931 -0.505544 3.800000 84 63 62
1.682931 -0.498892 3.800000 80 58 59
1.682931 -0.492241 3.800000 76 54 56
1.682931 -0.485589 3.800000 71 51 53
1.682931 -0.478937 3.800000 67 48 58
1.682931 -0.472285 3.800000 63 46 63
1.682931 -0.465633 3.800000 60 47 63
1.682931 -0.458981 3.800000 60 48 64
1.682931 -0.452329 3.800000 61 48 64
1.682931 -0.445677 3.800000 61 47 65
1.682931 -0.439025 3.800000 62 47 64
1.682931 -0.432374 3.800000 63 50 64
1.701532 -0.430427 3.842000 64 50 64
1.701532 -0.423702 3.842000 71 55 64
1.701532 -0.416976 3.842000 79 56 66
1.720575 -0.414842 3.885000 75 59 68
1.720575 -0.408042 3.885000 72 66 83
1.740505 -0.405888 3.930000 115 92 99
1.664773 -0.052641 3.759000 91 73 72
1.664773 -0.046061 3.759000 92 73 76
1.664773 -0.039481 3.759000 93 71 77
1.664773 -0.032901 3.759000 91 70 78
1.664773 -0.026320 3.759000 89 70 76
1.664773 -0.019740 3.759000 89 71 75
1.664773 -0.013160 3.759000 90 70 71
1.664773 -0.006580 3.759000 91 69 68
1.664773 -0.000000 3.759000 92 67 69
1.664773 0.006580 3.759000 90 66 70
1.664773 0.013160 3.759000 88 67 69
1.664773 0.019740 3.759000 90 66 69
1.664773 0.026321 3.759000 92 63 65
1.664773 0.032901 3.759000 87 58 61
1.664773 0.039481 3.759000 83 51 51
1.664773 0.046061 3.759000 52 44 40
1.664773 0.052641 3.759000 22 14 25
1.664773 0.059221 3.759000 28 5 11
1.664773 0.065801 3.759000 35 9 15
1.664773 0.072381 3.759000 51 14 20
1.664773 0.078962 3.759000 67 21 22
1.664773 0.085542 3.759000 54 20 25
1.664773 0.092122 3.759000 41 12 18
1.664773 0.098702 3.759000 49 5 12
1.664773 0.105282 3.759000 58 31 34
1.664773 0.111862 3.759000 61 46 57
1.664773 0.118442 3.759000 64 47 52
1.664773 0.125023 3.759000 67 50 48
1.664773 0.131603 3.759000 71 46 50
1.664773 0.138183 3.759000 70 45 53
1.664773 0.144763 3.759000 69 47 51
1.664773 0.151343 3.759000 62 42 49
1.664773 0.157923 3.759000 55 34 41
1.664773 0.164503 3.759000 42 19 33
1.664773 0.171083 3.759000 29 13 26
1.682931 0.179601 3.800000 27 10 20
1.664773 0.184244 3.759000 25 10 22
1.682931 0.192905 3.800000 23 12 24
1.682931 0.199557 3.800000 21 12 17
1.682931 0.206209 3.800000 24 15 10
1.664773 0.210564 3.759000 27 14 11
1.715261 0.698308 3.873000 15 6 5
1.720575 0.707272 3.885000 17 6 4
1.740505 0.722344 3.930000 13 8 3
1.740505 0.729223 3.930000 10 8 7
1.740505 0.736103 3.930000 11 7 11
1.720575 0.734475 3.885000 12 6 7
1.682931 0.725057 3.800000 13 9 4
1.664773 0.723814 3.759000 14 7 3
1.646615 0.722428 3.718000 17 5 2
1.629343 0.721290 3.679000 20 9 5
1.629343 0.727730 3.679000 19 11 9
1.612071 0.726388 3.640000 18 11 7
1.612071 0.732759 3.640000 19 10 5
1.612071 0.739131 3.640000 20 7 4
1.740505 0.804898 3.930000 20 8 3
1.760434 0.883696 3.975000 30 14 13
1.546968 0.831572 3.493000 7 12 20
1.546968 0.837686 3.493000 6 3 9
1.546968 0.843801 3.493000 6 5 5
1.546968 0.849915 3.493000 4 7 2
1.531467 0.847452 3.458000 3 6 3
1.531467 0.853505 3.458000 6 4 4
1.531467 0.859559 3.458000 9 3 3
1.531467 0.865612 3.458000 6 4 2
1.531467 0.871665 3.458000 3 6 2
1.531467 0.877718 3.458000 2 9 2
1.531467 0.883772 3.458000 2 5 2
1.531467 0.889825 3.458000 4 4 2
1.531467 0.895878 3.458000 7 3 3
1.546968 0.911060 3.493000 7 3 4
1.546968 0.917175 3.493000 7 3 4
1.546968 0.923289 3.493000 7 3 4
1.546968 0.929404 3.493000 8 3 4
1.562468 0.944892 3.528000 8 4 5
1.562468 0.951068 3.528000 9 6 3
1.562468 0.957244 3.528000 11 9 2
1.546968 0.953862 3.493000 13 7 5
1.546968 0.959976 3.493000 20 7 9
1.562468 0.975771 3.528000 28 12 12
1.343244 0.881338 3.033000 63 42 42
1.331287 0.878755 3.006000 69 47 50
1.308700 0.869018 2.955000 75 51 55
1.308700 0.874191 2.955000 80 55 60
1.308700 0.879364 2.955000 86 53 65
1.297628 0.877053 2.930000 83 51 70
1.186909 0.835059 2.680000 56 49 54
1.186909 0.839750 2.680000 64 50 50
1.177609 0.837824 2.659000 72 50 53
1.159894 0.829805 2.619000 72 51 56
1.159894 0.834390 2.619000 72 50 55
1.142622 0.826481 2.580000 69 53 55
1.125792 0.818758 2.542000 67 52 56
1.117377 0.817055 2.523000 71 50 57
1.109406 0.815611 2.505000 75 50 58
1.101434 0.814104 2.487000 72 49 59
1.101434 0.818457 2.487000 69 50 59
1.085490 0.810900 2.451000 72 49 60
1.062904 0.798228 2.400000 76 49 62
1.055818 0.797080 2.384000 78 51 63
1.048289 0.795539 2.367000 80 51 62
1.041203 0.794277 2.351000 79 51 61
1.041203 0.798393 2.351000 79 54 62
1.027474 0.791926 2.320000 80 56 64
1.020388 0.790498 2.304000 81 57 59
1.007101 0.784186 2.274000 75 58 55
1.000458 0.782967 2.259000 69 58 59
1.000458 0.786922 2.259000 74 59 64
0.987615 0.780723 2.230000 79 59 63
0.980972 0.779349 2.215000 79 62 63
0.968571 0.773326 2.187000 79 63 64
0.956613 0.767559 2.160000 79 65 66
0.944656 0.761699 2.133000 79 63 71
0.938898 0.760767 2.120000 78 62 77
0.938898 0.764479 2.120000 78 61 72
0.933141 0.763479 2.107000 78 63 67
0.933141 0.767167 2.107000 79 62 71
0.927826 0.766465 2.095000 76 64 75
0.916312 0.760575 2.069000 74 60 75
0.910997 0.759764 2.057000 77 56 74
0.879553 0.737017 1.986000 81 54 70
0.879553 0.740493 1.986000 81 57 66
0.874681 0.739849 1.975000 82 59 67
0.874681 0.743306 1.975000 83 59 68
0.869810 0.742604 1.964000 85 58 65
0.864495 0.741484 1.952000 85 56 62
0.859623 0.740703 1.941000 85 59 64
0.855195 0.740267 1.931000 90 65 66
0.845451 0.735175 1.909000 95 63 68
0.841022 0.734648 1.899000 91 62 70
0.836151 0.733698 1.888000 87 60 70
0.831722 0.733099 1.878000 85 60 70
1.708257 -0.598562 3.842000 105 77 86
1.689583 -0.585367 3.800000 103 77 85
1.689583 -0.578715 3.800000 102 76 85
1.689583 -0.572063 3.800000 101 76 83
1.708257 -0.571661 3.842000 100 76 82
1.708257 -0.564935 3.842000 99 77 77
1.708257 -0.558210 3.842000 97 75 73
1.708257 -0.551485 3.842000 96 74 76
1.708257 -0.544759 3.842000 95 71 79
1.708257 -0.538034 3.842000 94 69 75
1.708257 -0.531308 3.842000 91 71 72
1.689583 -0.518848 3.800000 88 74 67
1.689583 -0.512196 3.800000 85 68 63
1.689583 -0.505544 3.800000 82 66 59
1.689583 -0.498892 3.800000 77 58 56
1.689583 -0.492241 3.800000 73 51 53
1.689583 -0.485589 3.800000 68 49 50
1.689583 -0.478937 3.800000 63 47 57
1.689583 -0.472285 3.800000 60 46 65
1.689583 -0.465633 3.800000 58 46 63
1.689583 -0.458981 3.800000 58 47 62
1.689583 -0.452329 3.800000 58 49 59
1.689583 -0.445677 3.800000 58 48 56
1.708257 -0.443878 3.842000 59 47 59
1.689583 -0.432374 3.800000 58 48 62
1.708257 -0.430427 3.842000 58 51 63
1.708257 -0.423702 3.842000 66 53 65
1.708257 -0.416976 3.842000 74 53 62
1.727376 -0.414842 3.885000 79 56 60
1.727376 -0.408042 3.885000 85 68 99
1.747384 -0.405888 3.930000 122 101 139
1.671353 -0.052641 3.759000 96 71 73
1.671353 -0.046061 3.759000 95 71 79
1.671353 -0.039481 3.759000 94 72 78
1.671353 -0.032901 3.759000 91 70 78
1.671353 -0.026320 3.759000 89 71 78
1.671353 -0.019740 3.759000 87 71 78
1.671353 -0.013160 3.759000 86 73 73
1.671353 -0.006580 3.759000 88 69 68
1.671353 -0.000000 3.759000 90 67 67
1.671353 0.006580 3.759000 88 68 67
1.671353 0.013160 3.759000 87 69 66
1.671353 0.019740 3.759000 87 66 66
1.671353 0.026321 3.759000 87 63 64
1.671353 0.032901 3.759000 84 56 63
1.671353 0.039481 3.759000 81 49 50
1.671353 0.046061 3.759000 50 34 37
1.671353 0.052641 3.759000 20 4 19
1.671353 0.059221 3.759000 26 6 2
1.671353 0.065801 3.759000 33 10 9
1.671353 0.072381 3.759000 44 18 17
1.671353 0.078962 3.759000 56 29 21
1.671353 0.085542 3.759000 41 20 25
1.671353 0.092122 3.759000 27 9 14
1.671353 0.098702 3.759000 42 20 3
1.671353 0.105282 3.759000 58 43 24
1.653123 0.110642 3.718000 63 47 45
1.671353 0.118442 3.759000 68 46 46
1.671353 0.125023 3.759000 71 48 47
1.671353 0.131603 3.759000 75 48 56
1.671353 0.138183 3.759000 72 49 65
1.671353 0.144763 3.759000 70 56 57
1.671353 0.151343 3.759000 61 46 49
1.671353 0.157923 3.759000 52 37 40
1.671353 0.164503 3.759000 35 20 32
1.671353 0.171083 3.759000 19 13 25
1.671353 0.177664 3.759000 20 10 19
1.671353 0.184244 3.759000 21 10 20
1.671353 0.190824 3.759000 19 11 21
1.689583 0.199557 3.800000 17 12 17
1.689583 0.206209 3.800000 22 13 14
1.671353 0.210564 3.759000 26 11 14
1.747384 0.708585 3.930000 14 8 5
1.747384 0.715465 3.930000 14 8 4
1.747384 0.722344 3.930000 11 9 4
1.747384 0.729223 3.930000 7 11 6
1.747384 0.736103 3.930000 9 7 8
1.727376 0.734475 3.885000 12 5 5
1.727376 0.741276 3.885000 12 8 2
1.689583 0.731709 3.800000 13 9 3
1.689583 0.738361 3.800000 15 8 4
1.671353 0.736975 3.759000 16 10 6
1.671353 0.743555 3.759000 17 11 9
1.671353 0.750135 3.759000 17 12 7
1.708257 0.773424 3.842000 20 8 6
1.747384 0.798018 3.930000 22 6 4
1.767392 0.883696 3.975000 27 11 15
1.553082 0.831572 3.493000 5 1 21
1.553082 0.837686 3.493000 5 2 10
1.537520 0.835346 3.458000 5 4 5
1.537520 0.841399 3.458000 4 5 1
1.537520 0.847452 3.458000 3 7 2
1.537520 0.853505 3.458000 5 4 4
1.537520 0.859559 3.458000 6 3 3
1.521958 0.856851 3.423000 5 4 2
1.521958 0.862843 3.423000 3 6 1
1.521958 0.868835 3.423000 4 6 1
1.521958 0.874827 3.423000 4 4 1
1.521958 0.880818 3.423000 5 4 1
1.537520 0.895878 3.458000 5 4 2
1.537520 0.901931 3.458000 5 3 4
1.553082 0.917175 3.493000 5 3 4
1.553082 0.923289 3.493000 7 3 4
1.553082 0.929404 3.493000 8 4 4
1.553082 0.935518 3.493000 8 4 5
1.553082 0.941633 3.493000 7 5 4
1.553082 0.947747 3.493000 7 7 3
1.553082 0.953862 3.493000 8 7 6
1.553082 0.959976 3.493000 15 7 9
1.568644 0.975771 3.528000 22 7 15
1.324989 0.865937 2.980000 62 38 47
1.324989 0.871154 2.980000 66 44 50
1.313873 0.869018 2.955000 71 50 54
1.313873 0.874191 2.955000 76 51 59
1.302757 0.871924 2.930000 81 50 60
1.302757 0.877053 2.930000 80 51 62
1.191600 0.839750 2.680000 68 49 55
1.182263 0.837824 2.659000 73 51 54
1.164478 0.829805 2.619000 73 51 54
1.164478 0.834390 2.619000 74 51 54
1.155586 0.832568 2.599000 72 51 55
1.121794 0.812638 2.523000 70 54 56
1.113791 0.811226 2.505000 73 52 57
1.113791 0.815611 2.505000 76 49 57
1.105788 0.814104 2.487000 74 50 58
1.097784 0.812533 2.469000 72 54 58
1.089781 0.810900 2.451000 74 51 58
1.074664 0.803882 2.417000 76 49 61
1.059991 0.797080 2.384000 77 49 65
1.052432 0.795539 2.367000 79 49 63
1.052432 0.799683 2.367000 75 53 62
1.045318 0.798393 2.351000 72 54 63
1.024421 0.786465 2.304000 76 55 64
1.017751 0.785351 2.289000 81 57 56
1.004412 0.779013 2.259000 77 57 48
0.997743 0.777768 2.244000 73 58 56
0.991518 0.776819 2.230000 76 57 64
0.991518 0.780723 2.230000 78 56 63
0.978624 0.774423 2.201000 78 59 63
0.966619 0.768729 2.174000 79 60 62
0.960394 0.767559 2.160000 79 60 61
0.948389 0.761699 2.133000 79 63 70
0.942609 0.760767 2.120000 75 62 79
0.942609 0.764479 2.120000 72 63 71
0.936829 0.763479 2.107000 76 61 64
0.936829 0.767167 2.107000 79 59 73
0.925713 0.761709 2.082000 78 61 82
0.919933 0.760575 2.069000 77 62 78
0.909262 0.755332 2.045000 80 56 75
0.898591 0.750005 2.021000 83 51 71
0.883029 0.740493 1.986000 81 57 67
0.883029 0.743970 1.986000 79 63 68
0.878138 0.743306 1.975000 81 62 69
0.873248 0.742604 1.964000 83 63 68
0.867912 0.741484 1.952000 83 58 68
0.867912 0.744901 1.952000 83 55 68
0.858575 0.740267 1.931000 87 61 68
0.848793 0.735175 1.909000 91 64 68
0.844347 0.734648 1.899000 88 61 68
0.839456 0.733698 1.888000 86 59 68
0.835010 0.733099 1.878000 84 57 69
1.714983 -0.598562 3.842000 105 78 84
1.714983 -0.591837 3.842000 104 77 83
1.696235 -0.578715 3.800000 103 76 83
1.696235 -0.572063 3.800000 102 77 81
1.696235 -0.565412 3.800000 100 77 80
1.696235 -0.558760 3.800000 99 76 77
1.714983 -0.558210 3.842000 97 74 74
1.696235 -0.545456 3.800000 96 72 75
1.714983 -0.544759 3.842000 95 69 77
1.696235 -0.532152 3.800000 94 70 74
1.696235 -0.525500 3.800000 90 72 71
1.696235 -0.518848 3.800000 87 70 66
1.696235 -0.512196 3.800000 83 65 62
1.696235 -0.505544 3.800000 80 63 60
1.696235 -0.498892 3.800000 75 60 59
1.696235 -0.492241 3.800000 70 53 58
1.696235 -0.485589 3.800000 65 48 57
1.696235 -0.478937 3.800000 60 48 60
1.696235 -0.472285 3.800000 58 48 63
1.696235 -0.465633 3.800000 56 47 62
1.696235 -0.458981 3.800000 56 47 61
1.696235 -0.452329 3.800000 56 49 60
1.696235 -0.445677 3.800000 56 50 59
1.696235 -0.439025 3.800000 56 48 60
1.696235 -0.432374 3.800000 54 47 62
1.696235 -0.425722 3.800000 52 51 64
1.696235 -0.419070 3.800000 61 55 66
1.714983 -0.416976 3.842000 70 51 64
1.734177 -0.414842 3.885000 84 47 61
1.734177 -0.408042 3.885000 98 77 99
1.677933 -0.052641 3.759000 102 72 76
1.677933 -0.046061 3.759000 98 71 83
1.677933 -0.039481 3.759000 95 70 80
1.677933 -0.032901 3.759000 92 67 78
1.677933 -0.026320 3.759000 89 70 78
1.677933 -0.019740 3.759000 85 72 78
1.677933 -0.013160 3.759000 82 71 71
1.677933 -0.006580 3.759000 85 69 65
1.696235 -0.000000 3.800000 89 68 66
1.677933 0.006580 3.759000 87 70 67
1.677933 0.013160 3.759000 86 70 67
1.677933 0.019740 3.759000 84 68 68
1.677933 0.026321 3.759000 83 64 70
1.677933 0.032901 3.759000 81 56 72
1.677933 0.039481 3.759000 79 48 56
1.677933 0.046061 3.759000 49 41 39
1.677933 0.052641 3.759000 19 15 25
1.677933 0.059221 3.759000 25 8 11
1.677933 0.065801 3.759000 31 12 15
1.677933 0.072381 3.759000 38 20 19
1.677933 0.078962 3.759000 45 26 27
1.696235 0.086475 3.800000 29 22 36
1.696235 0.093127 3.800000 13 16 25
1.677933 0.098702 3.759000 36 26 15
1.677933 0.105282 3.759000 59 42 30
1.677933 0.111862 3.759000 65 54 44
1.677933 0.118442 3.759000 72 51 45
1.659632 0.123659 3.718000 76 49 45
1.677933 0.131603 3.759000 80 47 50
1.659632 0.136676 3.718000 75 50 56
1.677933 0.144763 3.759000 71 53 51
1.677933 0.151343 3.759000 60 51 47
1.677933 0.157923 3.759000 49 34 37
1.677933 0.164503 3.759000 29 14 27
1.677933 0.171083 3.759000 10 11 23
1.677933 0.177664 3.759000 14 10 20
1.677933 0.184244 3.759000 18 11 21
1.677933 0.190824 3.759000 16 12 23
1.677933 0.197404 3.759000 14 14 19
1.677933 0.203984 3.759000 20 15 16
1.677933 0.210564 3.759000 26 14 15
1.774351 0.702782 3.975000 16 10 6
1.774351 0.709740 3.975000 14 9 7
1.774351 0.716699 3.975000 13 9 9
1.774351 0.723657 3.975000 12 9 6
1.774351 0.730615 3.975000 8 10 4
1.774351 0.737573 3.975000 5 9 6
1.774351 0.744532 3.975000 8 8 8
1.774351 0.751490 3.975000 12 7 5
1.754264 0.749862 3.930000 12 9 3
1.734177 0.748076 3.885000 13 8 4
1.714983 0.746522 3.842000 13 8 5
1.734177 0.761678 3.885000 13 9 8
1.754264 0.777380 3.930000 15 14 11
1.774351 0.793239 3.975000 17 10 10
1.774351 0.800197 3.975000 21 4 10
1.774351 0.841947 3.975000 21 15 11
1.774351 0.848905 3.975000 19 14 11
1.774351 0.855863 3.975000 22 14 10
1.774351 0.862822 3.975000 26 12 13
1.774351 0.869780 3.975000 25 10 15
1.774351 0.876738 3.975000 25 11 14
1.774351 0.883696 3.975000 25 12 13
1.543573 0.823239 3.458000 3 12 23
1.559197 0.837686 3.493000 3 1 10
1.543573 0.835346 3.458000 4 3 6
1.543573 0.841399 3.458000 4 4 2
1.543573 0.847452 3.458000 4 4 3
1.543573 0.853505 3.458000 4 4 4
1.543573 0.859559 3.458000 4 4 3
1.527950 0.856851 3.423000 4 5 3
1.527950 0.862843 3.423000 4 5 2
1.527950 0.868835 3.423000 5 6 1
1.527950 0.874827 3.423000 7 4 1
1.527950 0.880818 3.423000 5 4 1
1.543573 0.895878 3.458000 4 4 2
1.543573 0.901931 3.458000 4 5 3
1.543573 0.907985 3.458000 4 4 3
1.543573 0.914038 3.458000 6 5 3
1.559197 0.929404 3.493000 9 4 3
1.559197 0.935518 3.493000 7 4 4
1.559197 0.941633 3.493000 6 6 4
1.559197 0.947747 3.493000 4 10 5
1.559197 0.953862 3.493000 3 9 6
1.559197 0.959976 3.493000 10 9 7
1.341811 0.873493 3.006000 62 41 46
1.330205 0.871154 2.980000 64 44 50
1.330205 0.876370 2.980000 67 47 55
1.330205 0.881587 2.980000 72 51 60
1.319046 0.879364 2.955000 77 52 63
1.307886 0.877053 2.930000 76 52 66
1.196292 0.839750 2.680000 72 47 50
1.169063 0.825221 2.619000 74 51 52
1.169063 0.829805 2.619000 75 53 54
1.151654 0.821965 2.580000 77 50 54
1.142727 0.820074 2.560000 75 49 54
1.134692 0.818758 2.542000 73 53 54
1.126211 0.817055 2.523000 75 55 53
1.118176 0.815611 2.505000 77 52 52
1.110141 0.814104 2.487000 76 51 51
1.110141 0.818457 2.487000 76 52 54
1.094071 0.810900 2.451000 76 52 58
1.078894 0.803882 2.417000 76 49 64
1.064164 0.797080 2.384000 77 47 70
1.056576 0.795539 2.367000 79 51 67
1.049434 0.794277 2.351000 72 58 64
1.049434 0.798393 2.351000 65 55 65
1.035596 0.791926 2.320000 73 56 66
1.021758 0.785351 2.289000 81 56 61
1.008367 0.779013 2.259000 79 55 56
1.001671 0.777768 2.244000 78 57 61
0.995422 0.776819 2.230000 78 56 66
0.995422 0.780723 2.230000 78 57 68
0.982477 0.774423 2.201000 78 59 70
0.970425 0.768729 2.174000 79 58 66
0.964175 0.767559 2.160000 79 55 63
0.952123 0.761699 2.133000 79 59 69
0.952123 0.765432 2.133000 73 62 75
0.946320 0.764479 2.120000 67 61 71
0.946320 0.768190 2.120000 73 60 68
0.940517 0.767167 2.107000 80 59 72
0.929358 0.761709 2.082000 80 59 77
0.923555 0.760575 2.069000 80 59 75
0.912842 0.755332 2.045000 82 57 72
0.902129 0.750005 2.021000 85 54 68
0.886506 0.740493 1.986000 81 57 64
0.881596 0.739849 1.975000 77 61 67
0.881596 0.743306 1.975000 79 64 70
0.876686 0.742604 1.964000 82 62 69
0.871329 0.741484 1.952000 82 58 68
0.866419 0.740703 1.941000 82 57 66
0.861955 0.740267 1.931000 85 61 65
0.857045 0.739411 1.920000 88 62 67
0.847671 0.734648 1.899000 86 59 70
0.842761 0.733698 1.888000 85 57 74
0.838297 0.733099 1.878000 83 55 78
1.721708 -0.591837 3.842000 104 79 82
1.702887 -0.578715 3.800000 102 77 81
1.702887 -0.572063 3.800000 101 79 80
1.721708 -0.571661 3.842000 100 77 79
1.721708 -0.564935 3.842000 99 77 77
1.721708 -0.558210 3.842000 97 73 75
1.702887 -0.545456 3.800000 96 72 75
1.721708 -0.544759 3.842000 94 70 76
1.702887 -0.532152 3.800000 93 72 73
1.702887 -0.525500 3.800000 89 72 71
1.702887 -0.518848 3.800000 86 72 66
1.702887 -0.512196 3.800000 82 66 61
1.684513 -0.500090 3.759000 79 62 62
1.684513 -0.493510 3.759000 74 57 63
1.702887 -0.492241 3.800000 68 54 64
1.702887 -0.485589 3.800000 65 49 65
1.702887 -0.478937 3.800000 62 49 63
1.721708 -0.477505 3.842000 59 48 62
1.702887 -0.465633 3.800000 56 50 61
1.702887 -0.458981 3.800000 53 49 61
1.702887 -0.452329 3.800000 51 51 61
1.702887 -0.445677 3.800000 54 51 62
1.702887 -0.439025 3.800000 57 51 62
1.702887 -0.432374 3.800000 58 50 63
1.702887 -0.425722 3.800000 60 51 65
1.702887 -0.419070 3.800000 64 53 68
1.740978 -0.421643 3.885000 69 50 65
1.684513 -0.052641 3.759000 97 73 80
1.702887 -0.046563 3.800000 95 72 87
1.702887 -0.039911 3.800000 94 72 83
1.684513 -0.032901 3.759000 92 70 79
1.684513 -0.026320 3.759000 90 71 79
1.702887 -0.019956 3.800000 87 69 79
1.684513 -0.013160 3.759000 85 70 70
1.684513 -0.006580 3.759000 87 68 62
1.702887 -0.000000 3.800000 89 67 64
1.684513 0.006580 3.759000 87 70 67
1.684513 0.013160 3.759000 86 73 69
1.684513 0.019740 3.759000 83 69 71
1.684513 0.026321 3.759000 81 69 76
1.684513 0.032901 3.759000 76 62 82
1.684513 0.039481 3.759000 71 47 62
1.684513 0.046061 3.759000 47 28 42
1.684513 0.052641 3.759000 23 7 31
1.684513 0.059221 3.759000 27 9 21
1.684513 0.065801 3.759000 32 11 21
1.702887 0.073171 3.800000 41 21 21
1.702887 0.079823 3.800000 50 34 34
1.702887 0.086475 3.800000 38 21 47
1.702887 0.093127 3.800000 26 10 37
1.684513 0.098702 3.759000 44 21 28
1.684513 0.105282 3.759000 62 47 36
1.684513 0.111862 3.759000 66 54 44
1.684513 0.118442 3.759000 71 55 44
1.684513 0.125023 3.759000 72 50 44
1.684513 0.131603 3.759000 74 44 45
1.684513 0.138183 3.759000 71 50 47
1.684513 0.144763 3.759000 69 56 46
1.684513 0.151343 3.759000 58 50 45
1.684513 0.157923 3.759000 48 35 33
1.684513 0.164503 3.759000 32 18 22
1.684513 0.171083 3.759000 17 9 21
1.684513 0.177664 3.759000 18 10 21
1.684513 0.184244 3.759000 19 12 23
1.702887 0.192905 3.800000 18 14 25
1.702887 0.199557 3.800000 17 17 22
1.702887 0.206209 3.800000 21 16 19
1.684513 0.210564 3.759000 25 18 16
1.781309 0.695824 3.975000 21 5 12
1.781309 0.702782 3.975000 20 9 10
1.781309 0.709740 3.975000 19 11 12
1.781309 0.716699 3.975000 17 10 14
1.781309 0.723657 3.975000 15 9 9
1.781309 0.730615 3.975000 12 9 4
1.781309 0.737573 3.975000 9 10 6
1.781309 0.744532 3.975000 10 8 9
1.781309 0.751490 3.975000 12 7 6
1.781309 0.758448 3.975000 12 7 4
1.761143 0.756741 3.930000 12 8 5
1.761143 0.763621 3.930000 10 7 7
1.781309 0.779323 3.975000 8 6 10
1.781309 0.841947 3.975000 22 12 13
1.781309 0.869780 3.975000 23 12 8
1.781309 0.876738 3.975000 20 14 9
1.781309 0.883696 3.975000 23 14 11
1.781309 0.890655 3.975000 26 16 10
1.781309 0.897613 3.975000 25 10 9
1.781309 0.904571 3.975000 24 3 5
1.665244 0.884661 3.716000 3 3 25
1.549627 0.829293 3.458000 3 3 11
1.549627 0.835346 3.458000 3 5 7
1.549627 0.841399 3.458000 3 4 4
1.533942 0.838875 3.423000 4 4 4
1.549627 0.853505 3.458000 3 4 4
1.549627 0.859559 3.458000 3 5 4
1.533942 0.856851 3.423000 3 5 4
1.533942 0.862843 3.423000 4 5 3
1.533942 0.868835 3.423000 4 4 2
1.533942 0.874827 3.423000 5 4 1
1.533942 0.880818 3.423000 4 3 1
1.549627 0.895878 3.458000 2 4 1
1.549627 0.901931 3.458000 3 4 2
1.549627 0.907985 3.458000 4 5 2
1.549627 0.914038 3.458000 6 4 2
1.549627 0.920091 3.458000 9 4 2
1.565311 0.935518 3.493000 8 4 3
1.565311 0.941633 3.493000 8 5 5
1.549627 0.938251 3.458000 7 7 8
1.565311 0.953862 3.493000 6 10 6
1.565311 0.959976 3.493000 10 9 5
1.347073 0.873493 3.006000 60 44 46
1.335422 0.871154 2.980000 64 44 50
1.335422 0.876370 2.980000 67 46 56
1.335422 0.881587 2.980000 74 51 62
1.324218 0.879364 2.955000 81 55 66
1.313015 0.877053 2.930000 78 53 71
1.200983 0.839750 2.680000 74 50 45
1.173647 0.825221 2.619000 75 54 49
1.173647 0.829805 2.619000 77 51 54
1.164685 0.828018 2.599000 80 47 54
1.156170 0.826481 2.580000 74 51 54
1.139141 0.818758 2.542000 69 54 52
1.130627 0.817055 2.523000 71 55 50
1.114494 0.809750 2.487000 74 56 47
1.106428 0.808211 2.469000 75 53 45
1.098362 0.806610 2.451000 76 52 51
1.090744 0.805276 2.434000 76 50 58
1.075507 0.798228 2.400000 76 48 67
1.068337 0.797080 2.384000 78 49 76
1.060719 0.795539 2.367000 81 53 71
1.060719 0.799683 2.367000 76 53 67
1.053549 0.798393 2.351000 71 54 67
1.046379 0.797047 2.335000 76 54 68
1.025765 0.785351 2.289000 81 57 66
1.012321 0.779013 2.259000 80 57 65
1.005599 0.777768 2.244000 79 59 67
0.999325 0.776819 2.230000 78 57 69
0.992604 0.775472 2.215000 77 58 73
0.986330 0.774423 2.201000 78 57 78
0.974230 0.768729 2.174000 79 58 71
0.967957 0.767559 2.160000 80 57 65
0.955857 0.761699 2.133000 82 59 68
0.950032 0.760767 2.120000 78 60 71
0.950032 0.764479 2.120000 74 60 71
0.944206 0.763479 2.107000 78 59 72
0.944206 0.767167 2.107000 82 59 72
0.933003 0.761709 2.082000 81 58 73
0.927177 0.760575 2.069000 81 59 71
0.916422 0.755332 2.045000 82 56 70
0.905667 0.750005 2.021000 84 54 66
0.889982 0.740493 1.986000 81 58 62
0.885053 0.739849 1.975000 79 62 66
0.885053 0.743306 1.975000 80 63 71
0.880123 0.742604 1.964000 82 64 69
0.874746 0.741484 1.952000 82 59 68
0.874746 0.744901 1.952000 83 55 65
0.865335 0.740267 1.931000 88 60 62
0.860406 0.739411 1.920000 92 65 67
0.850995 0.734648 1.899000 89 60 72
0.846066 0.733698 1.888000 86 58 80
0.841585 0.733099 1.878000 84 56 88
1.728433 -0.585112 3.842000 102 77 78
1.728433 -0.578386 3.842000 100 77 78
1.728433 -0.571661 3.842000 99 77 78
1.728433 -0.564935 3.842000 99 75 75
1.709539 -0.552108 3.800000 98 72 72
1.709539 -0.545456 3.800000 97 71 74
1.709539 -0.538804 3.800000 94 69 76
1.709539 -0.532152 3.800000 92 70 73
1.709539 -0.525500 3.800000 88 72 71
1.709539 -0.518848 3.800000 85 69 67
1.709539 -0.512196 3.800000 82 67 63
1.691093 -0.500090 3.759000 79 60 65
1.709539 -0.498892 3.800000 73 54 66
1.709539 -0.492241 3.800000 67 50 63
1.709539 -0.485589 3.800000 66 47 61
1.709539 -0.478937 3.800000 65 47 57
1.709539 -0.472285 3.800000 60 46 53
1.709539 -0.465633 3.800000 56 48 56
1.728433 -0.464054 3.842000 51 49 59
1.709539 -0.452329 3.800000 47 51 59
1.709539 -0.445677 3.800000 52 53 60
1.709539 -0.439025 3.800000 58 50 60
1.709539 -0.432374 3.800000 63 51 61
1.728433 -0.430427 3.842000 69 52 65
1.728433 -0.423702 3.842000 68 59 70
1.728433 -0.416976 3.842000 68 49 66
1.691093 -0.052641 3.759000 92 73 77
1.709539 -0.046563 3.800000 92 73 82
1.709539 -0.039911 3.800000 93 72 77
1.691093 -0.032901 3.759000 92 71 73
1.691093 -0.026320 3.759000 91 69 75
1.691093 -0.019740 3.759000 90 65 77
1.691093 -0.013160 3.759000 89 66 73
1.691093 -0.006580 3.759000 89 67 69
1.691093 -0.000000 3.759000 89 68 70
1.691093 0.006580 3.759000 87 73 72
1.691093 0.013160 3.759000 86 71 70
1.691093 0.019740 3.759000 83 69 69
1.691093 0.026321 3.759000 80 72 70
1.691093 0.032901 3.759000 72 76 70
1.691093 0.039481 3.759000 64 43 59
1.691093 0.046061 3.759000 45 18 48
1.691093 0.052641 3.759000 27 11 37
1.691093 0.059221 3.759000 30 10 25
1.709539 0.066519 3.800000 34 13 23
1.709539 0.073171 3.800000 45 20 21
1.709539 0.079823 3.800000 56 25 29
1.691093 0.085542 3.759000 48 19 37
1.691093 0.092122 3.759000 40 10 34
1.691093 0.098702 3.759000 52 4 31
1.691093 0.105282 3.759000 65 42 38
1.691093 0.111862 3.759000 67 60 46
1.691093 0.118442 3.759000 70 56 46
1.691093 0.125023 3.759000 69 53 45
1.691093 0.131603 3.759000 68 49 45
1.691093 0.138183 3.759000 68 51 45
1.691093 0.144763 3.759000 68 57 43
1.691093 0.151343 3.759000 57 61 42
1.691093 0.157923 3.759000 47 31 32
1.691093 0.164503 3.759000 36 14 22
1.691093 0.171083 3.759000 25 11 20
1.691093 0.177664 3.759000 23 11 18
1.691093 0.184244 3.759000 21 12 20
1.709539 0.192905 3.800000 21 15 23
1.709539 0.199557 3.800000 21 15 22
1.691093 0.203984 3.759000 22 16 20
1.691093 0.210564 3.759000 24 16 18
1.788267 0.688866 3.975000 22 14 16
1.788267 0.695824 3.975000 23 13 14
1.788267 0.702782 3.975000 24 13 13
1.788267 0.709740 3.975000 25 13 19
1.788267 0.716699 3.975000 22 13 25
1.788267 0.723657 3.975000 19 11 18
1.788267 0.730615 3.975000 16 8 12
1.788267 0.737573 3.975000 14 9 9
1.788267 0.744532 3.975000 13 10 6
1.788267 0.751490 3.975000 12 9 4
1.788267 0.758448 3.975000 12 5 3
1.788267 0.765406 3.975000 12 7 5
1.788267 0.772365 3.975000 7 8 8
1.788267 0.883696 3.975000 21 16 10
1.788267 0.897613 3.975000 33 12 6
1.788267 0.904571 3.975000 39 6 4
1.788267 0.911529 3.975000 53 8 1
1.788267 0.918487 3.975000 68 51 44
1.788267 0.925446 3.975000 72 72 87
1.788267 0.932404 3.975000 77 62 69
1.788267 0.939362 3.975000 40 56 50
1.788267 0.946320 3.975000 4 17 28
1.555680 0.829293 3.458000 3 3 6
1.555680 0.835346 3.458000 2 4 5
1.555680 0.841399 3.458000 3 5 4
1.539934 0.838875 3.423000 4 4 5
1.555680 0.853505 3.458000 3 4 6
1.555680 0.859559 3.458000 2 4 5
1.539934 0.856851 3.423000 3 5 4
1.539934 0.862843 3.423000 4 4 3
1.539934 0.868835 3.423000 4 3 3
1.539934 0.874827 3.423000 4 3 3
1.539934 0.880818 3.423000 2 3 3
1.555680 0.895878 3.458000 1 3 3
1.555680 0.901931 3.458000 2 4 2
1.555680 0.907985 3.458000 4 4 2
1.555680 0.914038 3.458000 6 5 1
1.555680 0.920091 3.458000 9 4 2
1.555680 0.926144 3.458000 9 4 3
1.555680 0.932197 3.458000 10 4 7
1.555680 0.938251 3.458000 9 6 11
1.571426 0.953862 3.493000 9 8 7
1.571426 0.959976 3.493000 10 12 3
1.352335 0.873493 3.006000 59 44 45
1.340638 0.871154 2.980000 63 45 48
1.340638 0.876370 2.980000 68 47 53
1.329391 0.874191 2.955000 77 53 59
1.318144 0.871924 2.930000 86 53 62
1.306897 0.869570 2.905000 81 54 66
1.215122 0.841602 2.701000 76 50 56
1.205675 0.839750 2.680000 76 49 50
1.178232 0.825221 2.619000 77 50 54
1.178232 0.829805 2.619000 80 50 58
1.160687 0.821965 2.580000 83 49 54
1.151689 0.820074 2.560000 74 54 51
1.151689 0.824556 2.560000 65 54 51
1.135044 0.817055 2.523000 68 56 52
1.126946 0.815611 2.505000 72 55 51
1.110750 0.808211 2.469000 74 55 49
1.102652 0.806610 2.451000 76 51 53
1.095004 0.805276 2.434000 76 49 58
1.087356 0.803882 2.417000 76 49 63
1.072510 0.797080 2.384000 80 49 69
1.072510 0.801253 2.384000 84 51 67
1.064862 0.799683 2.367000 81 50 64
1.057665 0.798393 2.351000 78 51 66
1.050466 0.797047 2.335000 79 51 67
1.029772 0.785351 2.289000 81 55 66
1.023024 0.784186 2.274000 81 58 64
1.009528 0.777768 2.244000 81 57 64
1.003229 0.776819 2.230000 79 55 63
0.996481 0.775472 2.215000 77 55 69
0.990183 0.774423 2.201000 78 56 74
0.971738 0.763778 2.160000 79 56 70
0.965889 0.762940 2.147000 82 56 66
0.959591 0.761699 2.133000 85 58 67
0.953743 0.760767 2.120000 83 61 69
0.953743 0.764479 2.120000 81 60 69
0.947894 0.763479 2.107000 82 59 69
0.942496 0.762798 2.095000 84 57 70
0.936647 0.761709 2.082000 83 56 72
0.930799 0.760575 2.069000 83 56 70
0.920002 0.755332 2.045000 83 55 68
0.909205 0.750005 2.021000 83 57 66
0.893459 0.740493 1.986000 82 59 64
0.888510 0.739849 1.975000 82 59 65
0.888510 0.743306 1.975000 82 62 66
0.883561 0.742604 1.964000 82 61 64
0.878163 0.741484 1.952000 83 60 63
0.878163 0.744901 1.952000 85 59 58
0.868716 0.740267 1.931000 91 61 53
0.858818 0.735175 1.909000 97 59 62
0.849371 0.730393 1.888000 92 58 72
0.844872 0.729812 1.878000 88 56 77
0.840373 0.729195 1.868000 85 55 82
1.716190 -0.578715 3.800000 101 77 76
1.735159 -0.578386 3.842000 100 76 77
1.735159 -0.571661 3.842000 99 76 78
1.716190 -0.558760 3.800000 99 77 73
1.716190 -0.552108 3.800000 98 73 69
1.716190 -0.545456 3.800000 97 73 72
1.716190 -0.538804 3.800000 94 70 76
1.716190 -0.532152 3.800000 91 69 73
1.716190 -0.525500 3.800000 88 69 71
1.716190 -0.518848 3.800000 85 68 68
1.716190 -0.512196 3.800000 82 63 66
1.697673 -0.500090 3.759000 78 58 68
1.716190 -0.498892 3.800000 74 52 70
1.716190 -0.492241 3.800000 69 46 63
1.716190 -0.485589 3.800000 66 46 57
1.716190 -0.478937 3.800000 62 47 50
1.716190 -0.472285 3.800000 59 46 44
1.716190 -0.465633 3.800000 56 48 50
1.735159 -0.464054 3.842000 54 49 57
1.735159 -0.457329 3.842000 51 52 57
1.716190 -0.445677 3.800000 55 51 58
1.735159 -0.443878 3.842000 60 47 58
1.716190 -0.432374 3.800000 65 49 59
1.735159 -0.430427 3.842000 70 49 66
1.744643 -0.426017 3.863000 67 51 73
1.697673 -0.052641 3.759000 87 72 75
1.697673 -0.046061 3.759000 90 72 78
1.697673 -0.039481 3.759000 94 73 72
1.697673 -0.032901 3.759000 93 72 67
1.697673 -0.026320 3.759000 91 70 71
1.697673 -0.019740 3.759000 91 67 76
1.697673 -0.013160 3.759000 91 64 76
1.697673 -0.006580 3.759000 90 64 76
1.697673 -0.000000 3.759000 90 65 76
1.697673 0.006580 3.759000 89 68 77
1.697673 0.013160 3.759000 89 69 72
1.697673 0.019740 3.759000 85 71 68
1.697673 0.026321 3.759000 81 74 63
1.697673 0.032901 3.759000 71 65 59
1.697673 0.039481 3.759000 62 34 57
1.697673 0.046061 3.759000 40 17 55
1.697673 0.052641 3.759000 18 12 42
1.697673 0.059221 3.759000 25 10 30
1.716190 0.066519 3.800000 32 14 25
1.716190 0.073171 3.800000 39 21 21
1.716190 0.079823 3.800000 47 29 24
1.697673 0.085542 3.759000 35 20 27
1.697673 0.092122 3.759000 23 9 30
1.697673 0.098702 3.759000 47 21 34
1.697673 0.105282 3.759000 71 58 41
1.679157 0.110642 3.718000 71 58 49
1.679157 0.117151 3.718000 71 59 48
1.697673 0.125023 3.759000 68 54 47
1.697673 0.131603 3.759000 65 50 45
1.697673 0.138183 3.759000 70 53 43
1.697673 0.144763 3.759000 74 60 41
1.697673 0.151343 3.759000 60 48 40
1.697673 0.157923 3.759000 46 14 31
1.697673 0.164503 3.759000 35 11 23
1.697673 0.171083 3.759000 25 10 19
1.697673 0.177664 3.759000 22 11 15
1.697673 0.184244 3.759000 20 13 18
1.697673 0.190824 3.759000 18 13 22
1.697673 0.197404 3.759000 17 12 22
1.697673 0.203984 3.759000 21 14 22
1.697673 0.210564 3.759000 25 14 20
1.795225 0.688866 3.975000 27 20 17
1.795225 0.695824 3.975000 28 21 16
1.795225 0.702782 3.975000 28 18 16
1.795225 0.709740 3.975000 27 17 26
1.795225 0.716699 3.975000 25 14 36
1.795225 0.723657 3.975000 24 15 28
1.795225 0.730615 3.975000 21 10 20
1.795225 0.737573 3.975000 18 9 12
1.795225 0.744532 3.975000 16 11 4
1.795225 0.751490 3.975000 15 14 3
1.795225 0.758448 3.975000 15 9 2
1.795225 0.765406 3.975000 15 9 6
1.795225 0.772365 3.975000 14 10 10
1.795225 0.883696 3.975000 23 13 10
1.795225 0.897613 3.975000 32 9 4
1.795225 0.904571 3.975000 37 4 2
1.795225 0.911529 3.975000 53 18 1
1.795225 0.918487 3.975000 70 56 39
1.795225 0.925446 3.975000 74 63 78
1.795225 0.932404 3.975000 79 61 69
1.795225 0.939362 3.975000 43 46 61
1.774902 0.935607 3.930000 6 7 31
1.577540 0.837686 3.493000 5 3 1
1.561733 0.835346 3.458000 3 4 2
1.561733 0.841399 3.458000 4 3 4
1.561733 0.847452 3.458000 5 3 6
1.561733 0.853505 3.458000 5 3 9
1.561733 0.859559 3.458000 4 4 6
1.561733 0.865612 3.458000 6 3 4
1.561733 0.871665 3.458000 8 3 4
1.561733 0.877718 3.458000 7 3 4
1.545926 0.874827 3.423000 5 3 5
1.545926 0.880818 3.423000 7 2 6
1.561733 0.895878 3.458000 9 3 4
1.561733 0.901931 3.458000 7 2 3
1.561733 0.907985 3.458000 6 3 2
1.561733 0.914038 3.458000 7 3 1
1.561733 0.920091 3.458000 8 3 2
1.561733 0.926144 3.458000 9 3 4
1.561733 0.932197 3.458000 10 4 9
1.561733 0.938251 3.458000 9 5 14
1.561733 0.944304 3.458000 9 6 7
1.561733 0.950357 3.458000 12 7 1
1.357597 0.873493 3.006000 59 45 44
1.357597 0.878755 3.006000 63 45 46
1.259142 0.854069 2.788000 74 49 50
1.229334 0.848145 2.722000 76 52 61
1.219850 0.846330 2.701000 75 48 56
1.210366 0.844441 2.680000 75 47 59
1.182817 0.829805 2.619000 76 48 63
1.165203 0.821965 2.580000 78 48 55
1.156170 0.820074 2.560000 73 50 48
1.148041 0.818758 2.542000 68 53 51
1.139460 0.817055 2.523000 69 54 55
1.131331 0.815611 2.505000 70 54 54
1.123201 0.814104 2.487000 72 53 54
1.099265 0.801015 2.434000 73 51 56
1.099265 0.805276 2.434000 72 49 58
1.083910 0.798228 2.400000 71 50 60
1.076684 0.797080 2.384000 76 50 63
1.069006 0.795539 2.367000 82 52 62
1.069006 0.799683 2.367000 80 52 62
1.061780 0.798393 2.351000 79 51 64
1.061780 0.802508 2.351000 79 52 67
1.040553 0.790498 2.304000 79 55 65
1.027004 0.784186 2.274000 80 56 64
1.013456 0.777768 2.244000 81 58 61
1.007133 0.776819 2.230000 79 53 58
1.000358 0.775472 2.215000 78 53 64
0.987713 0.769497 2.187000 75 55 71
0.975519 0.763778 2.160000 72 56 69
0.963325 0.757965 2.133000 77 57 68
0.957454 0.757056 2.120000 82 59 67
0.957454 0.760767 2.120000 81 59 67
0.957454 0.764479 2.120000 81 60 67
0.951582 0.763479 2.107000 82 58 67
0.946163 0.762798 2.095000 84 56 69
0.934420 0.756953 2.069000 83 56 71
0.929001 0.756164 2.057000 82 56 69
0.918162 0.750900 2.033000 82 57 67
0.907323 0.745552 2.009000 82 60 67
0.902355 0.744967 1.998000 84 57 67
0.891967 0.739849 1.975000 86 54 64
0.891967 0.743306 1.975000 84 58 62
0.886999 0.742604 1.964000 82 60 60
0.881580 0.741484 1.952000 83 59 58
0.881580 0.744901 1.952000 85 60 51
0.872096 0.740267 1.931000 88 58 45
0.857643 0.731324 1.899000 92 55 58
0.852676 0.730393 1.888000 89 55 72
0.848159 0.729812 1.878000 86 54 74
0.843643 0.729195 1.868000 83 54 76
1.741884 -0.585112 3.842000 101 80 76
1.741884 -0.578386 3.842000 100 78 77
1.741884 -0.571661 3.842000 99 77 77
1.722842 -0.558760 3.800000 99 75 73
1.722842 -0.552108 3.800000 98 72 70
1.722842 -0.545456 3.800000 97 71 72
1.722842 -0.538804 3.800000 94 69 75
1.722842 -0.532152 3.800000 91 68 73
1.722842 -0.525500 3.800000 88 67 71
1.722842 -0.518848 3.800000 86 66 68
1.722842 -0.512196 3.800000 82 62 65
1.704254 -0.500090 3.759000 78 57 66
1.722842 -0.498892 3.800000 75 52 67
1.722842 -0.492241 3.800000 72 47 62
1.704254 -0.480349 3.759000 66 46 58
1.722842 -0.478937 3.800000 60 46 54
1.722842 -0.472285 3.800000 58 45 51
1.741884 -0.470779 3.842000 57 46 55
1.741884 -0.464054 3.842000 56 49 58
1.741884 -0.457329 3.842000 56 51 56
1.741884 -0.450603 3.842000 59 53 53
1.741884 -0.443878 3.842000 62 50 57
1.741884 -0.437152 3.842000 67 51 62
1.761379 -0.435244 3.885000 72 50 69
1.761379 -0.428444 3.885000 66 55 76
1.704254 -0.052641 3.759000 82 71 76
1.704254 -0.046061 3.759000 89 71 80
1.704254 -0.039481 3.759000 96 72 76
1.704254 -0.032901 3.759000 94 74 72
1.704254 -0.026320 3.759000 92 70 75
1.704254 -0.019740 3.759000 93 69 78
1.704254 -0.013160 3.759000 94 64 77
1.704254 -0.006580 3.759000 92 60 77
1.704254 -0.000000 3.759000 91 64 78
1.685665 0.006508 3.718000 91 68 80
1.704254 0.013160 3.759000 92 69 70
1.685665 0.019525 3.718000 87 72 60
1.685665 0.026034 3.718000 83 74 65
1.685665 0.032542 3.718000 71 78 69
1.685665 0.039050 3.718000 60 43 63
1.685665 0.045559 3.718000 34 6 57
1.704254 0.052641 3.759000 9 8 39
1.704254 0.059221 3.759000 19 7 21
1.704254 0.065801 3.759000 30 13 21
1.704254 0.072381 3.759000 34 21 20
1.704254 0.078962 3.759000 39 25 25
1.704254 0.085542 3.759000 22 26 29
1.704254 0.092122 3.759000 6 14 32
1.704254 0.098702 3.759000 41 13 36
1.685665 0.104134 3.718000 77 47 41
1.685665 0.110642 3.718000 74 58 47
1.685665 0.117151 3.718000 72 57 49
1.704254 0.125023 3.759000 67 56 51
1.704254 0.131603 3.759000 63 53 48
1.704254 0.138183 3.759000 72 54 46
1.704254 0.144763 3.759000 81 58 43
1.704254 0.151343 3.759000 63 58 40
1.704254 0.157923 3.759000 46 26 31
1.704254 0.164503 3.759000 35 9 22
1.704254 0.171083 3.759000 25 11 15
1.704254 0.177664 3.759000 22 13 9
1.704254 0.184244 3.759000 20 12 15
1.722842 0.192905 3.800000 16 13 22
1.722842 0.199557 3.800000 13 13 24
1.704254 0.203984 3.759000 20 14 26
1.704254 0.210564 3.759000 27 14 28
1.802184 0.688866 3.975000 33 25 19
1.802184 0.695824 3.975000 34 23 17
1.802184 0.702782 3.975000 32 22 15
1.802184 0.709740 3.975000 30 18 22
1.802184 0.716699 3.975000 29 13 29
1.802184 0.723657 3.975000 29 12 22
1.802184 0.730615 3.975000 26 10 16
1.802184 0.737573 3.975000 23 11 10
1.802184 0.744532 3.975000 20 13 4
1.802184 0.751490 3.975000 18 12 4
1.802184 0.758448 3.975000 18 11 3
1.802184 0.765406 3.975000 19 10 6
1.802184 0.772365 3.975000 22 10 10
1.802184 0.883696 3.975000 26 12 7
1.802184 0.897613 3.975000 31 8 6
1.802184 0.904571 3.975000 36 5 4
1.802184 0.911529 3.975000 54 5 1
1.802184 0.918487 3.975000 72 45 40
1.802184 0.925446 3.975000 77 64 78
1.781782 0.921849 3.930000 82 62 73
1.781782 0.928728 3.930000 45 60 68
1.781782 0.935607 3.930000 9 17 34
1.583655 0.837686 3.493000 7 1 1
1.567786 0.835346 3.458000 5 3 2
1.567786 0.841399 3.458000 6 3 4
1.551918 0.838875 3.423000 7 3 5
1.551918 0.844867 3.423000 7 3 6
1.551918 0.850859 3.423000 7 3 5
1.551918 0.856851 3.423000 10 3 4
1.551918 0.862843 3.423000 13 3 3
1.567786 0.877718 3.458000 10 3 3
1.567786 0.883772 3.458000 7 2 4
1.567786 0.889825 3.458000 12 1 6
1.567786 0.895878 3.458000 17 1 4
1.567786 0.901931 3.458000 13 1 3
1.567786 0.907985 3.458000 9 2 2
1.567786 0.914038 3.458000 8 2 1
1.567786 0.920091 3.458000 7 2 2
1.567786 0.926144 3.458000 8 3 4
1.567786 0.932197 3.458000 10 4 7
1.567786 0.938251 3.458000 10 4 11
1.567786 0.944304 3.458000 10 4 6
1.567786 0.950357 3.458000 14 5 2
1.362859 0.873493 3.006000 59 43 45
1.351071 0.871154 2.980000 63 46 46
1.253594 0.847023 2.765000 73 50 52
1.243620 0.845086 2.743000 74 50 56
1.234099 0.843381 2.722000 75 50 60
1.234099 0.848145 2.722000 76 49 56
1.224578 0.846330 2.701000 75 46 52
1.215057 0.844441 2.680000 74 48 55
1.196469 0.836142 2.639000 73 50 58
1.178333 0.828018 2.599000 73 48 56
1.160652 0.820074 2.560000 72 47 55
1.152491 0.818758 2.542000 71 51 59
1.135716 0.811226 2.505000 70 53 64
1.127555 0.809750 2.487000 69 53 60
1.127555 0.814104 2.487000 70 52 56
1.119394 0.812533 2.469000 71 50 57
1.103526 0.805276 2.434000 69 47 58
1.095818 0.803882 2.417000 67 48 60
1.080857 0.797080 2.384000 73 49 61
1.080857 0.801253 2.384000 80 51 61
1.073149 0.799683 2.367000 80 56 60
1.073149 0.803826 2.367000 80 52 62
1.065895 0.802508 2.351000 78 51 65
1.044586 0.790498 2.304000 77 53 65
1.030985 0.784186 2.274000 79 56 66
1.017384 0.777768 2.244000 81 54 65
1.004236 0.771594 2.215000 80 48 64
1.004236 0.775472 2.215000 79 52 68
0.991541 0.769497 2.187000 72 56 71
0.979300 0.763778 2.160000 65 57 70
0.973406 0.762940 2.147000 72 58 68
0.961165 0.757056 2.120000 79 58 67
0.961165 0.760767 2.120000 80 59 67
0.961165 0.764479 2.120000 81 59 67
0.955271 0.763479 2.107000 82 58 67
0.943936 0.758065 2.082000 84 57 70
0.938042 0.756953 2.069000 82 59 73
0.932602 0.756164 2.057000 81 57 71
0.921721 0.750900 2.033000 81 59 69
0.910839 0.745552 2.009000 82 58 70
0.905852 0.744967 1.998000 86 56 71
0.900412 0.743970 1.986000 90 55 67
0.895425 0.743306 1.975000 86 56 62
0.890437 0.742604 1.964000 83 59 63
0.884997 0.741484 1.952000 84 59 64
0.880010 0.740703 1.941000 85 57 63
0.870489 0.736050 1.920000 86 56 63
0.860968 0.731324 1.899000 87 56 68
0.855981 0.730393 1.888000 85 54 74
0.851447 0.729812 1.878000 84 53 74
0.846913 0.729195 1.868000 82 54 75
1.729494 -0.578715 3.800000 100 78 77
1.729494 -0.572063 3.800000 99 79 77
1.729494 -0.565412 3.800000 99 77 77
1.729494 -0.558760 3.800000 99 77 74
1.729494 -0.552108 3.800000 98 73 71
1.729494 -0.545456 3.800000 97 72 72
1.729494 -0.538804 3.800000 94 70 74
1.729494 -0.532152 3.800000 90 69 72
1.729494 -0.525500 3.800000 87 67 71
1.729494 -0.518848 3.800000 85 67 68
1.729494 -0.512196 3.800000 81 62 65
1.710834 -0.500090 3.759000 78 59 65
1.729494 -0.498892 3.800000 73 52 65
1.729494 -0.492241 3.800000 68 47 62
1.710834 -0.480349 3.759000 64 47 59
1.729494 -0.478937 3.800000 60 49 59
1.729494 -0.472285 3.800000 58 46 59
1.729494 -0.465633 3.800000 57 44 59
1.729494 -0.458981 3.800000 57 47 60
1.729494 -0.452329 3.800000 58 51 54
