ply
format ascii 1.0
element vertex 1238
property float x
property float y
property float z
property uchar red
property uchar green
property uchar blue
end_header
-0.057613 0.759764 2.057000 116 87 106
-0.056940 0.754459 2.033000 113 87 103
-0.056268 0.749069 2.009000 115 88 101
-0.055960 0.748465 1.998000 117 89 103
-0.055624 0.747446 1.986000 115 87 105
-0.055624 0.750923 1.986000 114 86 103
-0.055316 0.750221 1.975000 113 87 102
-0.055008 0.749480 1.964000 113 89 93
-0.053187 0.728000 1.899000 110 87 84
-0.053187 0.731324 1.899000 108 85 94
-0.052879 0.730393 1.888000 108 85 105
-0.073206 0.858950 2.788000 121 99 123
-0.072602 0.856704 2.765000 128 96 118
-0.072024 0.854689 2.743000 136 96 122
-0.070922 0.846330 2.701000 130 98 127
-0.069819 0.837824 2.659000 125 97 123
-0.069294 0.836142 2.639000 124 96 119
-0.068243 0.828018 2.599000 124 96 118
-0.067744 0.826481 2.580000 122 96 117
-0.067219 0.824556 2.560000 120 96 115
-0.066747 0.823208 2.542000 122 99 114
-0.066248 0.821471 2.523000 125 97 114
-0.065775 0.819996 2.505000 123 94 115
-0.065302 0.818457 2.487000 122 94 116
-0.064357 0.810900 2.451000 122 94 117
-0.063911 0.809536 2.434000 123 93 117
-0.063464 0.808113 2.417000 123 92 117
-0.063018 0.806631 2.400000 123 93 118
-0.062598 0.805426 2.384000 121 94 118
-0.062152 0.803826 2.367000 119 92 117
-0.061731 0.802508 2.351000 119 93 116
-0.060917 0.795988 2.320000 120 91 117
-0.060103 0.789358 2.289000 119 91 118
-0.059316 0.782967 2.259000 118 92 115
-0.058922 0.781696 2.244000 117 93 113
-0.058922 0.785625 2.244000 117 92 114
-0.058554 0.784627 2.230000 118 93 116
-0.058160 0.783226 2.215000 120 92 112
-0.057084 0.772534 2.174000 117 90 108
-0.056375 0.766698 2.147000 114 91 107
-0.055666 0.760767 2.120000 112 91 106
-0.055009 0.755463 2.095000 111 92 105
-0.055009 0.759131 2.095000 114 94 105
-0.054668 0.758065 2.082000 117 92 106
-0.054668 0.761709 2.082000 117 90 107
-0.054327 0.760575 2.069000 117 88 109
-0.054012 0.759764 2.057000 114 87 112
-0.053382 0.754459 2.033000 112 87 107
-0.052751 0.749069 2.009000 116 87 103
-0.052462 0.748465 1.998000 121 87 105
-0.052147 0.747446 1.986000 118 86 107
-0.052147 0.750923 1.986000 116 86 109
-0.051859 0.750221 1.975000 114 88 111
-0.051570 0.749480 1.964000 112 87 104
-0.049863 0.728000 1.899000 109 85 97
-0.049863 0.731324 1.899000 106 86 105
-0.049574 0.730393 1.888000 108 85 114
-0.068865 0.860809 2.810000 126 100 131
-0.068326 0.858950 2.788000 122 100 122
-0.067762 0.856704 2.765000 126 96 113
-0.067223 0.854689 2.743000 130 95 118
-0.066193 0.846330 2.701000 127 96 123
-0.065164 0.837824 2.659000 124 96 122
-0.065164 0.842479 2.659000 124 96 121
-0.064184 0.834390 2.619000 123 98 118
-0.063228 0.826481 2.580000 122 96 116
-0.063228 0.830998 2.580000 120 96 115
-0.062297 0.823208 2.542000 122 96 115
-0.061831 0.821471 2.523000 124 97 117
-0.061390 0.819996 2.505000 122 95 120
-0.060949 0.818457 2.487000 121 96 119
-0.060067 0.810900 2.451000 121 95 118
-0.059650 0.809536 2.434000 121 94 118
-0.059233 0.808113 2.417000 121 92 118
-0.058817 0.806631 2.400000 121 94 120
-0.058425 0.805426 2.384000 120 93 122
-0.058008 0.803826 2.367000 119 93 119
-0.057616 0.802508 2.351000 118 91 117
-0.057224 0.801134 2.335000 117 89 117
-0.056097 0.789358 2.289000 115 90 117
-0.055361 0.782967 2.259000 113 93 114
-0.054994 0.781696 2.244000 114 93 111
-0.054994 0.785625 2.244000 115 93 112
-0.054651 0.784627 2.230000 116 93 113
-0.054283 0.783226 2.215000 117 94 110
-0.053278 0.772534 2.174000 115 92 107
-0.052617 0.766698 2.147000 113 94 106
-0.051955 0.760767 2.120000 113 93 106
-0.051636 0.759791 2.107000 113 94 106
-0.051636 0.763479 2.107000 114 93 106
-0.051024 0.758065 2.082000 116 92 107
-0.050705 0.756953 2.069000 115 89 108
-0.050705 0.760575 2.069000 115 88 113
-0.050411 0.759764 2.057000 114 88 118
-0.049823 0.754459 2.033000 113 88 112
-0.049235 0.749069 2.009000 115 87 106
-0.048965 0.748465 1.998000 117 86 107
-0.048671 0.747446 1.986000 116 85 109
-0.048671 0.750923 1.986000 115 84 114
-0.048401 0.750221 1.975000 113 85 120
-0.047838 0.744901 1.952000 112 86 115
-0.046784 0.731833 1.909000 110 86 110
-0.046539 0.731324 1.899000 108 89 117
-0.046269 0.730393 1.888000 110 86 124
-0.064492 0.863200 2.834000 127 99 126
-0.063946 0.860809 2.810000 125 101 129
-0.063445 0.858950 2.788000 124 98 123
-0.062922 0.856704 2.765000 124 96 118
-0.062922 0.861544 2.765000 125 95 120
-0.061943 0.852910 2.722000 124 97 123
-0.061465 0.851058 2.701000 124 96 122
-0.060510 0.842479 2.659000 123 95 121
-0.059599 0.834390 2.619000 123 96 118
-0.058712 0.826481 2.580000 122 96 116
-0.058712 0.830998 2.580000 121 95 115
-0.058257 0.829037 2.560000 122 95 115
-0.057415 0.821471 2.523000 123 96 116
-0.057005 0.819996 2.505000 122 96 117
-0.056595 0.818457 2.487000 121 96 116
-0.055776 0.810900 2.451000 120 97 116
-0.055389 0.809536 2.434000 120 94 115
-0.055002 0.808113 2.417000 120 91 115
-0.054616 0.806631 2.400000 120 92 116
-0.054251 0.805426 2.384000 120 92 118
-0.053865 0.803826 2.367000 120 91 116
-0.053501 0.802508 2.351000 117 89 115
-0.053136 0.801134 2.335000 115 90 115
-0.052431 0.794531 2.304000 112 90 116
-0.051407 0.782967 2.259000 109 92 113
-0.051066 0.781696 2.244000 111 93 110
-0.050747 0.780723 2.230000 114 93 113
-0.050747 0.784627 2.230000 114 93 116
-0.050406 0.783226 2.215000 115 93 112
-0.049473 0.772534 2.174000 113 93 109
-0.049154 0.771340 2.160000 112 93 108
-0.048540 0.765432 2.133000 113 95 107
-0.048244 0.764479 2.120000 115 93 108
-0.047675 0.759131 2.095000 115 93 110
-0.047379 0.758065 2.082000 115 91 107
-0.047083 0.756953 2.069000 114 89 104
-0.047083 0.760575 2.069000 114 87 109
-0.046537 0.755332 2.045000 114 89 114
-0.045991 0.750005 2.021000 114 87 109
-0.045718 0.749069 2.009000 114 87 105
-0.045581 0.750338 2.003000 114 86 106
-0.045467 0.751962 1.998000 114 84 108
-0.045194 0.750923 1.986000 114 85 110
-0.044944 0.750221 1.975000 113 85 112
-0.044421 0.744901 1.952000 112 86 110
-0.043692 0.736050 1.920000 111 87 108
-0.043215 0.731324 1.899000 110 87 111
-0.042964 0.730393 1.888000 112 87 115
-0.060014 0.860203 2.857000 131 103 123
-0.060014 0.865204 2.857000 128 99 124
-0.060014 0.870205 2.857000 126 98 125
-0.059027 0.860809 2.810000 125 98 127
-0.058565 0.858950 2.788000 123 98 125
-0.058082 0.856704 2.765000 124 96 123
-0.057619 0.854689 2.743000 124 95 123
-0.057178 0.852910 2.722000 124 96 123
-0.056737 0.851058 2.701000 123 97 122
-0.055855 0.842479 2.659000 123 95 122
-0.054595 0.828018 2.599000 122 95 119
-0.054196 0.826481 2.580000 122 95 116
-0.053775 0.824556 2.560000 121 94 115
-0.053397 0.823208 2.542000 121 95 115
-0.052998 0.821471 2.523000 122 98 114
-0.052620 0.819996 2.505000 121 96 114
-0.052242 0.818457 2.487000 120 96 114
-0.051486 0.810900 2.451000 118 96 114
-0.051129 0.809536 2.434000 117 96 113
-0.050414 0.802429 2.400000 119 93 113
-0.050078 0.801253 2.384000 121 92 113
-0.049721 0.799683 2.367000 120 92 114
-0.049385 0.798393 2.351000 119 92 114
-0.049049 0.797047 2.335000 117 90 114
-0.048734 0.795988 2.320000 115 92 114
-0.048083 0.789358 2.289000 115 92 115
-0.047453 0.782967 2.259000 116 93 112
-0.047137 0.781696 2.244000 116 92 110
-0.047137 0.785625 2.244000 116 93 114
-0.046843 0.784627 2.230000 115 93 119
-0.046528 0.783226 2.215000 115 94 115
-0.045667 0.772534 2.174000 112 92 111
-0.045100 0.766698 2.147000 109 92 110
-0.044806 0.765432 2.133000 113 93 109
-0.044533 0.764479 2.120000 118 92 111
-0.044008 0.759131 2.095000 116 92 114
-0.043735 0.758065 2.082000 114 93 107
-0.043209 0.752563 2.057000 114 88 100
-0.043209 0.756164 2.057000 114 85 105
-0.042957 0.755332 2.045000 115 86 110
-0.042705 0.754459 2.033000 116 87 107
-0.042453 0.753543 2.021000 112 87 105
-0.042201 0.752586 2.009000 108 87 106
-0.041970 0.751962 1.998000 110 85 107
-0.041718 0.750923 1.986000 113 87 106
-0.041487 0.750221 1.975000 112 86 105
-0.041004 0.744901 1.952000 111 87 105
-0.040332 0.736050 1.920000 110 86 106
-0.039890 0.731324 1.899000 110 86 106
-0.039659 0.730393 1.888000 108 87 107
-0.055013 0.860203 2.857000 133 101 125
-0.055475 0.872472 2.881000 129 99 127
-0.055013 0.870205 2.857000 126 98 126
-0.054108 0.860809 2.810000 124 96 125
-0.053242 0.851864 2.765000 123 97 124
-0.053242 0.856704 2.765000 123 96 123
-0.052818 0.854689 2.743000 124 96 123
-0.049679 0.821965 2.580000 122 94 121
-0.049679 0.826481 2.580000 122 96 116
-0.049294 0.824556 2.560000 122 94 115
-0.048948 0.823208 2.542000 121 93 114
-0.048582 0.821471 2.523000 121 95 111
-0.048235 0.819996 2.505000 120 97 109
-0.047889 0.818457 2.487000 120 96 111
-0.047195 0.810900 2.451000 117 96 114
-0.046868 0.809536 2.434000 114 95 113
-0.046541 0.808113 2.417000 118 95 113
-0.045905 0.801253 2.384000 123 94 115
-0.045578 0.799683 2.367000 120 95 118
-0.045270 0.798393 2.351000 118 92 116
-0.045270 0.802508 2.351000 117 89 113
-0.044962 0.801134 2.335000 116 91 112
-0.044365 0.794531 2.304000 119 93 111
-0.043787 0.788166 2.274000 123 92 107
-0.043209 0.781696 2.244000 120 92 103
-0.042940 0.780723 2.230000 118 93 109
-0.042940 0.784627 2.230000 116 93 115
-0.042651 0.783226 2.215000 115 93 112
-0.041862 0.772534 2.174000 110 92 110
-0.041592 0.771340 2.160000 106 91 109
-0.041072 0.765432 2.133000 113 93 108
-0.040822 0.764479 2.120000 121 91 110
-0.040571 0.763479 2.107000 117 93 111
-0.040090 0.758065 2.082000 114 91 108
-0.039609 0.752563 2.057000 114 87 105
-0.039378 0.751752 2.045000 114 86 109
-0.039147 0.750900 2.033000 116 85 114
-0.038915 0.750005 2.021000 118 86 106
-0.038915 0.753543 2.021000 110 88 98
-0.038684 0.752586 2.009000 103 87 100
-0.038473 0.751962 1.998000 107 85 103
-0.038242 0.750923 1.986000 112 85 101
-0.038030 0.750221 1.975000 111 85 99
-0.037587 0.744901 1.952000 111 86 102
-0.037375 0.744101 1.941000 110 86 105
-0.036759 0.735175 1.909000 110 86 104
-0.036566 0.734648 1.899000 105 87 104
-0.050852 0.869570 2.905000 128 102 123
-0.050432 0.867429 2.881000 129 101 127
-0.050432 0.872472 2.881000 127 100 131
-0.050012 0.870205 2.857000 125 102 127
-0.049609 0.868161 2.834000 124 99 123
-0.048401 0.851864 2.765000 122 99 123
-0.048401 0.856704 2.765000 123 97 124
-0.048016 0.854689 2.743000 124 97 123
-0.043850 0.811226 2.505000 121 93 113
-0.043850 0.815611 2.505000 120 92 109
-0.043850 0.819996 2.505000 120 95 105
-0.043535 0.818457 2.487000 119 98 109
-0.042905 0.810900 2.451000 117 96 114
-0.042607 0.809536 2.434000 116 94 113
-0.042310 0.808113 2.417000 118 95 113
-0.041732 0.801253 2.384000 121 97 118
-0.041434 0.799683 2.367000 119 95 123
-0.041154 0.798393 2.351000 117 95 118
-0.040874 0.797047 2.335000 114 92 113
-0.040612 0.795988 2.320000 111 92 110
-0.040332 0.794531 2.304000 115 92 108
-0.039806 0.788166 2.274000 120 92 102
-0.039544 0.786922 2.259000 119 92 96
-0.039281 0.785625 2.244000 118 94 104
-0.039036 0.784627 2.230000 116 93 112
-0.038774 0.783226 2.215000 114 93 110
-0.038056 0.772534 2.174000 111 91 109
-0.037811 0.771340 2.160000 109 90 108
-0.037583 0.770456 2.147000 113 90 108
-0.037338 0.769166 2.133000 117 89 108
-0.036883 0.763479 2.107000 115 90 109
-0.036445 0.758065 2.082000 112 91 110
-0.035798 0.748173 2.045000 111 89 111
-0.035798 0.751752 2.045000 110 88 114
-0.035588 0.750900 2.033000 112 86 118
-0.035378 0.750005 2.021000 115 87 104
-0.034975 0.744967 1.998000 111 87 91
-0.034975 0.748465 1.998000 108 89 95
-0.034572 0.743306 1.975000 110 86 100
-0.034572 0.746763 1.975000 112 85 96
-0.034170 0.741484 1.952000 111 85 93
-0.033977 0.740703 1.941000 111 86 99
-0.033610 0.736050 1.920000 111 86 105
-0.033242 0.731324 1.899000 111 86 103
-0.033049 0.730393 1.888000 107 87 101
-0.045767 0.864484 2.905000 126 100 125
-0.045389 0.862386 2.881000 126 100 124
-0.045389 0.867429 2.881000 126 100 125
-0.045389 0.872472 2.881000 125 99 127
-0.045011 0.870205 2.857000 125 100 124
-0.044270 0.860809 2.810000 123 100 122
-0.043215 0.845086 2.743000 122 98 123
-0.042884 0.843381 2.722000 123 97 123
-0.042884 0.848145 2.722000 124 96 122
-0.039182 0.805396 2.487000 121 92 113
-0.039182 0.809750 2.487000 120 92 110
-0.039182 0.814104 2.487000 119 93 107
-0.038898 0.812533 2.469000 119 96 110
-0.038347 0.805276 2.434000 118 97 114
-0.038079 0.803882 2.417000 118 96 113
-0.037811 0.802429 2.400000 119 96 113
-0.037291 0.795539 2.367000 120 95 116
-0.037039 0.794277 2.351000 118 93 119
-0.036551 0.787865 2.320000 116 93 116
-0.036551 0.791926 2.320000 111 92 114
-0.036062 0.785351 2.289000 106 92 111
-0.035826 0.784186 2.274000 112 92 109
-0.035589 0.782967 2.259000 118 91 105
-0.035353 0.781696 2.244000 118 90 102
-0.035133 0.780723 2.230000 118 92 107
-0.034896 0.779349 2.215000 116 93 113
-0.034676 0.778276 2.201000 114 91 109
-0.034250 0.772534 2.174000 113 90 105
-0.033825 0.766698 2.147000 112 90 106
-0.033604 0.765432 2.133000 113 90 108
-0.033195 0.759791 2.107000 114 90 110
-0.032801 0.754420 2.082000 112 90 113
-0.032407 0.748962 2.057000 111 91 112
-0.032029 0.743782 2.033000 108 91 111
-0.032029 0.747341 2.033000 106 89 112
-0.031840 0.746468 2.021000 109 87 113
-0.031651 0.745552 2.009000 112 87 105
-0.031478 0.744967 1.998000 113 87 96
-0.031478 0.748465 1.998000 114 87 99
-0.031288 0.747446 1.986000 113 86 102
-0.031115 0.746763 1.975000 112 85 100
-0.030753 0.741484 1.952000 111 87 98
-0.030422 0.736887 1.931000 111 86 103
-0.030249 0.736050 1.920000 111 86 109
-0.029918 0.731324 1.899000 112 86 105
-0.029745 0.730393 1.888000 109 89 101
-0.041732 0.876370 2.980000 124 100 127
-0.041382 0.874191 2.955000 124 98 130
-0.041032 0.871924 2.930000 125 98 128
-0.040682 0.869570 2.905000 125 100 126
-0.040345 0.867429 2.881000 124 101 124
-0.040345 0.872472 2.881000 124 100 123
-0.040345 0.877515 2.881000 123 100 122
-0.039687 0.868161 2.834000 123 98 122
-0.038721 0.851864 2.765000 123 96 122
-0.035080 0.811226 2.505000 121 92 113
-0.034828 0.809750 2.487000 120 93 111
-0.034828 0.814104 2.487000 119 94 110
-0.034576 0.812533 2.469000 118 96 112
-0.034324 0.810900 2.451000 118 96 114
-0.034086 0.809536 2.434000 119 97 113
-0.033610 0.802429 2.400000 118 96 113
-0.033147 0.795539 2.367000 118 96 114
-0.032699 0.788872 2.335000 117 94 116
-0.032489 0.787865 2.320000 115 93 115
-0.032265 0.786465 2.304000 112 92 115
-0.032055 0.785351 2.289000 110 92 112
-0.031845 0.784186 2.274000 114 93 110
-0.031635 0.782967 2.259000 118 93 109
-0.031425 0.781696 2.244000 117 92 108
-0.031229 0.780723 2.230000 117 93 111
-0.031019 0.779349 2.215000 115 92 115
-0.030823 0.778276 2.201000 113 91 108
-0.030249 0.767559 2.160000 112 91 101
-0.030249 0.771340 2.160000 111 92 104
-0.030067 0.770456 2.147000 112 91 108
-0.029688 0.764479 2.120000 113 91 113
-0.029338 0.759131 2.095000 111 91 118
-0.028806 0.748962 2.057000 110 93 115
-0.028470 0.743782 2.033000 108 90 112
-0.028470 0.747341 2.033000 107 90 110
-0.028302 0.746468 2.021000 110 88 109
-0.028134 0.745552 2.009000 112 88 105
-0.028050 0.746832 2.003000 115 87 102
-0.027980 0.748465 1.998000 117 87 103
-0.027658 0.743306 1.975000 114 86 104
-0.027504 0.742604 1.964000 110 85 104
-0.027336 0.741484 1.952000 110 86 104
-0.027042 0.736887 1.931000 110 88 108
-0.026888 0.736050 1.920000 109 86 113
-0.026734 0.735175 1.909000 109 86 107
-0.026440 0.730393 1.888000 108 86 102
-0.037165 0.886648 3.033000 124 104 122
-0.036515 0.876370 2.980000 122 100 124
-0.036209 0.874191 2.955000 123 96 127
-0.035903 0.871924 2.930000 125 98 125
-0.035596 0.869570 2.905000 124 102 124
-0.035596 0.874655 2.905000 123 101 120
-0.035302 0.872472 2.881000 122 103 117
-0.035302 0.877515 2.881000 122 100 119
-0.034726 0.868161 2.834000 123 98 122
-0.031148 0.818758 2.542000 122 93 114
-0.030695 0.811226 2.505000 121 91 113
-0.030695 0.815611 2.505000 121 93 112
-0.030474 0.814104 2.487000 119 96 111
-0.030254 0.812533 2.469000 118 96 112
-0.030033 0.810900 2.451000 119 95 112
-0.029825 0.809536 2.434000 120 95 113
-0.029408 0.802429 2.400000 118 95 114
-0.029004 0.795539 2.367000 117 94 116
-0.028612 0.788872 2.335000 116 94 117
-0.028428 0.787865 2.320000 115 93 116
-0.028232 0.786465 2.304000 114 94 115
-0.028048 0.785351 2.289000 114 93 111
-0.027864 0.784186 2.274000 116 95 108
-0.027681 0.782967 2.259000 118 94 108
-0.027497 0.781696 2.244000 117 93 108
-0.027325 0.780723 2.230000 116 92 113
-0.027142 0.779349 2.215000 114 91 119
-0.026798 0.773326 2.187000 113 91 111
-0.026468 0.767559 2.160000 111 92 104
-0.026308 0.766698 2.147000 110 91 106
-0.026137 0.765432 2.133000 111 91 107
-0.025977 0.764479 2.120000 112 90 110
-0.025671 0.759131 2.095000 110 91 113
-0.025353 0.753331 2.069000 109 90 111
-0.025205 0.752563 2.057000 109 89 109
-0.025058 0.751752 2.045000 109 90 108
-0.024911 0.750900 2.033000 111 90 107
-0.024617 0.745552 2.009000 113 89 106
-0.024617 0.749069 2.009000 117 89 106
-0.024483 0.748465 1.998000 121 87 104
-0.024201 0.743306 1.975000 115 86 103
-0.024066 0.742604 1.964000 109 86 103
-0.023919 0.741484 1.952000 109 86 104
-0.023527 0.732689 1.920000 109 86 106
-0.023392 0.731833 1.909000 108 85 109
-0.023269 0.731324 1.899000 107 85 105
-0.023135 0.730393 1.888000 106 86 101
-0.032129 0.894248 3.059000 124 102 121
-0.031856 0.891957 3.033000 123 101 122
-0.031572 0.889279 3.006000 124 98 124
-0.031299 0.886803 2.980000 125 99 123
-0.030774 0.877053 2.930000 124 100 122
-0.030774 0.882182 2.930000 123 100 117
-0.030511 0.879740 2.905000 123 100 112
-0.030259 0.877515 2.881000 123 99 117
-0.029682 0.865710 2.826000 124 97 122
-0.026499 0.812638 2.523000 125 94 115
-0.026310 0.811226 2.505000 122 92 114
-0.026121 0.809750 2.487000 120 94 113
-0.026121 0.814104 2.487000 117 95 113
-0.025932 0.812533 2.469000 115 98 112
-0.025386 0.799651 2.417000 118 96 111
-0.025386 0.803882 2.417000 121 95 113
-0.025207 0.802429 2.400000 119 94 116
-0.025039 0.801253 2.384000 116 94 117
-0.024693 0.794277 2.351000 115 93 119
-0.024525 0.792959 2.335000 114 94 117
-0.024367 0.791926 2.320000 114 93 115
-0.024041 0.785351 2.289000 114 92 111
-0.023884 0.784186 2.274000 115 93 107
-0.023726 0.782967 2.259000 117 96 107
-0.023569 0.781696 2.244000 116 93 108
-0.023422 0.780723 2.230000 116 91 115
-0.023264 0.779349 2.215000 114 91 123
-0.022970 0.773326 2.187000 113 93 115
-0.022687 0.767559 2.160000 112 91 108
-0.022550 0.766698 2.147000 111 91 107
-0.022266 0.760767 2.120000 112 90 107
-0.022130 0.759791 2.107000 114 89 107
-0.022004 0.759131 2.095000 109 89 108
-0.021731 0.753331 2.069000 105 90 107
-0.021605 0.752563 2.057000 106 90 106
-0.021479 0.751752 2.045000 108 91 105
-0.021227 0.746468 2.021000 107 90 105
-0.021101 0.745552 2.009000 107 89 107
-0.021101 0.749069 2.009000 111 88 110
-0.020985 0.748465 1.998000 115 89 106
-0.020744 0.743306 1.975000 111 87 102
-0.020628 0.742604 1.964000 107 88 103
-0.020502 0.741484 1.952000 108 87 104
-0.020166 0.732689 1.920000 109 88 104
-0.020050 0.731833 1.909000 106 86 105
-0.019945 0.731324 1.899000 104 85 103
-0.019830 0.730393 1.888000 105 86 101
-0.026774 0.894248 3.059000 125 101 121
-0.026774 0.899603 3.059000 124 99 121
-0.026310 0.889279 3.006000 125 98 122
-0.026082 0.886803 2.980000 126 99 122
-0.025645 0.877053 2.930000 125 101 122
-0.025645 0.882182 2.930000 124 99 121
-0.025426 0.879740 2.905000 124 98 120
-0.025216 0.877515 2.881000 125 97 121
-0.024665 0.863259 2.818000 126 95 123
-0.022083 0.812638 2.523000 128 92 115
-0.021925 0.811226 2.505000 123 91 114
-0.021767 0.809750 2.487000 119 93 113
-0.021767 0.814104 2.487000 116 95 112
-0.021610 0.812533 2.469000 113 97 108
-0.021304 0.805276 2.434000 118 99 105
-0.021304 0.809536 2.434000 123 96 110
-0.021155 0.808113 2.417000 119 93 116
-0.021006 0.806631 2.400000 116 93 119
-0.020717 0.799683 2.367000 114 92 122
-0.020437 0.792959 2.335000 113 92 119
-0.020166 0.786465 2.304000 113 92 116
-0.020034 0.785351 2.289000 114 92 111
-0.019772 0.779013 2.259000 115 92 107
-0.019641 0.777768 2.244000 117 92 105
-0.019518 0.776819 2.230000 116 93 104
-0.019518 0.780723 2.230000 116 91 110
-0.019387 0.779349 2.215000 114 89 116
-0.019264 0.778276 2.201000 113 90 112
-0.018905 0.767559 2.160000 112 90 108
-0.018669 0.761699 2.133000 112 89 108
-0.018555 0.760767 2.120000 114 90 108
-0.018442 0.759791 2.107000 117 89 107
-0.018336 0.759131 2.095000 109 89 106
-0.018223 0.758065 2.082000 101 90 105
-0.018109 0.756953 2.069000 104 93 105
-0.018004 0.756164 2.057000 107 91 104
-0.017899 0.755332 2.045000 104 90 104
-0.017689 0.750005 2.021000 102 88 104
-0.017584 0.749069 2.009000 105 87 105
-0.017487 0.748465 1.998000 109 87 103
-0.017190 0.739166 1.964000 107 86 102
-0.017085 0.738067 1.952000 106 87 102
-0.016989 0.737306 1.941000 107 87 103
-0.016805 0.732689 1.920000 109 87 102
-0.016709 0.731833 1.909000 105 86 102
-0.016621 0.731324 1.899000 102 86 101
-0.016525 0.730393 1.888000 103 88 101
-0.021615 0.897030 3.087000 125 100 122
-0.021419 0.894248 3.059000 125 98 122
-0.021237 0.891957 3.033000 126 98 121
-0.021048 0.889279 3.006000 126 98 120
-0.020691 0.879364 2.955000 127 101 121
-0.020516 0.877053 2.930000 125 100 123
-0.020341 0.874655 2.905000 124 100 126
-0.020173 0.872472 2.881000 124 98 129
-0.020005 0.870205 2.857000 125 97 126
-0.019676 0.860809 2.810000 127 95 124
-0.019361 0.851864 2.765000 130 93 123
-0.017799 0.818758 2.542000 125 92 116
-0.017540 0.811226 2.505000 122 91 114
-0.017414 0.809750 2.487000 119 92 113
-0.017288 0.808211 2.469000 118 95 112
-0.017162 0.806610 2.451000 116 99 105
-0.017043 0.805276 2.434000 119 98 99
-0.016924 0.803882 2.417000 122 99 108
-0.016805 0.802429 2.400000 119 95 117
-0.016693 0.801253 2.384000 116 95 121
-0.016574 0.799683 2.367000 114 92 126
-0.016350 0.792959 2.335000 111 92 121
-0.016133 0.786465 2.304000 113 91 117
-0.016028 0.785351 2.289000 115 92 112
-0.015818 0.779013 2.259000 118 90 107
-0.015713 0.777768 2.244000 120 89 103
-0.015615 0.776819 2.230000 118 91 100
-0.015615 0.780723 2.230000 116 92 104
-0.015509 0.779349 2.215000 116 89 109
-0.015509 0.783226 2.215000 116 88 109
-0.015222 0.772534 2.174000 115 87 109
-0.015033 0.766698 2.147000 114 85 109
-0.014844 0.760767 2.120000 114 87 110
-0.014753 0.759791 2.107000 114 88 107
-0.014669 0.759131 2.095000 109 89 105
-0.014578 0.758065 2.082000 105 90 104
-0.014487 0.756953 2.069000 107 91 104
-0.014487 0.760575 2.069000 109 93 103
-0.014403 0.759764 2.057000 108 89 103
-0.014151 0.750005 2.021000 106 87 101
-0.014151 0.753543 2.021000 108 87 100
-0.014025 0.750338 2.003000 109 88 101
-0.013752 0.739166 1.964000 109 87 102
-0.013668 0.738067 1.952000 109 88 102
-0.013591 0.737306 1.941000 111 87 103
-0.013444 0.732689 1.920000 113 87 101
-0.013297 0.728000 1.899000 109 86 99
-0.013297 0.731324 1.899000 105 85 100
-0.013220 0.730393 1.888000 105 86 102
-0.016358 0.899714 3.115000 121 100 123
-0.016211 0.897030 3.087000 123 98 120
-0.016064 0.894248 3.059000 125 96 118
-0.015928 0.891957 3.033000 128 96 119
-0.015649 0.881587 2.980000 128 98 120
-0.015518 0.879364 2.955000 129 98 121
-0.015387 0.877053 2.930000 126 100 122
-0.015256 0.874655 2.905000 124 99 124
-0.015130 0.872472 2.881000 124 98 126
-0.015003 0.870205 2.857000 125 97 123
-0.014757 0.860809 2.810000 129 96 121
-0.014520 0.851864 2.765000 134 94 119
-0.013444 0.815593 2.560000 110 92 118
-0.013444 0.820074 2.560000 116 91 117
-0.013349 0.818758 2.542000 122 91 115
-0.013250 0.817055 2.523000 121 91 114
-0.013155 0.815611 2.505000 120 92 115
-0.013060 0.814104 2.487000 120 95 116
-0.012871 0.806610 2.451000 120 95 111
-0.012782 0.805276 2.434000 120 95 106
-0.012693 0.803882 2.417000 121 95 111
-0.012604 0.802429 2.400000 119 94 116
-0.012520 0.801253 2.384000 117 93 118
-0.012430 0.799683 2.367000 113 92 120
-0.012262 0.792959 2.335000 110 91 118
-0.012183 0.791926 2.320000 113 91 116
-0.012021 0.785351 2.289000 117 90 113
-0.011784 0.773840 2.244000 120 89 110
-0.011711 0.772916 2.230000 124 89 110
-0.011632 0.771594 2.215000 120 91 110
-0.011632 0.775472 2.215000 116 90 109
-0.011632 0.779349 2.215000 117 90 109
-0.011559 0.778276 2.201000 119 88 110
-0.011417 0.772534 2.174000 117 85 111
-0.011275 0.766698 2.147000 116 85 114
-0.011133 0.760767 2.120000 113 88 117
-0.011065 0.759791 2.107000 111 88 112
-0.011002 0.759131 2.095000 110 90 108
-0.010934 0.758065 2.082000 110 89 106
-0.010865 0.756953 2.069000 111 90 105
-0.010865 0.760575 2.069000 112 89 103
-0.010802 0.759764 2.057000 111 86 102
-0.010676 0.754459 2.033000 111 86 101
-0.010613 0.753543 2.021000 110 88 101
-0.010550 0.752586 2.009000 110 88 103
-0.010314 0.739166 1.964000 111 87 105
-0.010251 0.738067 1.952000 112 87 104
-0.010141 0.733507 1.931000 115 87 102
-0.010083 0.732689 1.920000 118 86 102
-0.009973 0.728000 1.899000 113 86 102
-0.009973 0.731324 1.899000 108 85 104
-0.009915 0.730393 1.888000 107 85 106
-0.010906 0.894261 3.115000 125 99 124
-0.010906 0.899714 3.115000 124 98 123
-0.010808 0.897030 3.087000 124 96 119
-0.010710 0.894248 3.059000 125 94 115
-0.010524 0.884017 3.006000 126 94 117
-0.010433 0.881587 2.980000 126 95 120
-0.010345 0.879364 2.955000 127 96 120
-0.010258 0.877053 2.930000 125 98 121
-0.010170 0.874655 2.905000 123 99 122
-0.010086 0.872472 2.881000 123 98 124
-0.010002 0.870205 2.857000 123 98 121
-0.009838 0.860809 2.810000 125 96 118
-0.009603 0.845086 2.743000 126 96 115
-0.009530 0.843381 2.722000 125 95 113
-0.009033 0.821965 2.580000 114 91 117
-0.008963 0.820074 2.560000 118 90 116
-0.008900 0.818758 2.542000 121 90 115
-0.008833 0.817055 2.523000 121 90 115
-0.008770 0.815611 2.505000 120 91 117
-0.008707 0.814104 2.487000 120 92 120
-0.008581 0.806610 2.451000 119 94 117
-0.008462 0.799651 2.417000 120 92 114
-0.008462 0.803882 2.417000 120 92 114
-0.008402 0.802429 2.400000 119 92 115
-0.008346 0.801253 2.384000 119 92 115
-0.008287 0.799683 2.367000 115 91 115
-0.008175 0.792959 2.335000 112 91 115
-0.007961 0.776224 2.274000 114 91 116
-0.007961 0.780205 2.274000 117 90 115
-0.007856 0.773840 2.244000 119 88 114
-0.007807 0.772916 2.230000 122 87 117
-0.007755 0.771594 2.215000 119 88 120
-0.007755 0.775472 2.215000 116 90 115
-0.007706 0.774423 2.201000 116 90 110
-0.007706 0.778276 2.201000 116 90 111
-0.007562 0.767559 2.160000 115 86 113
-0.007468 0.761699 2.133000 113 85 119
-0.007422 0.760767 2.120000 110 87 125
-0.007377 0.759791 2.107000 107 88 118
-0.007335 0.759131 2.095000 112 89 111
-0.007289 0.758065 2.082000 116 89 108
-0.007244 0.756953 2.069000 114 88 106
-0.007244 0.760575 2.069000 112 89 103
-0.007202 0.759764 2.057000 112 87 101
-0.007118 0.754459 2.033000 112 86 101
-0.007076 0.753543 2.021000 111 87 102
-0.007034 0.752586 2.009000 110 89 105
-0.006876 0.739166 1.964000 110 87 109
-0.006795 0.733908 1.941000 111 87 105
-0.006722 0.729329 1.920000 112 85 102
-0.006683 0.728492 1.909000 114 84 103
-0.006648 0.728000 1.899000 111 85 105
-0.006610 0.727088 1.888000 107 86 107
-0.006610 0.730393 1.888000 107 84 110
-0.005502 0.896797 3.143000 130 99 127
-0.005453 0.894261 3.115000 131 99 125
-0.005453 0.899714 3.115000 128 100 123
-0.005404 0.897030 3.087000 125 96 120
-0.005355 0.894248 3.059000 125 92 118
-0.005309 0.891957 3.033000 125 93 119
-0.005262 0.889279 3.006000 125 94 120
-0.005173 0.879364 2.955000 125 95 121
-0.005129 0.877053 2.930000 124 97 122
-0.005085 0.874655 2.905000 123 97 122
-0.005001 0.865204 2.857000 122 97 122
-0.004961 0.863200 2.834000 122 97 121
-0.004881 0.854069 2.788000 120 96 120
-0.004765 0.838616 2.722000 119 97 120
-0.004728 0.836874 2.701000 121 97 121
-0.004655 0.828515 2.659000 123 95 122
-0.004655 0.833170 2.659000 122 93 124
-0.004585 0.825221 2.619000 121 93 120
-0.004550 0.823469 2.599000 120 93 117
-0.004516 0.821965 2.580000 119 91 117
-0.004481 0.820074 2.560000 120 91 117
-0.004450 0.818758 2.542000 121 90 114
-0.004417 0.817055 2.523000 121 91 112
-0.004385 0.815611 2.505000 121 92 114
-0.004354 0.814104 2.487000 120 91 117
-0.004291 0.806610 2.451000 119 90 116
-0.004231 0.799651 2.417000 119 88 116
-0.004201 0.798228 2.400000 120 91 116
-0.004201 0.802429 2.400000 120 93 116
-0.004173 0.801253 2.384000 121 92 117
-0.004144 0.799683 2.367000 118 92 118
-0.004116 0.798393 2.351000 115 91 117
-0.003981 0.776224 2.274000 116 92 116
-0.004007 0.785351 2.289000 117 90 115
-0.003928 0.773840 2.244000 118 88 113
-0.003904 0.772916 2.230000 120 86 115
-0.003877 0.771594 2.215000 118 87 116
-0.003877 0.775472 2.215000 116 89 111
-0.003853 0.774423 2.201000 115 90 107
-0.003828 0.773326 2.187000 114 89 106
-0.003758 0.762940 2.147000 112 85 105
-0.003734 0.761699 2.133000 111 86 111
-0.003711 0.760767 2.120000 107 87 116
-0.003688 0.759791 2.107000 104 88 112
-0.003667 0.759131 2.095000 113 89 109
-0.003667 0.762798 2.095000 123 87 107
-0.003622 0.756953 2.069000 118 87 106
-0.003622 0.760575 2.069000 113 87 102
-0.003601 0.759764 2.057000 113 87 99
-0.003559 0.754459 2.033000 114 86 100
-0.003538 0.753543 2.021000 112 86 102
-0.003517 0.752586 2.009000 110 86 103
-0.003438 0.739166 1.964000 110 85 104
-0.003398 0.733908 1.941000 110 85 99
-0.003361 0.729329 1.920000 110 83 95
-0.003342 0.728492 1.909000 111 84 98
-0.003324 0.728000 1.899000 109 86 102
-0.003305 0.727088 1.888000 107 85 105
-0.003305 0.730393 1.888000 108 84 108
-0.000000 0.910595 3.231000 128 100 135
-0.000000 0.907743 3.201000 128 98 132
-0.000000 0.905072 3.172000 128 98 129
-0.000000 0.902299 3.143000 129 98 126
-0.000000 0.899714 3.115000 127 98 123
-0.000000 0.905166 3.115000 125 98 122
-0.000000 0.902434 3.087000 124 95 122
-0.000000 0.899603 3.059000 124 95 121
-0.000000 0.889279 3.006000 123 95 120
-0.000000 0.871924 2.930000 123 96 121
-0.000000 0.869570 2.905000 122 97 123
-0.000000 0.867429 2.881000 122 98 121
-0.000000 0.858239 2.834000 122 97 120
-0.000000 0.855890 2.810000 123 97 121
-0.000000 0.847023 2.765000 121 97 123
-0.000000 0.838616 2.722000 120 99 126
-0.000000 0.836874 2.701000 121 97 129
-0.000000 0.828515 2.659000 122 95 127
-0.000000 0.833170 2.659000 121 96 125
-0.000000 0.831523 2.639000 119 94 120
-0.000000 0.829805 2.619000 118 92 116
-0.000000 0.821965 2.580000 117 90 117
-0.000000 0.826481 2.580000 119 90 118
-0.000000 0.824556 2.560000 120 89 113
-0.000000 0.817055 2.523000 122 92 109
-0.000000 0.815611 2.505000 124 95 111
-0.000000 0.814104 2.487000 121 92 114
-0.000000 0.806610 2.451000 119 90 116
-0.000000 0.799651 2.417000 119 90 118
-0.000000 0.798228 2.400000 119 91 118
-0.000000 0.802429 2.400000 121 92 118
-0.000000 0.801253 2.384000 123 93 120
-0.000000 0.799683 2.367000 120 92 122
-0.000000 0.798393 2.351000 117 92 119
-0.000000 0.791926 2.320000 117 90 117
-0.000000 0.785351 2.289000 117 90 115
-0.000000 0.779013 2.259000 117 87 113
-0.000000 0.772916 2.230000 118 84 113
-0.000000 0.776819 2.230000 116 86 113
-0.000000 0.775472 2.215000 114 89 108
-0.000000 0.774423 2.201000 113 90 104
-0.000000 0.773326 2.187000 113 92 101
-0.000000 0.762940 2.147000 112 88 98
-0.000000 0.761699 2.133000 111 89 103
-0.000000 0.760767 2.120000 109 88 108
-0.000000 0.759791 2.107000 107 88 107
-0.000000 0.763479 2.107000 112 87 107
-0.000000 0.762798 2.095000 117 86 107
-0.000000 0.752563 2.057000 113 86 107
-0.000000 0.756164 2.057000 109 86 102
-0.000000 0.750900 2.033000 110 86 97
-0.000000 0.754459 2.033000 112 87 100
-0.000000 0.753543 2.021000 110 86 103
-0.000000 0.752586 2.009000 109 86 101
-0.000000 0.739166 1.964000 109 85 99
-0.000000 0.738067 1.952000 109 85 93
-0.000000 0.729329 1.920000 109 83 88
-0.000000 0.728492 1.909000 109 83 94
-0.000000 0.728000 1.899000 108 84 100
-0.000000 0.727088 1.888000 107 85 103
-0.000000 0.730393 1.888000 108 83 107
0.005603 0.902140 3.201000 126 100 132
0.005603 0.907743 3.201000 126 98 130
0.005502 0.896797 3.143000 126 97 129
0.005453 0.894261 3.115000 127 97 127
0.005453 0.899714 3.115000 126 97 124
0.005404 0.897030 3.087000 125 97 122
0.005355 0.894248 3.059000 124 97 120
0.005309 0.891957 3.033000 123 96 120
0.005262 0.889279 3.006000 122 97 120
0.005217 0.886803 2.980000 122 98 121
0.005085 0.869570 2.905000 121 99 123
0.005043 0.867429 2.881000 121 98 123
0.004961 0.858239 2.834000 123 98 123
0.004919 0.855890 2.810000 125 97 122
0.004880 0.854069 2.788000 123 97 121
0.004802 0.845086 2.743000 121 97 119
0.004728 0.836874 2.701000 121 97 116
0.004655 0.828515 2.659000 122 98 119
0.004655 0.833170 2.659000 120 102 121
0.004620 0.831523 2.639000 118 96 118
0.004585 0.829805 2.619000 117 94 116
0.004550 0.828018 2.599000 116 92 117
0.004516 0.826481 2.580000 118 91 118
0.004481 0.824556 2.560000 120 92 112
0.004450 0.823208 2.542000 123 95 106
0.004385 0.815611 2.505000 127 94 109
0.004354 0.814104 2.487000 123 93 113
0.004290 0.806610 2.451000 119 91 115
0.004231 0.799651 2.417000 118 91 118
0.004201 0.798228 2.400000 118 91 117
0.004201 0.802429 2.400000 121 93 116
0.004173 0.801253 2.384000 125 92 116
0.004143 0.799683 2.367000 122 91 116
0.004115 0.798393 2.351000 119 90 115
0.004061 0.791926 2.320000 118 87 114
0.004007 0.785351 2.289000 117 88 112
0.003981 0.784186 2.274000 117 89 111
0.003928 0.777768 2.244000 117 86 111
0.003904 0.776819 2.230000 115 85 111
0.003877 0.775472 2.215000 113 87 109
0.003853 0.774423 2.201000 112 90 107
0.003828 0.773326 2.187000 112 89 106
0.003758 0.762940 2.147000 111 89 106
0.003734 0.761699 2.133000 111 89 107
0.003711 0.760767 2.120000 110 88 108
0.003688 0.759791 2.107000 110 88 107
0.003667 0.759131 2.095000 111 87 107
0.003667 0.762798 2.095000 112 86 107
0.003622 0.756953 2.069000 108 85 106
0.003601 0.756164 2.057000 105 86 103
0.003580 0.755332 2.045000 108 85 100
0.003559 0.754459 2.033000 111 86 101
0.003538 0.753543 2.021000 109 87 102
0.003517 0.752586 2.009000 108 86 100
0.003438 0.739166 1.964000 108 85 97
0.003417 0.738067 1.952000 109 84 95
0.003380 0.733507 1.931000 108 84 92
0.003342 0.728492 1.909000 107 82 97
0.003324 0.728000 1.899000 107 82 102
0.003324 0.731324 1.899000 108 83 107
0.003305 0.730393 1.888000 108 84 113
0.011207 0.902140 3.201000 125 99 129
0.011207 0.907743 3.201000 126 98 129
0.011004 0.896797 3.143000 127 97 130
0.010906 0.894261 3.115000 129 98 128
0.010808 0.891626 3.087000 127 98 126
0.010808 0.897030 3.087000 125 99 122
0.010709 0.894248 3.059000 124 97 119
0.010524 0.884017 3.006000 123 97 120
0.010433 0.881587 2.980000 122 98 121
0.010258 0.871924 2.930000 120 100 122
0.010086 0.862386 2.881000 120 99 123
0.010002 0.860203 2.857000 119 99 124
0.009922 0.858239 2.834000 121 97 126
0.009838 0.855890 2.810000 123 96 123
0.009761 0.854069 2.788000 121 96 120
0.009603 0.845086 2.743000 120 96 112
0.009456 0.836874 2.701000 121 97 104
0.009383 0.835059 2.680000 122 98 111
0.009309 0.833170 2.659000 120 97 118
0.009239 0.831523 2.639000 119 96 117
0.009169 0.829805 2.619000 118 94 116
0.009099 0.828018 2.599000 118 94 117
0.009033 0.826481 2.580000 119 93 119
0.008963 0.824556 2.560000 120 93 111
0.008899 0.823208 2.542000 122 93 103
0.008770 0.815611 2.505000 124 94 107
0.008644 0.808211 2.469000 121 92 112
0.008581 0.806610 2.451000 119 91 115
0.008462 0.799651 2.417000 115 91 119
0.008402 0.798228 2.400000 111 92 117
0.008346 0.797080 2.384000 116 91 115
0.008346 0.801253 2.384000 121 91 113
0.008287 0.799683 2.367000 119 91 111
0.008231 0.798393 2.351000 117 92 111
0.008066 0.786465 2.304000 115 89 111
0.008014 0.785351 2.289000 114 88 110
0.007961 0.784186 2.274000 114 88 110
0.007909 0.782967 2.259000 115 89 110
0.007807 0.776819 2.230000 114 87 110
0.007755 0.775472 2.215000 112 87 110
0.007706 0.774423 2.201000 111 88 110
0.007657 0.773326 2.187000 111 88 112
0.007562 0.767559 2.160000 110 89 115
0.007517 0.766698 2.147000 109 90 111
0.007468 0.765432 2.133000 109 89 108
0.007422 0.764479 2.120000 110 89 108
0.007377 0.763479 2.107000 110 88 108
0.007335 0.762798 2.095000 111 88 107
0.007160 0.748173 2.045000 109 86 106
0.007117 0.747341 2.033000 107 88 105
0.007117 0.750900 2.033000 109 86 104
0.007075 0.750005 2.021000 111 87 103
0.007033 0.749069 2.009000 110 86 102
0.006995 0.748465 1.998000 109 86 99
0.006876 0.739166 1.964000 108 85 96
0.006834 0.738067 1.952000 107 85 96
0.006722 0.729329 1.920000 104 83 97
0.006683 0.728492 1.909000 101 82 101
0.006648 0.728000 1.899000 104 82 105
0.006610 0.727088 1.888000 106 83 112
0.006610 0.730393 1.888000 105 83 119
0.016810 0.907743 3.201000 126 98 127
0.016358 0.888808 3.115000 128 97 125
0.016358 0.894261 3.115000 131 98 125
0.016211 0.891626 3.087000 128 101 125
0.016211 0.897030 3.087000 126 99 122
0.016064 0.894248 3.059000 125 98 119
0.015786 0.884017 3.006000 124 97 117
0.015649 0.881587 2.980000 121 99 116
0.015387 0.871924 2.930000 119 99 118
0.015130 0.862386 2.881000 118 98 121
0.015003 0.860203 2.857000 118 97 120
0.014883 0.858239 2.834000 119 95 120
0.014757 0.855890 2.810000 121 95 120
0.014641 0.854069 2.788000 120 97 121
0.014405 0.845086 2.743000 119 96 115
0.014184 0.836874 2.701000 121 97 110
0.014074 0.835059 2.680000 123 95 114
0.013964 0.833170 2.659000 121 93 119
0.013859 0.831523 2.639000 120 93 118
0.013754 0.829805 2.619000 120 93 116
0.013754 0.834390 2.619000 120 94 116
0.013649 0.832568 2.599000 120 96 117
0.013549 0.830998 2.580000 120 93 112
0.013444 0.829037 2.560000 120 92 108
0.013155 0.815611 2.505000 121 92 111
0.012966 0.808211 2.469000 120 90 114
0.012871 0.806610 2.451000 119 90 118
0.012693 0.799651 2.417000 112 91 122
0.012604 0.798228 2.400000 105 91 118
0.012520 0.797080 2.384000 111 90 114
0.012520 0.801253 2.384000 118 90 109
0.012430 0.799683 2.367000 117 90 104
0.012346 0.798393 2.351000 116 91 107
0.012262 0.797047 2.335000 113 91 109
0.012021 0.785351 2.289000 111 89 110
0.011942 0.784186 2.274000 112 89 110
0.011863 0.782967 2.259000 114 89 110
0.011711 0.776819 2.230000 113 89 110
0.011632 0.775472 2.215000 112 88 109
0.011559 0.774423 2.201000 111 88 109
0.011485 0.773326 2.187000 110 89 110
0.011275 0.762940 2.147000 109 91 111
0.011275 0.766698 2.147000 108 90 109
0.011201 0.765432 2.133000 109 90 107
0.011133 0.764479 2.120000 110 89 106
0.011065 0.763479 2.107000 110 90 105
0.011002 0.762798 2.095000 110 87 105
0.010865 0.756953 2.069000 110 84 105
0.010739 0.751752 2.045000 110 85 106
0.010676 0.750900 2.033000 111 86 107
0.010613 0.750005 2.021000 112 85 105
0.010613 0.753543 2.021000 111 85 104
0.010492 0.748465 1.998000 110 85 101
0.010314 0.739166 1.964000 108 86 98
0.010251 0.738067 1.952000 106 84 101
0.010083 0.729329 1.920000 101 84 103
0.010025 0.728492 1.909000 96 83 103
0.009973 0.728000 1.899000 100 82 103
0.009915 0.727088 1.888000 105 82 104
0.009915 0.730393 1.888000 102 83 105
0.022413 0.907743 3.201000 126 99 124
0.022007 0.896797 3.143000 127 97 121
0.021811 0.894261 3.115000 128 97 123
0.021811 0.899714 3.115000 126 98 125
0.021615 0.897030 3.087000 125 99 122
0.021419 0.894248 3.059000 124 98 119
0.021048 0.884017 3.006000 123 97 115
0.020866 0.881587 2.980000 122 98 112
0.020516 0.871924 2.930000 120 100 115
0.020005 0.855202 2.857000 120 98 119
0.020005 0.860203 2.857000 120 98 117
0.019676 0.850971 2.810000 120 95 115
0.019676 0.855890 2.810000 121 94 118
0.019522 0.854069 2.788000 121 95 122
0.019206 0.845086 2.743000 121 95 119
0.019059 0.843381 2.722000 123 94 116
0.018765 0.835059 2.680000 126 94 118
0.018618 0.833170 2.659000 122 92 121
0.018478 0.831523 2.639000 118 92 119
0.018338 0.829805 2.619000 119 93 117
0.018198 0.828018 2.599000 120 94 116
0.018065 0.826481 2.580000 120 93 115
0.018065 0.830998 2.580000 120 92 114
0.017925 0.829037 2.560000 118 92 114
0.017540 0.815611 2.505000 117 93 115
0.017288 0.808211 2.469000 118 90 116
0.017043 0.801015 2.434000 119 90 121
0.016805 0.794027 2.400000 115 91 126
0.016805 0.798228 2.400000 112 91 119
0.016693 0.797080 2.384000 115 90 113
0.016693 0.801253 2.384000 118 89 105
0.016574 0.799683 2.367000 118 90 98
0.016462 0.798393 2.351000 118 92 103
0.016350 0.797047 2.335000 115 90 108
0.016028 0.785351 2.289000 113 90 109
0.015923 0.784186 2.274000 114 90 111
0.015818 0.782967 2.259000 114 92 110
0.015614 0.776819 2.230000 113 89 110
0.015411 0.770570 2.201000 113 88 109
0.015313 0.769497 2.187000 111 88 108
0.015222 0.768729 2.174000 110 89 108
0.015033 0.762940 2.147000 107 90 108
0.014935 0.761699 2.133000 104 90 107
0.014844 0.760767 2.120000 106 88 107
0.014844 0.764479 2.120000 108 88 105
0.014753 0.763479 2.107000 109 89 103
0.014669 0.762798 2.095000 110 89 104
0.014487 0.756953 2.069000 110 85 105
0.014403 0.756164 2.057000 111 85 107
0.014235 0.750900 2.033000 112 85 110
0.014151 0.750005 2.021000 114 85 108
0.014151 0.753543 2.021000 112 85 106
0.014025 0.750338 2.003000 110 85 103
0.013752 0.739166 1.964000 110 84 101
0.013668 0.738067 1.952000 109 84 105
0.013444 0.729329 1.920000 107 84 110
0.013444 0.732689 1.920000 106 85 106
0.013297 0.728000 1.899000 106 83 102
0.013220 0.727088 1.888000 106 82 97
0.013150 0.726524 1.878000 104 84 92
0.027509 0.896797 3.143000 125 98 124
0.027264 0.894261 3.115000 125 97 126
0.027019 0.891626 3.087000 124 97 129
0.027019 0.897030 3.087000 124 97 125
0.026774 0.894248 3.059000 123 98 121
0.026310 0.884017 3.006000 123 97 118
0.026082 0.881587 2.980000 122 96 116
0.025750 0.875495 2.942000 122 97 118
0.024805 0.848317 2.834000 122 98 120
0.024805 0.853278 2.834000 123 97 120
0.024595 0.850971 2.810000 122 95 120
0.024402 0.849189 2.788000 121 94 120
0.024201 0.847023 2.765000 122 95 121
0.024008 0.845086 2.743000 123 94 120
0.023824 0.843381 2.722000 126 93 118
0.023457 0.835059 2.680000 130 93 120
0.023273 0.833170 2.659000 123 92 122
0.023098 0.831523 2.639000 116 93 119
0.022923 0.829805 2.619000 118 95 117
0.022581 0.821965 2.580000 120 94 117
0.022581 0.826481 2.580000 120 93 116
0.022406 0.824556 2.560000 120 92 115
0.022406 0.829037 2.560000 117 93 115
0.021610 0.803889 2.469000 114 91 114
0.021610 0.808211 2.469000 117 89 113
0.021304 0.801015 2.434000 120 91 117
0.021006 0.794027 2.400000 119 93 120
0.021006 0.798228 2.400000 119 91 116
0.021006 0.802429 2.400000 118 90 112
0.020866 0.801253 2.384000 118 90 107
0.020866 0.805426 2.384000 119 90 102
0.020577 0.798393 2.351000 120 90 105
0.020306 0.791926 2.320000 118 88 108
0.020034 0.785351 2.289000 116 88 110
0.019903 0.784186 2.274000 115 89 113
0.019772 0.782967 2.259000 115 89 114
0.019641 0.781696 2.244000 114 89 115
0.019387 0.775472 2.215000 114 88 109
0.019264 0.774423 2.201000 112 87 104
0.019142 0.773326 2.187000 110 88 105
0.018792 0.762940 2.147000 105 90 106
0.018669 0.761699 2.133000 101 89 106
0.018555 0.760767 2.120000 104 87 107
0.018442 0.759791 2.107000 107 87 104
0.018336 0.759131 2.095000 108 89 102
0.018223 0.758065 2.082000 110 87 100
0.018004 0.752563 2.057000 111 85 99
0.017899 0.751752 2.045000 112 85 102
0.017794 0.750900 2.033000 114 86 105
0.017794 0.754459 2.033000 116 85 104
0.017689 0.753543 2.021000 113 86 104
0.017584 0.752586 2.009000 111 84 101
0.017190 0.739166 1.964000 112 84 99
0.017190 0.742604 1.964000 113 84 102
0.016901 0.733507 1.931000 114 86 106
0.016805 0.732689 1.920000 116 84 104
0.016621 0.728000 1.899000 112 83 102
0.016525 0.727088 1.888000 108 83 100
0.016437 0.726524 1.878000 107 86 98
0.033011 0.896797 3.143000 125 97 127
0.032717 0.894261 3.115000 123 98 130
0.032423 0.891626 3.087000 122 96 133
0.032129 0.888894 3.059000 121 96 128
0.032129 0.894248 3.059000 122 96 124
0.031572 0.884017 3.006000 123 97 122
0.031299 0.881587 2.980000 123 96 120
0.031036 0.879364 2.955000 123 94 121
0.029766 0.848317 2.834000 123 95 122
0.029766 0.853278 2.834000 123 97 123
0.029513 0.850971 2.810000 121 94 125
0.029282 0.849189 2.788000 120 95 123
0.029282 0.854069 2.788000 121 94 121
0.029041 0.851864 2.765000 121 93 121
0.028589 0.843381 2.722000 123 92 121
0.028369 0.841602 2.701000 125 93 122
0.027927 0.833170 2.659000 121 94 123
0.027717 0.831523 2.639000 118 95 120
0.027507 0.829805 2.619000 119 94 118
0.027098 0.821965 2.580000 120 94 118
0.027098 0.826481 2.580000 120 93 118
0.026888 0.824556 2.560000 121 93 117
0.026888 0.829037 2.560000 118 92 116
0.026499 0.821471 2.523000 115 91 113
0.026121 0.814104 2.487000 117 91 111
0.025743 0.806610 2.451000 120 92 113
0.025386 0.799651 2.417000 120 91 115
0.025386 0.803882 2.417000 121 90 113
0.025207 0.802429 2.400000 119 90 111
0.025039 0.801253 2.384000 118 91 108
0.024861 0.799683 2.367000 118 91 106
0.024693 0.798393 2.351000 118 92 107
0.024367 0.791926 2.320000 117 90 108
0.024041 0.785351 2.289000 116 88 112
0.023884 0.784186 2.274000 115 89 116
0.023884 0.788166 2.274000 114 89 118
0.023726 0.786922 2.259000 113 88 121
0.023422 0.780723 2.230000 112 89 110
0.023264 0.779349 2.215000 111 87 100
0.023117 0.778276 2.201000 110 88 102
0.022550 0.762940 2.147000 107 89 105
0.022403 0.761699 2.133000 104 90 106
0.022266 0.760767 2.120000 106 88 107
0.022130 0.759791 2.107000 108 87 104
0.022004 0.759131 2.095000 109 87 102
0.021867 0.758065 2.082000 110 87 97
0.021605 0.752563 2.057000 110 85 93
0.021479 0.751752 2.045000 110 85 97
0.021353 0.750900 2.033000 110 85 101
0.021227 0.750005 2.021000 110 86 101
0.021101 0.749069 2.009000 110 84 102
0.020985 0.748465 1.998000 111 82 99
0.020628 0.739166 1.964000 111 83 97
0.020502 0.738067 1.952000 111 84 99
0.020281 0.733507 1.931000 112 84 102
0.020166 0.732689 1.920000 113 84 102
0.020050 0.731833 1.909000 110 82 103
0.019830 0.727088 1.888000 107 81 104
0.019725 0.726524 1.878000 106 83 105
0.038513 0.896797 3.143000 124 94 123
0.037826 0.886222 3.087000 122 95 126
0.037826 0.891626 3.087000 120 96 129
0.037165 0.881338 3.033000 118 96 126
0.037165 0.886648 3.033000 120 95 123
0.036834 0.884017 3.006000 123 97 123
0.036515 0.881587 2.980000 124 97 123
0.036209 0.879364 2.955000 125 95 122
0.035596 0.869570 2.905000 124 94 121
0.034726 0.853278 2.834000 123 93 122
0.034726 0.858239 2.834000 121 91 123
0.034432 0.855890 2.810000 120 94 120
0.034163 0.854069 2.788000 120 94 118
0.034163 0.858950 2.788000 120 93 118
0.033354 0.843381 2.722000 120 92 119
0.033097 0.841602 2.701000 121 93 119
0.032337 0.826903 2.639000 120 96 120
0.032337 0.831523 2.639000 120 95 119
0.032092 0.829805 2.619000 120 95 118
0.031369 0.815593 2.560000 120 94 118
0.031369 0.820074 2.560000 121 94 119
0.031369 0.824556 2.560000 123 93 117
0.031148 0.823208 2.542000 120 92 115
0.030916 0.821471 2.523000 117 92 113
0.030474 0.814104 2.487000 118 94 112
0.030254 0.812533 2.469000 120 92 115
0.029617 0.799651 2.417000 122 91 118
0.029617 0.803882 2.417000 124 89 115
0.029212 0.797080 2.384000 121 90 112
0.029212 0.801253 2.384000 118 91 109
0.028808 0.794277 2.351000 117 92 107
0.028612 0.792959 2.335000 116 93 108
0.028232 0.786465 2.304000 116 93 109
0.028048 0.785351 2.289000 117 91 111
0.027864 0.784186 2.274000 115 91 114
0.027864 0.788166 2.274000 113 89 116
0.027497 0.781696 2.244000 112 88 118
0.027325 0.780723 2.230000 111 88 111
0.027141 0.779349 2.215000 110 87 105
0.026970 0.778276 2.201000 110 87 107
0.026308 0.762940 2.147000 109 88 109
0.026137 0.761699 2.133000 108 89 107
0.025977 0.760767 2.120000 108 90 106
0.025818 0.759791 2.107000 109 87 104
0.025671 0.759131 2.095000 109 85 102
0.025512 0.758065 2.082000 110 85 100
0.025205 0.752563 2.057000 109 86 97
0.025058 0.751752 2.045000 109 84 99
0.024911 0.750900 2.033000 107 84 100
0.024764 0.750005 2.021000 105 84 101
0.024617 0.749069 2.009000 108 85 103
0.024482 0.748465 1.998000 111 83 102
0.024201 0.743306 1.975000 110 82 102
0.024066 0.742604 1.964000 110 83 100
0.023661 0.733507 1.931000 110 84 99
0.023527 0.732689 1.920000 110 83 99
0.023392 0.731833 1.909000 108 83 99
0.023269 0.731324 1.899000 107 82 99
0.023012 0.726524 1.878000 106 81 100
0.047011 0.934352 3.357000 129 97 123
0.044015 0.896797 3.143000 125 95 119
0.043622 0.894261 3.115000 123 94 122
0.043230 0.891626 3.087000 121 96 125
0.042474 0.881338 3.033000 120 98 124
0.042474 0.886648 3.033000 121 97 123
0.041732 0.876370 2.980000 122 99 124
0.041382 0.874191 2.955000 122 96 126
0.041382 0.879364 2.955000 123 95 123
0.040682 0.869570 2.905000 122 93 121
0.039687 0.853278 2.834000 122 92 121
0.039687 0.858239 2.834000 120 94 121
0.039351 0.855890 2.810000 119 96 118
0.039043 0.854069 2.788000 118 95 116
0.038721 0.851864 2.765000 117 96 116
0.038413 0.849887 2.743000 118 94 117
0.037825 0.841602 2.701000 119 94 117
