ply
format ascii 1.0
element vertex 1313
property float x
property float y
property float z
property uchar red
property uchar green
property uchar blue
end_header
1.172415 0.739131 3.640000 78 34 16
1.184977 0.753491 3.679000 77 34 19
1.184977 0.759931 3.679000 77 37 11
1.184977 0.766371 3.679000 77 34 4
1.184977 0.772811 3.679000 77 34 21
1.184977 0.779251 3.679000 73 33 39
1.184977 0.785691 3.679000 69 34 28
1.172415 0.783734 3.640000 71 33 18
1.172415 0.790106 3.640000 73 33 10
1.184977 0.805011 3.679000 72 32 2
1.172415 0.802850 3.640000 72 31 6
1.172415 0.809221 3.640000 72 35 11
1.172415 0.815593 3.640000 72 35 10
1.184977 0.830772 3.679000 72 34 9
1.184977 0.837212 3.679000 71 34 5
1.184977 0.843652 3.679000 67 34 2
1.184977 0.850092 3.679000 63 38 6
1.184977 0.856532 3.679000 48 29 11
1.184977 0.862972 3.679000 33 4 6
1.184977 0.869412 3.679000 22 3 1
1.184977 0.875852 3.679000 10 3 2
1.184977 0.882293 3.679000 8 3 4
1.197538 0.898154 3.718000 6 5 3
1.197538 0.904662 3.718000 7 5 3
1.184977 0.901613 3.679000 7 4 4
1.197538 0.917679 3.718000 6 4 6
1.184977 0.914493 3.679000 4 5 5
1.184977 0.920933 3.679000 7 4 5
1.197538 0.937204 3.718000 11 4 5
1.012335 0.902299 3.143000 70 39 57
1.012335 0.907801 3.143000 73 47 56
1.003317 0.905166 3.115000 77 53 57
0.994298 0.902434 3.087000 79 56 58
0.994298 0.907837 3.087000 82 56 64
0.994298 0.913241 3.087000 82 61 71
0.985280 0.910313 3.059000 82 64 71
0.897993 0.854069 2.788000 81 61 78
0.883498 0.845086 2.743000 80 62 71
0.876734 0.843381 2.722000 81 58 65
0.869971 0.841602 2.701000 82 58 69
0.869971 0.846330 2.701000 83 57 73
0.863207 0.844441 2.680000 83 55 73
0.856443 0.842479 2.659000 82 56 74
0.850001 0.840762 2.639000 81 59 73
0.843559 0.838975 2.619000 82 59 72
0.824556 0.824556 2.560000 83 60 71
0.818758 0.823208 2.542000 83 64 71
0.795245 0.803889 2.469000 84 69 76
0.795245 0.812533 2.469000 84 65 78
0.789448 0.810900 2.451000 83 60 74
0.783972 0.809536 2.434000 82 60 74
0.778496 0.808113 2.417000 82 60 74
0.778496 0.812344 2.417000 83 59 74
0.773021 0.810832 2.400000 84 59 75
0.752085 0.792959 2.335000 85 59 75
0.752085 0.797047 2.335000 88 59 76
0.742100 0.790498 2.304000 91 62 75
0.732437 0.784186 2.274000 88 62 74
0.732437 0.788166 2.274000 86 63 72
0.727606 0.786922 2.259000 87 65 71
0.722775 0.785625 2.244000 88 67 75
0.718265 0.784627 2.230000 87 64 79
0.708925 0.778276 2.201000 87 64 74
0.700228 0.772534 2.174000 84 64 69
0.695719 0.771340 2.160000 81 62 74
0.691532 0.770456 2.147000 85 62 79
0.682835 0.764479 2.120000 90 64 73
0.678648 0.763479 2.107000 92 68 68
0.670596 0.758065 2.082000 94 75 74
0.666408 0.756953 2.069000 92 72 80
0.662543 0.756164 2.057000 91 71 82
0.658678 0.755332 2.045000 94 69 84
0.650948 0.750005 2.021000 97 68 88
0.647083 0.749069 2.009000 96 66 93
0.645150 0.750338 2.003000 94 68 92
0.639675 0.747446 1.986000 95 68 91
0.632589 0.742604 1.964000 95 69 87
0.625181 0.737306 1.941000 94 70 84
0.621960 0.736887 1.931000 92 72 85
0.614874 0.731833 1.909000 92 70 86
0.611653 0.731324 1.899000 93 70 86
0.611653 0.734648 1.899000 92 72 87
0.608110 0.733698 1.888000 92 75 82
1.244203 -1.499769 3.842000 69 23 11
1.230602 -1.476722 3.800000 69 24 22
1.230602 -1.470070 3.800000 68 28 33
1.230602 -1.463418 3.800000 67 30 20
1.244203 -1.472867 3.842000 65 34 8
1.244203 -1.466142 3.842000 63 33 11
1.244203 -1.459416 3.842000 67 31 15
1.244203 -1.452691 3.842000 71 29 18
1.244203 -1.445966 3.842000 69 26 22
1.258128 -1.455348 3.885000 68 26 19
1.244203 -1.432515 3.842000 68 28 16
1.258128 -1.441747 3.885000 68 30 19
1.244203 -1.419064 3.842000 70 27 22
1.258128 -1.428146 3.885000 72 28 15
1.244203 -1.405613 3.842000 72 29 7
1.258128 -1.414544 3.885000 73 29 7
1.258128 -1.407743 3.885000 72 31 7
1.244203 -1.385437 3.842000 72 31 7
1.244203 -1.378711 3.842000 67 33 8
1.244203 -1.371986 3.842000 62 32 12
1.244203 -1.365261 3.842000 65 31 17
1.244203 -1.358535 3.842000 68 29 16
1.244203 -1.351810 3.842000 70 30 15
1.230602 -1.330380 3.800000 73 30 18
1.230602 -1.323728 3.800000 71 30 22
1.230602 -1.317076 3.800000 69 30 21
1.230602 -1.310424 3.800000 68 32 20
1.230602 -1.303773 3.800000 68 31 28
1.244203 -1.311457 3.842000 67 31 37
1.230602 -1.290469 3.800000 66 32 30
1.230602 -1.283817 3.800000 61 33 23
1.244203 -1.291281 3.842000 56 34 19
1.244203 -1.284556 3.842000 63 36 15
1.244203 -1.277830 3.842000 70 32 12
1.230602 -1.257209 3.800000 68 29 9
1.230602 -1.250557 3.800000 66 29 11
1.230602 -1.243905 3.800000 67 31 14
1.244203 -1.250928 3.842000 68 31 14
1.230602 -1.230602 3.800000 70 34 13
1.230602 -1.223950 3.800000 72 31 13
1.230602 -1.217298 3.800000 72 32 14
1.244203 -1.224027 3.842000 73 30 12
1.244203 -1.217301 3.842000 68 33 11
1.244203 -1.210576 3.842000 63 33 15
1.244203 -1.203850 3.842000 68 30 18
1.230602 -1.184038 3.800000 74 33 20
1.230602 -1.177386 3.800000 69 37 23
1.230602 -1.170735 3.800000 64 36 20
1.244203 -1.176949 3.842000 70 32 18
1.230602 -1.157431 3.800000 76 30 18
1.230602 -1.150779 3.800000 76 34 19
1.244203 -1.156772 3.842000 76 34 18
1.244203 -1.150047 3.842000 76 36 18
1.244203 -1.143322 3.842000 76 35 18
1.258128 -1.149317 3.885000 76 34 18
1.244203 -1.129871 3.842000 77 35 17
1.258128 -1.135716 3.885000 77 40 15
1.258128 -1.128915 3.885000 77 38 16
1.244203 -1.109695 3.842000 75 38 16
1.258128 -1.115314 3.885000 74 33 20
1.244203 -1.096244 3.842000 67 29 24
1.244203 -1.089518 3.842000 61 32 22
1.244203 -1.082793 3.842000 66 30 21
1.244203 -1.076067 3.842000 72 31 19
1.244203 -1.069342 3.842000 74 30 18
1.244203 -1.062617 3.842000 76 34 20
1.244203 -1.055891 3.842000 77 37 22
1.230602 -1.037696 3.800000 78 34 26
1.244203 -1.042440 3.842000 79 33 29
1.230602 -1.024393 3.800000 80 32 26
1.230602 -1.017741 3.800000 79 31 24
1.230602 -1.011089 3.800000 79 33 27
1.230602 -1.004437 3.800000 73 36 30
1.230602 -0.997785 3.800000 68 39 31
1.230602 -0.991133 3.800000 73 44 32
1.230602 -0.984481 3.800000 78 42 27
1.230602 -0.977829 3.800000 77 41 23
1.230602 -0.971177 3.800000 76 36 26
1.230602 -0.964525 3.800000 76 32 29
1.230602 -0.957874 3.800000 76 33 33
1.230602 -0.951222 3.800000 77 35 37
1.230602 -0.944570 3.800000 79 32 32
1.230602 -0.937918 3.800000 78 35 27
1.230602 -0.931266 3.800000 77 36 28
1.244203 -0.934834 3.842000 73 39 29
1.244203 -0.928108 3.842000 69 39 25
1.244203 -0.921383 3.842000 79 38 21
1.244203 -0.914657 3.842000 90 34 23
1.244203 -0.907932 3.842000 86 34 25
1.244203 -0.901206 3.842000 82 35 27
1.244203 -0.894481 3.842000 79 39 30
1.244203 -0.887756 3.842000 77 39 27
1.244203 -0.881030 3.842000 78 39 25
1.230602 -0.864747 3.800000 80 39 27
1.230602 -0.858095 3.800000 79 36 30
1.230602 -0.851443 3.800000 78 36 32
1.230602 -0.844791 3.800000 79 39 33
1.230602 -0.838139 3.800000 80 40 25
1.230602 -0.831488 3.800000 79 42 17
1.230602 -0.824836 3.800000 79 42 27
1.230602 -0.818184 3.800000 76 43 38
1.230602 -0.811532 3.800000 74 41 32
1.230602 -0.804880 3.800000 76 44 26
1.230602 -0.798228 3.800000 79 42 23
1.230602 -0.791576 3.800000 78 44 20
1.230602 -0.784924 3.800000 77 41 25
1.230602 -0.778272 3.800000 78 40 31
1.230602 -0.771620 3.800000 80 43 31
1.230602 -0.764969 3.800000 79 42 32
1.217324 -0.750135 3.759000 79 42 29
1.217324 -0.743555 3.759000 79 43 26
1.217324 -0.736974 3.759000 80 43 31
1.217324 -0.730394 3.759000 80 42 36
1.217324 -0.723814 3.759000 80 42 32
1.217324 -0.717234 3.759000 80 44 29
1.217324 -0.710654 3.759000 80 43 23
1.230602 -0.711753 3.800000 81 41 18
1.230602 -0.705101 3.800000 82 42 22
1.217324 -0.690914 3.759000 82 45 26
1.230602 -0.691798 3.800000 82 43 29
1.230602 -0.685146 3.800000 83 45 33
1.230602 -0.678494 3.800000 84 43 31
1.230602 -0.671842 3.800000 84 41 29
1.217324 -0.658013 3.759000 85 38 33
1.217324 -0.651433 3.759000 86 39 38
1.230602 -0.651886 3.800000 88 41 31
1.230602 -0.645234 3.800000 86 41 25
1.217324 -0.631692 3.759000 85 41 32
1.217324 -0.625112 3.759000 85 41 39
1.217324 -0.618532 3.759000 86 41 35
1.217324 -0.611952 3.759000 85 42 30
1.217324 -0.605372 3.759000 84 43 27
1.217324 -0.598792 3.759000 83 45 24
1.217324 -0.592212 3.759000 82 42 34
1.217324 -0.585631 3.759000 83 42 44
1.217324 -0.579051 3.759000 85 44 38
1.217324 -0.572471 3.759000 84 45 33
1.217324 -0.565891 3.759000 84 44 35
1.217324 -0.559311 3.759000 83 44 37
1.217324 -0.552731 3.759000 82 44 40
1.217324 -0.546151 3.759000 80 45 43
1.217324 -0.539571 3.759000 78 44 38
1.217324 -0.532990 3.759000 80 47 34
1.217324 -0.526410 3.759000 83 46 34
1.217324 -0.519830 3.759000 83 45 35
1.217324 -0.513250 3.759000 83 43 33
1.217324 -0.506670 3.759000 84 42 32
1.217324 -0.500090 3.759000 86 41 36
1.217324 -0.493510 3.759000 86 41 41
1.217324 -0.486930 3.759000 86 43 31
1.217324 -0.480349 3.759000 85 46 22
1.217324 -0.473769 3.759000 84 44 26
1.217324 -0.467189 3.759000 83 44 31
1.217324 -0.460609 3.759000 82 43 28
1.217324 -0.454029 3.759000 82 44 25
1.217324 -0.447449 3.759000 83 43 32
1.217324 -0.440869 3.759000 83 43 40
1.217324 -0.434289 3.759000 83 43 38
1.217324 -0.427708 3.759000 82 45 37
1.217324 -0.421128 3.759000 82 44 38
1.217324 -0.414548 3.759000 82 45 39
1.217324 -0.407968 3.759000 82 43 42
1.217324 -0.401388 3.759000 82 44 45
1.217324 -0.394808 3.759000 82 44 41
1.217324 -0.388228 3.759000 85 45 37
1.230602 -0.385810 3.800000 88 44 35
1.230602 -0.379158 3.800000 87 43 32
1.217324 -0.368487 3.759000 86 43 32
1.217324 -0.361907 3.759000 84 42 32
1.217324 -0.355327 3.759000 83 44 30
1.217324 -0.348747 3.759000 83 47 29
1.217324 -0.342167 3.759000 83 44 35
1.217324 -0.335587 3.759000 82 43 42
1.217324 -0.329006 3.759000 82 42 40
1.217324 -0.322426 3.759000 81 41 37
1.217324 -0.315846 3.759000 81 43 35
1.217324 -0.309266 3.759000 78 44 34
1.217324 -0.302686 3.759000 75 44 33
1.217324 -0.296106 3.759000 79 44 32
1.217324 -0.289526 3.759000 83 44 35
1.217324 -0.282946 3.759000 84 44 38
1.217324 -0.276365 3.759000 86 44 28
1.217324 -0.269785 3.759000 86 44 18
1.217324 -0.263205 3.759000 86 44 25
1.217324 -0.256625 3.759000 85 45 33
1.217324 -0.250045 3.759000 84 45 30
1.217324 -0.243465 3.759000 83 46 26
1.217324 -0.236885 3.759000 83 46 29
1.217324 -0.230305 3.759000 82 47 32
1.217324 -0.223724 3.759000 82 44 31
1.217324 -0.217144 3.759000 80 44 30
1.217324 -0.210564 3.759000 78 45 31
1.217324 -0.203984 3.759000 80 47 33
1.217324 -0.197404 3.759000 82 45 35
1.217324 -0.190824 3.759000 83 42 37
1.217324 -0.184244 3.759000 84 44 30
1.217324 -0.177663 3.759000 86 45 23
1.217324 -0.171083 3.759000 89 45 22
1.217324 -0.164503 3.759000 87 45 22
1.217324 -0.157923 3.759000 85 44 31
1.217324 -0.151343 3.759000 85 44 41
1.204046 -0.143184 3.718000 85 45 39
1.204046 -0.136676 3.718000 84 46 37
1.204046 -0.130167 3.718000 83 46 36
1.204046 -0.123659 3.718000 85 46 36
1.204046 -0.117150 3.718000 87 44 33
1.204046 -0.110642 3.718000 82 46 30
1.217324 -0.105282 3.759000 77 45 33
1.217324 -0.098702 3.759000 80 43 37
1.204046 -0.091117 3.718000 84 41 36
1.204046 -0.084609 3.718000 85 37 36
1.204046 -0.078100 3.718000 87 42 37
1.204046 -0.071592 3.718000 86 46 38
1.191417 -0.064401 3.679000 86 43 38
1.191417 -0.057961 3.679000 79 45 38
1.191417 -0.051521 3.679000 73 45 34
1.191417 -0.045081 3.679000 79 45 31
1.191417 -0.038641 3.679000 85 44 29
1.204046 -0.032542 3.718000 85 42 27
1.204046 -0.026033 3.718000 86 43 24
1.204046 -0.019525 3.718000 85 45 21
1.204046 -0.013017 3.718000 84 44 19
1.204046 -0.006508 3.718000 85 41 18
1.204046 -0.000000 3.718000 86 43 21
1.204046 0.006508 3.718000 86 43 24
1.204046 0.013017 3.718000 86 43 28
1.191417 0.019320 3.679000 86 43 33
1.204046 0.026034 3.718000 86 43 40
1.204046 0.032542 3.718000 84 45 48
1.204046 0.039050 3.718000 82 45 37
1.204046 0.045559 3.718000 83 46 27
1.204046 0.052067 3.718000 84 44 27
1.204046 0.058575 3.718000 84 46 28
1.204046 0.065084 3.718000 84 44 29
1.204046 0.071592 3.718000 83 42 31
1.191417 0.077281 3.679000 83 42 26
1.191417 0.083721 3.679000 84 39 21
1.191417 0.090161 3.679000 86 43 20
1.191417 0.096601 3.679000 85 44 18
1.191417 0.103042 3.679000 85 44 20
1.191417 0.109482 3.679000 85 43 23
1.204046 0.117151 3.718000 85 44 24
1.204046 0.123659 3.718000 84 45 25
1.204046 0.130167 3.718000 84 45 24
1.204046 0.136676 3.718000 85 45 23
1.191417 0.141682 3.679000 87 44 21
1.191417 0.148122 3.679000 86 43 18
1.191417 0.154562 3.679000 86 44 16
1.191417 0.161002 3.679000 86 46 14
1.191417 0.167442 3.679000 86 44 20
1.191417 0.173883 3.679000 86 45 26
1.191417 0.180323 3.679000 87 44 27
1.191417 0.186763 3.679000 87 43 28
1.204046 0.195251 3.718000 87 43 28
1.204046 0.201759 3.718000 85 44 29
1.191417 0.206083 3.679000 84 45 22
1.191417 0.212523 3.679000 84 47 16
1.191417 0.218963 3.679000 84 45 20
1.191417 0.225403 3.679000 82 41 24
1.191417 0.231843 3.679000 81 42 25
1.191417 0.238283 3.679000 83 46 26
1.191417 0.244724 3.679000 86 44 25
1.191417 0.251164 3.679000 85 46 23
1.191417 0.257604 3.679000 84 46 22
1.191417 0.264044 3.679000 85 48 20
1.191417 0.270484 3.679000 87 47 27
1.191417 0.276924 3.679000 85 45 34
1.191417 0.283364 3.679000 84 45 33
1.191417 0.289804 3.679000 85 46 32
1.191417 0.296244 3.679000 87 45 33
1.191417 0.302684 3.679000 86 46 34
1.191417 0.309124 3.679000 85 47 32
1.191417 0.315565 3.679000 84 48 30
1.191417 0.322005 3.679000 84 45 32
1.191417 0.328445 3.679000 84 45 34
1.191417 0.334885 3.679000 84 43 32
1.191417 0.341325 3.679000 82 41 31
1.191417 0.347765 3.679000 80 43 28
1.191417 0.354205 3.679000 78 46 25
1.191417 0.360645 3.679000 77 43 27
1.191417 0.367085 3.679000 79 42 28
1.191417 0.373525 3.679000 82 41 26
1.191417 0.379965 3.679000 83 39 24
1.191417 0.386406 3.679000 84 40 23
1.191417 0.392846 3.679000 85 39 23
1.191417 0.399286 3.679000 86 39 20
1.191417 0.405726 3.679000 84 39 17
1.191417 0.412166 3.679000 82 41 19
1.191417 0.418606 3.679000 81 44 21
1.191417 0.425046 3.679000 80 41 28
1.191417 0.431486 3.679000 79 40 35
1.191417 0.437926 3.679000 79 41 27
1.191417 0.444366 3.679000 80 42 18
1.191417 0.450806 3.679000 82 38 15
1.191417 0.457246 3.679000 80 36 11
1.191417 0.463687 3.679000 78 38 22
1.191417 0.470127 3.679000 77 41 32
1.191417 0.476567 3.679000 77 40 30
1.191417 0.483007 3.679000 75 40 28
1.191417 0.489447 3.679000 74 39 28
1.191417 0.495887 3.679000 78 39 29
1.178787 0.497002 3.640000 82 39 24
1.178787 0.503374 3.640000 80 41 19
1.178787 0.509746 3.640000 79 41 23
1.178787 0.516118 3.640000 77 42 27
1.178787 0.522489 3.640000 76 40 22
1.178787 0.528861 3.640000 78 38 17
1.178787 0.535233 3.640000 81 40 17
1.178787 0.541605 3.640000 85 40 18
1.178787 0.547977 3.640000 89 41 18
1.178787 0.554348 3.640000 81 42 19
1.178787 0.560720 3.640000 74 41 22
1.178787 0.567092 3.640000 79 39 26
1.178787 0.573464 3.640000 84 38 29
1.178787 0.579836 3.640000 84 40 32
1.178787 0.586208 3.640000 85 40 25
1.178787 0.592579 3.640000 82 41 18
1.178787 0.598951 3.640000 80 41 20
1.178787 0.605323 3.640000 82 42 23
1.178787 0.611695 3.640000 85 37 18
1.178787 0.618067 3.640000 82 35 12
1.178787 0.624439 3.640000 80 37 19
1.178787 0.630810 3.640000 78 39 26
1.178787 0.637182 3.640000 77 38 24
1.178787 0.643554 3.640000 78 39 23
1.178787 0.649926 3.640000 80 39 25
1.178787 0.656298 3.640000 81 42 28
1.178787 0.662669 3.640000 82 42 23
1.178787 0.669041 3.640000 80 42 18
1.178787 0.675413 3.640000 78 41 17
1.178787 0.681785 3.640000 78 40 15
1.178787 0.688157 3.640000 78 41 23
1.178787 0.694529 3.640000 77 42 32
1.178787 0.700900 3.640000 77 42 27
1.178787 0.707272 3.640000 77 44 22
1.178787 0.713644 3.640000 77 42 20
1.178787 0.720016 3.640000 78 42 18
1.178787 0.726388 3.640000 79 41 17
1.178787 0.732759 3.640000 79 39 17
1.178787 0.739131 3.640000 79 35 23
1.178787 0.745503 3.640000 78 34 30
1.178787 0.751875 3.640000 77 34 20
1.178787 0.758247 3.640000 77 34 11
1.178787 0.764619 3.640000 78 33 21
1.178787 0.770990 3.640000 76 34 32
1.178787 0.777362 3.640000 74 34 27
1.178787 0.783734 3.640000 73 32 21
1.178787 0.790106 3.640000 72 34 17
1.178787 0.796478 3.640000 69 34 14
1.178787 0.802850 3.640000 67 33 14
1.178787 0.809221 3.640000 70 35 15
1.178787 0.815593 3.640000 74 35 17
1.178787 0.821965 3.640000 74 34 19
1.178787 0.828337 3.640000 74 32 13
1.178787 0.834709 3.640000 70 32 8
1.178787 0.841080 3.640000 67 37 12
1.178787 0.847452 3.640000 52 40 16
1.178787 0.853824 3.640000 38 15 10
1.191417 0.869412 3.679000 25 2 4
1.178787 0.866568 3.640000 12 2 4
1.191417 0.882293 3.679000 10 3 4
1.191417 0.888733 3.679000 8 5 4
1.191417 0.895173 3.679000 9 7 3
1.204046 0.911170 3.718000 10 4 4
1.204046 0.917679 3.718000 7 4 5
1.191417 0.914493 3.679000 4 4 6
1.017837 0.902299 3.143000 68 43 55
1.008770 0.905166 3.115000 79 53 58
0.999702 0.902434 3.087000 81 58 60
0.999702 0.907837 3.087000 84 59 68
0.999702 0.913241 3.087000 84 66 77
0.990634 0.910313 3.059000 85 64 75
0.881499 0.843381 2.722000 83 57 69
0.874699 0.841602 2.701000 84 57 70
0.874699 0.846330 2.701000 85 58 72
0.867898 0.844441 2.680000 86 57 77
0.854620 0.836142 2.639000 85 58 81
0.854620 0.840762 2.639000 85 58 78
0.848144 0.838975 2.619000 84 58 75
0.829037 0.824556 2.560000 84 60 72
0.823208 0.823208 2.542000 85 64 69
0.799567 0.803889 2.469000 86 64 74
0.799567 0.808211 2.469000 86 62 78
0.799567 0.812533 2.469000 86 62 76
0.799567 0.816855 2.469000 84 61 74
0.788233 0.809536 2.434000 82 61 73
0.782727 0.808113 2.417000 83 64 72
0.777222 0.806631 2.400000 84 61 74
0.777222 0.810832 2.400000 85 60 75
0.751315 0.787865 2.320000 86 59 76
0.751315 0.791926 2.320000 90 59 77
0.746133 0.790498 2.304000 94 60 76
0.736418 0.784186 2.274000 91 62 75
0.736418 0.788166 2.274000 88 62 77
0.726703 0.781696 2.244000 88 64 80
0.722169 0.780723 2.230000 89 64 79
0.717311 0.779349 2.215000 88 63 79
0.708244 0.773326 2.187000 88 64 76
0.704034 0.772534 2.174000 82 67 73
0.699500 0.771340 2.160000 77 64 76
0.695290 0.770456 2.147000 83 63 80
0.686546 0.764479 2.120000 89 63 77
0.682336 0.763479 2.107000 89 64 74
0.674240 0.758065 2.082000 90 69 77
0.670030 0.756953 2.069000 89 71 81
0.666144 0.756164 2.057000 89 71 84
0.662258 0.755332 2.045000 91 72 87
0.658372 0.754459 2.033000 94 69 91
0.654486 0.753543 2.021000 93 67 95
0.650600 0.752586 2.009000 92 67 93
0.646713 0.751586 1.997000 92 64 91
0.639589 0.746763 1.975000 92 66 89
0.632141 0.741484 1.952000 92 69 87
0.625340 0.736887 1.931000 92 70 86
0.621778 0.736050 1.920000 93 71 86
0.614977 0.731324 1.899000 94 72 90
0.614977 0.734648 1.899000 94 74 94
0.611415 0.733698 1.888000 95 72 88
1.237253 -1.483374 3.800000 69 23 15
1.223904 -1.460789 3.759000 68 26 32
1.237253 -1.470070 3.800000 70 27 49
1.223904 -1.447628 3.759000 72 30 29
1.237253 -1.456766 3.800000 69 31 9
1.237253 -1.450114 3.800000 66 35 11
1.250928 -1.459416 3.842000 72 32 13
1.250928 -1.452691 3.842000 77 31 11
1.250928 -1.445966 3.842000 73 27 10
1.264929 -1.455348 3.885000 69 26 15
1.250928 -1.432515 3.842000 71 29 21
1.264929 -1.441747 3.885000 74 32 28
1.250928 -1.419064 3.842000 72 29 35
1.250928 -1.412338 3.842000 71 29 24
1.250928 -1.405613 3.842000 73 30 14
1.250928 -1.398888 3.842000 75 29 10
1.250928 -1.392162 3.842000 73 29 7
1.250928 -1.385437 3.842000 72 31 9
1.250928 -1.378711 3.842000 70 32 12
1.237253 -1.356988 3.800000 68 34 12
1.237253 -1.350336 3.800000 69 30 13
1.237253 -1.343684 3.800000 70 26 15
1.237253 -1.337032 3.800000 74 28 18
1.237253 -1.330380 3.800000 79 30 25
1.237253 -1.323728 3.800000 76 27 32
1.237253 -1.317076 3.800000 73 27 29
1.237253 -1.310424 3.800000 71 28 26
1.237253 -1.303773 3.800000 70 29 40
1.237253 -1.297121 3.800000 71 31 54
1.237253 -1.290469 3.800000 72 32 40
1.237253 -1.283817 3.800000 67 32 27
1.237253 -1.277165 3.800000 63 35 21
1.237253 -1.270513 3.800000 68 35 16
1.250928 -1.277830 3.842000 73 35 15
1.237253 -1.257209 3.800000 72 31 14
1.237253 -1.250557 3.800000 72 30 14
1.237253 -1.243905 3.800000 71 31 15
1.250928 -1.250928 3.842000 70 32 14
1.237253 -1.230602 3.800000 72 31 14
1.237253 -1.223950 3.800000 74 30 14
1.237253 -1.217298 3.800000 75 29 14
1.250928 -1.224027 3.842000 77 26 17
1.250928 -1.217301 3.842000 73 32 20
1.250928 -1.210576 3.842000 69 35 21
1.250928 -1.203850 3.842000 74 33 22
1.237253 -1.184038 3.800000 79 34 28
1.237253 -1.177386 3.800000 75 34 35
1.237253 -1.170735 3.800000 71 36 27
1.250928 -1.176949 3.842000 74 31 19
1.237253 -1.157431 3.800000 77 28 18
1.237253 -1.150779 3.800000 77 30 17
1.250928 -1.156772 3.842000 77 33 18
1.250928 -1.150047 3.842000 77 35 19
1.250928 -1.143322 3.842000 77 38 19
1.250928 -1.136596 3.842000 77 35 19
1.250928 -1.129871 3.842000 77 34 20
1.250928 -1.123145 3.842000 78 36 22
1.250928 -1.116420 3.842000 79 36 21
1.250928 -1.109695 3.842000 77 35 21
1.250928 -1.102969 3.842000 76 34 30
1.250928 -1.096244 3.842000 74 32 39
1.250928 -1.089518 3.842000 73 35 32
1.250928 -1.082793 3.842000 74 33 25
1.250928 -1.076067 3.842000 75 32 23
1.250928 -1.069342 3.842000 75 32 21
1.237253 -1.051000 3.800000 76 35 23
1.237253 -1.044348 3.800000 77 35 26
1.237253 -1.037696 3.800000 78 33 32
1.250928 -1.042440 3.842000 79 31 39
1.237253 -1.024393 3.800000 80 28 33
1.237253 -1.017741 3.800000 80 30 27
1.237253 -1.011089 3.800000 80 32 30
1.237253 -1.004437 3.800000 76 35 34
1.237253 -0.997785 3.800000 72 39 37
1.237253 -0.991133 3.800000 76 40 40
1.237253 -0.984481 3.800000 81 41 32
1.237253 -0.977829 3.800000 80 38 25
1.237253 -0.971177 3.800000 79 37 29
1.237253 -0.964525 3.800000 81 33 33
1.237253 -0.957874 3.800000 83 30 40
1.237253 -0.951222 3.800000 81 31 48
1.237253 -0.944570 3.800000 80 31 38
1.237253 -0.937918 3.800000 79 34 28
1.237253 -0.931266 3.800000 78 37 24
1.250928 -0.934834 3.842000 76 38 21
1.237253 -0.917962 3.800000 74 40 21
1.250928 -0.921383 3.842000 80 36 21
1.237253 -0.904658 3.800000 86 30 24
1.237253 -0.898007 3.800000 83 32 28
1.237253 -0.891355 3.800000 81 34 31
1.237253 -0.884703 3.800000 79 38 34
1.237253 -0.878051 3.800000 77 41 31
1.237253 -0.871399 3.800000 78 39 28
1.237253 -0.864747 3.800000 79 39 28
1.237253 -0.858095 3.800000 79 38 29
1.237253 -0.851443 3.800000 79 36 36
1.237253 -0.844791 3.800000 82 36 43
1.237253 -0.838139 3.800000 84 34 37
1.237253 -0.831488 3.800000 83 37 31
1.237253 -0.824836 3.800000 81 41 39
1.237253 -0.818184 3.800000 79 40 47
1.237253 -0.811532 3.800000 77 38 36
1.237253 -0.804880 3.800000 80 40 26
1.237253 -0.798228 3.800000 82 40 27
1.237253 -0.791576 3.800000 81 41 28
1.237253 -0.784924 3.800000 79 40 41
1.237253 -0.778272 3.800000 81 41 54
1.237253 -0.771620 3.800000 83 46 44
1.237253 -0.764969 3.800000 80 42 34
1.237253 -0.758317 3.800000 78 42 30
1.223904 -0.743555 3.759000 79 43 26
1.223904 -0.736974 3.759000 80 43 29
1.223904 -0.730394 3.759000 81 43 33
1.223904 -0.723814 3.759000 82 43 30
1.223904 -0.717234 3.759000 83 43 27
1.223904 -0.710654 3.759000 85 46 26
1.223904 -0.704074 3.759000 84 43 25
1.237253 -0.705101 3.800000 83 41 26
1.237253 -0.698450 3.800000 83 42 28
1.237253 -0.691798 3.800000 83 42 28
1.237253 -0.685146 3.800000 84 43 29
1.237253 -0.678494 3.800000 85 44 31
1.237253 -0.671842 3.800000 85 39 34
1.223904 -0.658013 3.759000 85 35 41
1.223904 -0.651433 3.759000 85 38 48
1.223904 -0.644853 3.759000 85 42 38
1.223904 -0.638273 3.759000 84 42 29
1.223904 -0.631692 3.759000 83 41 32
1.223904 -0.625112 3.759000 84 41 35
1.223904 -0.618532 3.759000 85 42 33
1.223904 -0.611952 3.759000 85 43 32
1.223904 -0.605372 3.759000 85 45 35
1.223904 -0.598792 3.759000 86 43 39
1.223904 -0.592212 3.759000 87 39 49
1.223904 -0.585631 3.759000 87 42 59
1.223904 -0.579051 3.759000 86 45 50
1.223904 -0.572471 3.759000 85 43 41
1.223904 -0.565891 3.759000 85 44 42
1.223904 -0.559311 3.759000 84 44 44
1.223904 -0.552731 3.759000 83 44 49
1.223904 -0.546151 3.759000 82 43 54
1.223904 -0.539571 3.759000 82 41 49
1.223904 -0.532990 3.759000 83 43 44
1.223904 -0.526410 3.759000 84 46 41
1.223904 -0.519830 3.759000 84 45 39
1.223904 -0.513250 3.759000 84 44 38
1.223904 -0.506670 3.759000 85 43 38
1.223904 -0.500090 3.759000 86 42 38
1.223904 -0.493510 3.759000 86 41 38
1.223904 -0.486930 3.759000 87 41 32
1.223904 -0.480349 3.759000 85 43 26
1.223904 -0.473769 3.759000 84 45 30
1.223904 -0.467189 3.759000 83 43 35
1.223904 -0.460609 3.759000 83 43 36
1.223904 -0.454029 3.759000 84 42 37
1.223904 -0.447449 3.759000 85 41 41
1.223904 -0.440869 3.759000 85 42 45
1.223904 -0.434289 3.759000 84 42 43
1.223904 -0.427708 3.759000 84 42 42
1.223904 -0.421128 3.759000 84 42 41
1.223904 -0.414548 3.759000 85 41 41
1.223904 -0.407968 3.759000 87 39 41
1.223904 -0.401388 3.759000 85 43 41
1.223904 -0.394808 3.759000 83 45 42
1.223904 -0.388228 3.759000 84 44 44
1.223904 -0.381647 3.759000 86 44 51
1.223904 -0.375067 3.759000 84 44 58
1.223904 -0.368487 3.759000 83 46 46
1.223904 -0.361907 3.759000 84 43 35
1.223904 -0.355327 3.759000 84 44 34
1.223904 -0.348747 3.759000 84 45 33
1.223904 -0.342167 3.759000 84 44 41
1.210555 -0.331926 3.718000 85 42 50
1.210555 -0.325418 3.718000 85 41 44
1.210555 -0.318910 3.718000 84 42 38
1.210555 -0.312401 3.718000 82 44 34
1.210555 -0.305893 3.718000 82 44 31
1.210555 -0.299384 3.718000 82 45 31
1.210555 -0.292876 3.718000 83 44 31
1.210555 -0.286368 3.718000 84 45 36
1.210555 -0.279859 3.718000 84 44 42
1.210555 -0.273351 3.718000 85 45 24
1.223904 -0.269785 3.759000 85 45 7
1.223904 -0.263205 3.759000 86 46 24
1.223904 -0.256625 3.759000 87 44 41
1.223904 -0.250045 3.759000 87 44 34
1.223904 -0.243465 3.759000 86 46 28
1.223904 -0.236885 3.759000 85 47 31
1.210555 -0.227793 3.718000 86 45 34
1.210555 -0.221284 3.718000 86 44 34
1.210555 -0.214776 3.718000 83 45 34
1.210555 -0.208267 3.718000 81 47 34
1.223904 -0.203984 3.759000 82 46 34
1.210555 -0.195251 3.718000 84 47 39
1.223904 -0.190824 3.759000 83 45 45
1.210555 -0.182234 3.718000 83 45 38
1.210555 -0.175726 3.718000 84 45 31
1.210555 -0.169217 3.718000 86 44 27
1.210555 -0.162709 3.718000 84 47 24
1.210555 -0.156201 3.718000 82 49 33
1.210555 -0.149692 3.718000 84 46 43
1.210555 -0.143184 3.718000 87 45 42
1.210555 -0.136676 3.718000 84 46 41
1.210555 -0.130167 3.718000 82 47 41
1.210555 -0.123659 3.718000 86 45 41
1.210555 -0.117150 3.718000 90 44 46
1.210555 -0.110642 3.718000 86 45 52
1.210555 -0.104134 3.718000 82 47 46
1.210555 -0.097625 3.718000 84 44 41
1.197857 -0.090161 3.679000 86 42 37
1.197857 -0.083721 3.679000 90 39 34
1.197857 -0.077281 3.679000 93 41 36
1.197857 -0.070841 3.679000 90 41 39
1.197857 -0.064401 3.679000 87 39 42
1.197857 -0.057961 3.679000 83 43 45
1.185158 -0.050975 3.640000 79 46 38
1.197857 -0.045081 3.679000 82 45 32
1.197857 -0.038641 3.679000 86 45 31
1.197857 -0.032200 3.679000 86 42 31
1.197857 -0.025760 3.679000 86 42 28
1.197857 -0.019320 3.679000 86 45 26
1.197857 -0.012880 3.679000 86 47 26
1.197857 -0.006440 3.679000 87 44 26
1.197857 -0.000000 3.679000 88 44 25
1.197857 0.006440 3.679000 87 43 24
1.197857 0.012880 3.679000 87 43 28
1.197857 0.019320 3.679000 86 43 32
1.197857 0.025761 3.679000 86 42 37
1.197857 0.032201 3.679000 84 43 43
1.197857 0.038641 3.679000 82 45 37
1.210555 0.045559 3.718000 83 43 31
1.210555 0.052067 3.718000 84 42 31
1.197857 0.057961 3.679000 84 43 31
1.197857 0.064401 3.679000 85 45 36
1.197857 0.070841 3.679000 84 43 42
1.197857 0.077281 3.679000 83 44 35
1.185158 0.082834 3.640000 84 43 29
1.185158 0.089206 3.640000 85 45 31
1.185158 0.095577 3.640000 85 44 33
1.185158 0.101949 3.640000 84 45 32
1.185158 0.108321 3.640000 84 44 31
1.197857 0.115922 3.679000 85 46 31
1.197857 0.122362 3.679000 84 45 32
1.197857 0.128802 3.679000 84 45 29
1.185158 0.133808 3.640000 85 44 26
1.185158 0.140180 3.640000 87 45 21
1.185158 0.146552 3.640000 86 44 17
1.185158 0.152924 3.640000 86 44 15
1.185158 0.159296 3.640000 86 44 14
1.185158 0.165667 3.640000 86 43 20
1.185158 0.172039 3.640000 86 45 27
1.185158 0.178411 3.640000 87 45 26
1.197857 0.186763 3.679000 86 44 26
1.197857 0.193203 3.679000 86 45 26
1.197857 0.199643 3.679000 85 46 26
1.197857 0.206083 3.679000 85 47 22
1.197857 0.212523 3.679000 85 46 19
1.185158 0.216642 3.640000 84 47 23
1.185158 0.223014 3.640000 83 44 28
1.185158 0.229386 3.640000 82 42 31
1.185158 0.235757 3.640000 84 43 35
1.185158 0.242129 3.640000 86 42 29
1.185158 0.248501 3.640000 86 43 23
1.185158 0.254873 3.640000 86 45 22
1.185158 0.261245 3.640000 88 46 21
1.197857 0.270484 3.679000 90 48 32
1.197857 0.276924 3.679000 88 45 44
1.197857 0.283364 3.679000 85 44 38
1.197857 0.289804 3.679000 89 43 33
1.197857 0.296244 3.679000 93 42 30
1.197857 0.302684 3.679000 89 44 27
1.185158 0.305847 3.640000 86 47 26
1.185158 0.312219 3.640000 85 45 26
1.185158 0.318591 3.640000 85 43 28
1.185158 0.324963 3.640000 86 43 30
1.185158 0.331335 3.640000 87 42 29
1.185158 0.337707 3.640000 84 41 28
1.197857 0.347765 3.679000 81 40 27
1.197857 0.354205 3.679000 80 42 26
1.185158 0.356822 3.640000 80 41 27
1.185158 0.363194 3.640000 81 41 28
1.197857 0.373525 3.679000 82 42 24
1.185158 0.375937 3.640000 81 41 20
1.185158 0.382309 3.640000 81 42 23
1.185158 0.388681 3.640000 83 40 26
1.197857 0.399286 3.679000 85 39 22
1.197857 0.405726 3.679000 83 40 18
1.197857 0.412166 3.679000 82 42 21
1.197857 0.418606 3.679000 82 41 24
1.197857 0.425046 3.679000 82 41 34
1.197857 0.431486 3.679000 80 40 44
1.197857 0.437926 3.679000 78 41 31
1.197857 0.444366 3.679000 81 40 19
1.197857 0.450806 3.679000 85 38 14
1.197857 0.457246 3.679000 82 38 9
1.197857 0.463687 3.679000 79 40 25
1.185158 0.465143 3.640000 79 40 41
1.185158 0.471515 3.640000 79 40 35
1.185158 0.477887 3.640000 80 39 30
1.197857 0.489447 3.679000 81 36 36
1.197857 0.495887 3.679000 82 35 42
1.185158 0.497002 3.640000 82 36 33
1.185158 0.503374 3.640000 82 38 24
1.185158 0.509746 3.640000 82 39 32
1.197857 0.521647 3.679000 83 39 41
1.185158 0.522489 3.640000 84 39 30
1.185158 0.528861 3.640000 83 39 20
1.185158 0.535233 3.640000 82 42 24
1.185158 0.541605 3.640000 84 40 28
1.185158 0.547977 3.640000 86 39 24
1.185158 0.554348 3.640000 82 40 21
1.185158 0.560720 3.640000 78 41 23
1.185158 0.567092 3.640000 83 39 26
1.185158 0.573464 3.640000 88 38 31
1.185158 0.579836 3.640000 86 40 37
1.185158 0.586208 3.640000 85 41 29
1.185158 0.592579 3.640000 83 41 21
1.185158 0.598951 3.640000 82 42 29
1.185158 0.605323 3.640000 83 40 38
1.185158 0.611695 3.640000 84 36 23
1.185158 0.618067 3.640000 83 36 8
1.185158 0.624439 3.640000 83 37 21
1.185158 0.630810 3.640000 81 39 35
1.185158 0.637182 3.640000 80 41 30
1.185158 0.643554 3.640000 82 38 26
1.185158 0.649926 3.640000 85 36 32
1.185158 0.656298 3.640000 83 40 38
1.185158 0.662669 3.640000 82 41 31
1.185158 0.669041 3.640000 79 40 25
1.185158 0.675413 3.640000 76 41 24
1.185158 0.681785 3.640000 77 40 24
1.185158 0.688157 3.640000 78 42 32
1.185158 0.694529 3.640000 78 42 40
1.185158 0.700900 3.640000 78 44 35
1.185158 0.707272 3.640000 77 42 30
1.185158 0.713644 3.640000 77 39 32
1.185158 0.720016 3.640000 78 41 34
1.185158 0.726388 3.640000 79 43 28
1.185158 0.732759 3.640000 78 39 22
1.185158 0.739131 3.640000 78 36 31
1.185158 0.745503 3.640000 78 35 41
1.185158 0.751875 3.640000 78 32 29
1.185158 0.758247 3.640000 79 31 18
1.185158 0.764619 3.640000 81 32 22
1.185158 0.770990 3.640000 78 34 26
1.185158 0.777362 3.640000 76 36 25
1.185158 0.783734 3.640000 76 36 25
1.185158 0.790106 3.640000 76 38 25
1.185158 0.796478 3.640000 73 35 26
1.185158 0.802850 3.640000 71 33 22
1.185158 0.809221 3.640000 73 35 19
1.185158 0.815593 3.640000 75 37 24
1.185158 0.821965 3.640000 75 34 29
1.185158 0.828337 3.640000 76 29 21
1.185158 0.834709 3.640000 71 32 14
1.185158 0.841080 3.640000 67 41 17
1.185158 0.847452 3.640000 53 33 21
1.185158 0.853824 3.640000 39 17 14
1.185158 0.860196 3.640000 23 6 8
1.185158 0.866568 3.640000 7 3 6
1.185158 0.872940 3.640000 8 4 5
1.197857 0.888733 3.679000 10 7 4
1.197857 0.895173 3.679000 9 6 4
1.197857 0.901613 3.679000 8 4 4
1.197857 0.908053 3.679000 7 4 5
1.185158 0.904799 3.640000 5 4 7
0.886264 0.843381 2.722000 85 56 73
0.879427 0.841602 2.701000 87 58 72
0.872589 0.839750 2.680000 86 57 72
0.865752 0.837824 2.659000 85 58 80
0.859240 0.836142 2.639000 85 57 89
0.859240 0.840762 2.639000 85 59 83
0.852728 0.838975 2.619000 84 59 78
0.846216 0.837117 2.599000 83 60 73
0.827657 0.823208 2.542000 85 61 68
0.803889 0.803889 2.469000 87 61 71
0.803889 0.808211 2.469000 86 61 75
0.803889 0.812533 2.469000 86 62 74
0.798028 0.810900 2.451000 83 61 74
0.792493 0.809536 2.434000 80 61 72
0.786958 0.808113 2.417000 84 61 71
0.781423 0.806631 2.400000 87 61 73
0.776214 0.805426 2.384000 87 60 76
0.750166 0.782432 2.304000 86 59 77
0.750166 0.786465 2.304000 89 59 78
0.745282 0.785351 2.289000 92 59 77
0.740399 0.784186 2.274000 90 59 77
0.740399 0.788166 2.274000 88 60 83
0.735515 0.786922 2.259000 89 62 89
0.730631 0.785625 2.244000 90 65 84
0.726072 0.784627 2.230000 90 63 79
0.712072 0.773326 2.187000 90 64 78
0.707839 0.772534 2.174000 89 65 77
0.703281 0.771340 2.160000 89 66 79
0.699048 0.770456 2.147000 90 63 82
0.690257 0.764479 2.120000 90 63 81
0.686024 0.763479 2.107000 90 67 80
0.677885 0.758065 2.082000 90 69 81
0.673652 0.756953 2.069000 90 69 83
0.669745 0.756164 2.057000 90 70 86
0.665838 0.755332 2.045000 94 69 90
0.661931 0.754459 2.033000 98 71 94
0.658023 0.753543 2.021000 95 70 98
0.654116 0.752586 2.009000 92 70 95
0.654116 0.756102 2.009000 92 66 92
0.643046 0.746763 1.975000 92 64 91
0.635558 0.741484 1.952000 93 67 90
0.631976 0.740703 1.941000 94 69 88
0.625139 0.736050 1.920000 94 72 87
0.618301 0.731324 1.899000 95 74 94
0.618301 0.734648 1.899000 95 72 101
0.614720 0.733698 1.888000 95 70 93
1.243906 -1.483374 3.800000 69 20 9
1.230484 -1.460789 3.759000 68 21 18
1.243906 -1.470070 3.800000 73 26 27
1.243906 -1.463418 3.800000 78 25 16
1.243906 -1.456766 3.800000 74 26 5
1.243906 -1.450114 3.800000 70 29 6
1.257654 -1.459416 3.842000 77 34 7
1.271730 -1.468950 3.885000 84 29 6
1.271730 -1.462149 3.885000 77 26 6
1.271730 -1.455348 3.885000 70 27 9
1.271730 -1.448548 3.885000 75 32 13
1.271730 -1.441747 3.885000 80 28 15
1.271730 -1.434946 3.885000 75 28 18
1.257654 -1.412338 3.842000 71 30 13
1.257654 -1.405613 3.842000 74 35 7
1.257654 -1.398888 3.842000 77 30 5
1.243906 -1.376943 3.800000 75 28 4
1.243906 -1.370291 3.800000 73 28 5
1.243906 -1.363640 3.800000 73 31 7
1.243906 -1.356988 3.800000 74 31 8
1.243906 -1.350336 3.800000 73 32 10
1.243906 -1.343684 3.800000 72 27 12
1.243906 -1.337032 3.800000 78 28 15
1.243906 -1.330380 3.800000 85 25 19
1.243906 -1.323728 3.800000 81 23 24
1.243906 -1.317076 3.800000 78 25 21
1.243906 -1.310424 3.800000 75 24 18
1.243906 -1.303773 3.800000 72 27 24
1.243906 -1.297121 3.800000 75 33 30
1.243906 -1.290469 3.800000 78 31 24
1.243906 -1.283817 3.800000 74 30 19
1.243906 -1.277165 3.800000 71 32 16
1.243906 -1.270513 3.800000 73 34 13
1.243906 -1.263861 3.800000 76 31 12
1.243906 -1.257209 3.800000 77 30 12
1.243906 -1.250557 3.800000 79 30 13
1.243906 -1.243905 3.800000 76 34 15
1.243906 -1.237254 3.800000 73 32 19
1.243906 -1.230602 3.800000 74 30 23
1.243906 -1.223950 3.800000 76 31 18
1.243906 -1.217298 3.800000 79 29 13
1.257654 -1.224027 3.842000 82 30 14
1.257654 -1.217301 3.842000 79 35 15
1.257654 -1.210576 3.842000 76 34 17
1.257654 -1.203850 3.842000 80 33 19
1.243906 -1.184038 3.800000 84 32 22
1.243906 -1.177386 3.800000 81 31 26
1.243906 -1.170735 3.800000 78 31 23
1.257654 -1.176949 3.842000 78 28 20
1.243906 -1.157431 3.800000 79 28 18
1.243906 -1.150779 3.800000 78 27 16
1.257654 -1.156772 3.842000 78 31 17
1.257654 -1.150047 3.842000 78 34 19
1.257654 -1.143322 3.842000 78 35 18
1.257654 -1.136596 3.842000 77 36 18
1.243906 -1.117519 3.800000 77 34 19
1.243906 -1.110867 3.800000 79 34 21
1.243906 -1.104216 3.800000 82 35 21
1.243906 -1.097564 3.800000 80 35 21
1.243906 -1.090912 3.800000 78 34 24
1.243906 -1.084260 3.800000 82 33 28
1.243906 -1.077608 3.800000 86 34 25
1.243906 -1.070956 3.800000 82 36 22
1.243906 -1.064304 3.800000 78 35 21
1.243906 -1.057652 3.800000 77 34 21
1.243906 -1.051000 3.800000 77 36 20
1.243906 -1.044348 3.800000 77 37 20
1.243906 -1.037696 3.800000 78 34 25
1.243906 -1.031045 3.800000 79 33 30
1.243906 -1.024393 3.800000 81 32 28
1.243906 -1.017741 3.800000 81 32 27
1.243906 -1.011089 3.800000 82 32 28
1.243906 -1.004437 3.800000 79 34 30
1.243906 -0.997785 3.800000 77 36 33
1.230484 -0.980439 3.759000 80 38 36
1.243906 -0.984481 3.800000 84 35 30
1.243906 -0.977829 3.800000 83 34 25
1.243906 -0.971177 3.800000 82 34 26
1.243906 -0.964525 3.800000 86 36 27
1.243906 -0.957874 3.800000 90 34 29
1.243906 -0.951222 3.800000 86 31 31
1.243906 -0.944570 3.800000 82 32 28
1.243906 -0.937918 3.800000 80 33 24
1.243906 -0.931266 3.800000 79 36 19
1.243906 -0.924614 3.800000 79 36 14
1.243906 -0.917962 3.800000 79 36 18
1.243906 -0.911310 3.800000 80 36 23
1.243906 -0.904658 3.800000 82 32 25
1.243906 -0.898007 3.800000 81 32 27
1.243906 -0.891355 3.800000 80 36 28
1.243906 -0.884703 3.800000 79 41 30
1.243906 -0.878051 3.800000 78 39 27
1.243906 -0.871399 3.800000 78 38 25
1.243906 -0.864747 3.800000 79 40 22
1.243906 -0.858095 3.800000 80 41 20
1.243906 -0.851443 3.800000 81 38 27
1.243906 -0.844791 3.800000 85 37 34
1.243906 -0.838139 3.800000 89 35 31
1.243906 -0.831488 3.800000 86 34 29
1.243906 -0.824836 3.800000 84 37 34
1.243906 -0.818184 3.800000 82 40 40
1.243906 -0.811532 3.800000 81 37 34
1.243906 -0.804880 3.800000 83 39 28
1.243906 -0.798228 3.800000 86 39 27
1.243906 -0.791576 3.800000 84 40 27
1.243906 -0.784924 3.800000 82 40 29
1.243906 -0.778272 3.800000 84 41 31
1.243906 -0.771620 3.800000 87 42 30
1.243906 -0.764969 3.800000 82 41 30
1.230484 -0.750135 3.759000 77 41 28
1.230484 -0.743555 3.759000 78 45 27
1.230484 -0.736974 3.759000 80 44 27
1.230484 -0.730394 3.759000 82 44 28
1.230484 -0.723814 3.759000 84 43 26
1.230484 -0.717234 3.759000 87 42 25
1.230484 -0.710654 3.759000 90 44 29
1.230484 -0.704074 3.759000 87 46 33
1.230484 -0.697494 3.759000 85 41 30
1.230484 -0.690914 3.759000 85 40 27
1.230484 -0.684333 3.759000 85 42 28
1.230484 -0.677753 3.759000 86 44 30
1.230484 -0.671173 3.759000 87 42 30
1.230484 -0.664593 3.759000 86 38 30
1.230484 -0.658013 3.759000 86 37 35
1.230484 -0.651433 3.759000 84 38 41
1.230484 -0.644853 3.759000 83 42 35
1.230484 -0.638273 3.759000 82 46 29
1.230484 -0.631692 3.759000 82 42 32
1.230484 -0.625112 3.759000 83 41 34
1.230484 -0.618532 3.759000 85 42 31
1.230484 -0.611952 3.759000 86 45 28
1.230484 -0.605372 3.759000 87 44 32
1.230484 -0.598792 3.759000 90 44 35
1.230484 -0.592212 3.759000 93 42 39
1.230484 -0.585631 3.759000 90 45 42
1.230484 -0.579051 3.759000 88 43 36
1.230484 -0.572471 3.759000 87 40 31
1.230484 -0.565891 3.759000 86 42 35
1.230484 -0.559311 3.759000 85 44 40
1.230484 -0.552731 3.759000 84 43 44
1.230484 -0.546151 3.759000 85 43 48
1.230484 -0.539571 3.759000 86 41 46
1.230484 -0.532990 3.759000 86 41 44
1.217063 -0.520669 3.718000 86 43 41
1.230484 -0.519830 3.759000 85 47 38
1.217063 -0.507652 3.718000 85 45 40
1.230484 -0.506670 3.759000 85 44 42
1.230484 -0.500090 3.759000 86 42 40
1.230484 -0.493510 3.759000 87 41 37
1.230484 -0.486930 3.759000 89 41 28
1.230484 -0.480349 3.759000 86 42 20
1.217063 -0.468602 3.718000 84 43 27
1.230484 -0.467189 3.759000 84 41 34
1.230484 -0.460609 3.759000 85 41 35
1.230484 -0.454029 3.759000 86 41 37
1.230484 -0.447449 3.759000 88 42 39
1.230484 -0.440869 3.759000 87 45 42
1.230484 -0.434289 3.759000 86 42 40
1.230484 -0.427708 3.759000 86 41 39
1.230484 -0.421128 3.759000 86 41 40
1.230484 -0.414548 3.759000 89 40 41
1.230484 -0.407968 3.759000 92 40 43
1.230484 -0.401388 3.759000 88 45 45
1.230484 -0.394808 3.759000 85 44 41
1.230484 -0.388228 3.759000 84 44 37
1.230484 -0.381647 3.759000 84 43 35
1.230484 -0.375067 3.759000 82 44 33
1.230484 -0.368487 3.759000 81 43 32
1.230484 -0.361907 3.759000 83 43 31
1.230484 -0.355327 3.759000 86 43 31
1.217063 -0.344943 3.718000 86 45 32
1.217063 -0.338435 3.718000 86 43 34
1.217063 -0.331926 3.718000 87 42 37
1.217063 -0.325418 3.718000 89 41 36
1.217063 -0.318910 3.718000 86 42 36
1.217063 -0.312401 3.718000 84 43 34
1.217063 -0.305893 3.718000 87 45 32
1.217063 -0.299384 3.718000 90 44 29
1.217063 -0.292876 3.718000 87 44 27
1.230484 -0.289526 3.759000 85 45 30
1.230484 -0.282946 3.759000 84 45 33
1.230484 -0.276365 3.759000 84 44 25
1.230484 -0.269785 3.759000 85 46 16
1.230484 -0.263205 3.759000 87 45 25
1.217063 -0.253826 3.718000 89 44 33
1.217063 -0.247318 3.718000 91 44 30
1.217063 -0.240809 3.718000 89 47 27
1.217063 -0.234301 3.718000 88 46 30
1.217063 -0.227793 3.718000 89 44 34
1.217063 -0.221284 3.718000 91 44 35
1.217063 -0.214776 3.718000 87 45 36
1.217063 -0.208267 3.718000 84 46 35
1.217063 -0.201759 3.718000 85 46 34
1.217063 -0.195251 3.718000 87 45 34
1.217063 -0.188742 3.718000 84 46 35
1.217063 -0.182234 3.718000 82 46 32
1.217063 -0.175726 3.718000 83 46 28
1.217063 -0.169217 3.718000 84 46 26
1.217063 -0.162709 3.718000 82 50 24
1.217063 -0.156201 3.718000 80 48 31
1.217063 -0.149692 3.718000 84 47 38
1.217063 -0.143184 3.718000 89 46 37
1.217063 -0.136676 3.718000 85 47 35
1.217063 -0.130167 3.718000 82 46 34
1.217063 -0.123659 3.718000 87 46 33
1.217063 -0.117150 3.718000 93 45 36
1.217063 -0.110642 3.718000 90 43 39
1.217063 -0.104134 3.718000 87 46 37
1.217063 -0.097625 3.718000 88 47 34
1.204297 -0.090161 3.679000 89 43 31
1.217063 -0.084609 3.718000 94 39 28
1.204297 -0.077281 3.679000 100 40 30
1.204297 -0.070841 3.679000 94 38 32
1.204297 -0.064401 3.679000 88 41 31
1.204297 -0.057961 3.679000 86 44 30
1.204297 -0.051521 3.679000 85 43 29
1.204297 -0.045081 3.679000 86 44 28
1.204297 -0.038641 3.679000 88 44 28
1.204297 -0.032200 3.679000 87 42 28
1.204297 -0.025760 3.679000 87 43 29
1.204297 -0.019320 3.679000 88 46 30
1.204297 -0.012880 3.679000 89 45 30
1.204297 -0.006440 3.679000 90 46 31
1.217063 -0.000000 3.718000 91 44 28
1.204297 0.006440 3.679000 89 45 26
1.217063 0.013017 3.718000 88 44 29
1.217063 0.019525 3.718000 87 44 32
1.217063 0.026034 3.718000 86 42 34
1.217063 0.032542 3.718000 84 41 37
1.204297 0.038641 3.679000 83 42 34
1.204297 0.045081 3.679000 84 42 32
1.204297 0.051521 3.679000 85 42 31
1.204297 0.057961 3.679000 85 42 31
1.204297 0.064401 3.679000 86 43 34
1.191530 0.070090 3.640000 85 44 37
1.191530 0.076462 3.640000 84 44 30
1.191530 0.082834 3.640000 84 46 24
1.191530 0.089206 3.640000 85 45 27
1.191530 0.095577 3.640000 84 44 29
1.191530 0.101949 3.640000 84 44 28
1.191530 0.108321 3.640000 84 45 27
1.204297 0.115922 3.679000 85 45 31
1.204297 0.122362 3.679000 84 45 35
1.204297 0.128802 3.679000 84 44 31
1.204297 0.135242 3.679000 85 44 27
1.191530 0.140180 3.640000 87 45 24
1.191530 0.146552 3.640000 86 45 21
1.191530 0.152924 3.640000 86 44 20
1.191530 0.159296 3.640000 86 45 20
1.191530 0.165667 3.640000 86 44 27
1.191530 0.172039 3.640000 86 47 35
1.191530 0.178411 3.640000 87 45 30
1.191530 0.184783 3.640000 86 44 26
1.191530 0.191155 3.640000 85 46 26
1.191530 0.197527 3.640000 86 49 26
1.191530 0.203898 3.640000 87 47 24
1.191530 0.210270 3.640000 86 45 22
1.191530 0.216642 3.640000 85 46 22
1.191530 0.223014 3.640000 84 46 23
1.191530 0.229386 3.640000 83 43 26
1.191530 0.235757 3.640000 84 42 29
1.191530 0.242129 3.640000 86 41 26
1.191530 0.248501 3.640000 87 41 23
1.191530 0.254873 3.640000 89 44 22
1.191530 0.261245 3.640000 91 45 20
1.191530 0.267617 3.640000 94 45 27
1.191530 0.273988 3.640000 90 46 34
1.191530 0.280360 3.640000 87 44 33
1.191530 0.286732 3.640000 93 42 33
1.191530 0.293104 3.640000 100 43 29
1.191530 0.299476 3.640000 93 44 26
1.191530 0.305847 3.640000 87 44 26
1.191530 0.312219 3.640000 87 44 25
1.191530 0.318591 3.640000 87 43 29
1.191530 0.324963 3.640000 88 44 32
1.191530 0.331335 3.640000 90 42 27
1.191530 0.337707 3.640000 86 41 21
1.191530 0.344078 3.640000 82 41 23
1.191530 0.350450 3.640000 83 41 26
1.191530 0.356822 3.640000 84 40 25
1.191530 0.363194 3.640000 83 41 25
1.204297 0.373525 3.679000 82 42 23
1.191530 0.375937 3.640000 80 42 20
1.191530 0.382309 3.640000 79 41 20
1.204297 0.392846 3.679000 81 42 20
1.204297 0.399286 3.679000 84 41 19
1.204297 0.405726 3.679000 83 42 19
1.204297 0.412166 3.679000 82 41 22
1.204297 0.418606 3.679000 83 39 24
1.204297 0.425046 3.679000 84 40 29
1.204297 0.431486 3.679000 80 39 34
1.204297 0.437926 3.679000 77 39 26
1.204297 0.444366 3.679000 83 40 18
1.204297 0.450806 3.679000 89 38 15
1.204297 0.457246 3.679000 85 38 13
1.204297 0.463687 3.679000 81 40 23
1.204297 0.470127 3.679000 81 42 33
1.204297 0.476567 3.679000 82 39 27
1.204297 0.483007 3.679000 85 40 21
1.204297 0.489447 3.679000 89 36 27
1.204297 0.495887 3.679000 86 30 33
1.191530 0.497002 3.640000 83 35 28
1.191530 0.503374 3.640000 84 36 23
1.204297 0.515207 3.679000 86 37 28
1.204297 0.521647 3.679000 89 36 33
1.191530 0.522489 3.640000 93 37 24
1.191530 0.528861 3.640000 88 39 16
1.191530 0.535233 3.640000 84 40 19
1.191530 0.541605 3.640000 84 40 23
1.191530 0.547977 3.640000 84 40 20
1.191530 0.554348 3.640000 83 41 17
1.191530 0.560720 3.640000 82 41 17
1.191530 0.567092 3.640000 87 41 17
1.191530 0.573464 3.640000 92 39 21
1.191530 0.579836 3.640000 89 41 26
1.191530 0.586208 3.640000 86 42 21
1.191530 0.592579 3.640000 85 42 17
1.191530 0.598951 3.640000 84 41 23
1.191530 0.605323 3.640000 84 40 29
1.191530 0.611695 3.640000 84 38 21
1.191530 0.618067 3.640000 85 37 13
1.191530 0.624439 3.640000 86 38 19
1.191530 0.630810 3.640000 85 39 26
1.191530 0.637182 3.640000 84 38 25
1.191530 0.643554 3.640000 87 37 24
1.191530 0.649926 3.640000 90 37 28
1.191530 0.656298 3.640000 86 41 32
1.191530 0.662669 3.640000 82 38 30
1.191530 0.669041 3.640000 78 36 28
1.191530 0.675413 3.640000 74 39 26
1.191530 0.681785 3.640000 76 40 24
1.191530 0.688157 3.640000 78 41 27
1.191530 0.694529 3.640000 78 41 31
1.191530 0.700900 3.640000 79 42 25
1.191530 0.707272 3.640000 78 41 20
1.191530 0.713644 3.640000 78 40 24
1.191530 0.720016 3.640000 78 41 29
1.191530 0.726388 3.640000 79 40 25
1.191530 0.732759 3.640000 78 40 22
1.191530 0.739131 3.640000 78 39 26
1.191530 0.745503 3.640000 79 40 31
1.191530 0.751875 3.640000 80 35 20
1.191530 0.758247 3.640000 82 29 9
1.191530 0.764619 3.640000 84 31 16
1.191530 0.770990 3.640000 81 34 23
1.191530 0.777362 3.640000 79 36 20
1.191530 0.783734 3.640000 79 38 18
1.191530 0.790106 3.640000 80 37 17
1.191530 0.796478 3.640000 78 35 16
1.191530 0.802850 3.640000 76 35 16
1.191530 0.809221 3.640000 76 38 15
1.191530 0.815593 3.640000 76 36 18
1.191530 0.821965 3.640000 77 37 21
1.191530 0.828337 3.640000 79 31 15
1.191530 0.834709 3.640000 73 26 9
1.191530 0.841080 3.640000 67 34 19
1.191530 0.847452 3.640000 53 34 30
1.191530 0.853824 3.640000 40 18 19
1.191530 0.860196 3.640000 21 3 8
1.191530 0.866568 3.640000 3 2 5
1.191530 0.872940 3.640000 7 4 3
1.191530 0.879311 3.640000 12 5 3
1.191530 0.885683 3.640000 9 7 4
1.191530 0.892055 3.640000 7 5 5
1.204297 0.908053 3.679000 7 5 6
1.191530 0.904799 3.640000 7 4 6
0.891029 0.843381 2.722000 88 56 71
0.884155 0.841602 2.701000 91 56 72
0.877281 0.839750 2.680000 88 54 73
0.870407 0.837824 2.659000 85 56 77
0.857313 0.829805 2.619000 85 56 82
0.857313 0.834390 2.619000 85 59 75
0.850766 0.832568 2.599000 84 61 69
0.850766 0.837117 2.599000 83 59 69
0.832107 0.823208 2.542000 86 59 69
0.814103 0.809750 2.487000 89 60 69
0.808211 0.808211 2.469000 87 61 69
0.808211 0.812533 2.469000 86 62 69
0.796754 0.805276 2.434000 82 63 69
0.791189 0.803882 2.417000 79 62 68
0.791189 0.808113 2.417000 85 60 67
0.785624 0.806631 2.400000 91 60 71
0.780387 0.805426 2.384000 89 62 75
0.769585 0.798393 2.351000 87 59 75
0.754200 0.786465 2.304000 88 60 76
0.749289 0.785351 2.289000 90 60 75
0.744379 0.784186 2.274000 89 58 75
0.744379 0.788166 2.274000 88 60 78
0.744379 0.792147 2.274000 90 62 82
0.734559 0.785625 2.244000 92 63 79
0.729976 0.784627 2.230000 92 63 77
0.715900 0.773326 2.187000 92 63 76
0.711645 0.772534 2.174000 97 66 75
0.707062 0.771340 2.160000 102 63 77
0.702807 0.770456 2.147000 97 60 80
0.693968 0.764479 2.120000 92 64 77
0.689713 0.763479 2.107000 91 72 75
0.681529 0.758065 2.082000 91 71 78
0.677274 0.756953 2.069000 91 69 80
0.673346 0.756164 2.057000 92 68 84
