ply
format ascii 1.0
element vertex 1320
property float x
property float y
property float z
property uchar red
property uchar green
property uchar blue
end_header
1.169409 -0.669913 3.357000 39 20 23
1.169409 -0.664036 3.357000 31 20 23
1.157914 -0.651690 3.324000 24 21 26
1.157914 -0.645871 3.324000 28 19 30
1.169409 -0.646407 3.357000 32 18 29
1.157914 -0.634234 3.324000 35 19 28
1.157914 -0.628416 3.324000 38 19 29
1.157914 -0.622597 3.324000 36 15 30
1.157914 -0.616778 3.324000 34 14 29
1.157914 -0.610960 3.324000 25 14 28
1.157914 -0.605141 3.324000 16 16 27
1.157914 -0.599322 3.324000 24 12 27
1.157914 -0.593504 3.324000 32 16 21
1.157914 -0.587685 3.324000 33 12 16
1.157914 -0.581866 3.324000 34 16 18
1.157914 -0.576048 3.324000 32 14 19
1.157914 -0.570229 3.324000 30 14 21
1.157914 -0.564410 3.324000 21 12 22
1.157914 -0.558592 3.324000 12 15 20
1.157914 -0.552773 3.324000 23 8 17
1.157914 -0.546954 3.324000 34 11 18
1.157914 -0.541136 3.324000 26 9 18
1.157914 -0.535317 3.324000 18 13 21
1.157914 -0.529498 3.324000 26 10 23
1.157914 -0.523679 3.324000 34 13 17
1.147115 -0.513031 3.293000 28 9 12
1.147115 -0.507267 3.293000 23 11 12
1.147115 -0.501502 3.293000 31 11 13
1.147115 -0.495738 3.293000 40 13 14
1.147115 -0.489974 3.293000 41 9 14
1.147115 -0.484209 3.293000 43 10 14
1.147115 -0.478445 3.293000 43 7 14
1.157914 -0.477130 3.324000 44 9 11
1.157914 -0.471312 3.324000 46 7 8
1.157914 -0.465493 3.324000 49 9 13
1.147115 -0.455387 3.293000 39 6 19
1.147115 -0.449623 3.293000 30 5 18
1.147115 -0.443859 3.293000 37 4 18
1.147115 -0.438094 3.293000 45 9 18
1.147115 -0.432330 3.293000 45 12 18
1.147115 -0.426565 3.293000 45 12 15
1.147115 -0.420801 3.293000 42 11 11
1.147115 -0.415036 3.293000 40 13 14
1.147115 -0.409272 3.293000 31 12 17
1.147115 -0.403508 3.293000 23 15 17
1.147115 -0.397743 3.293000 32 17 18
1.157914 -0.395669 3.324000 41 13 16
1.157914 -0.389850 3.324000 43 14 15
1.157914 -0.384032 3.324000 45 14 8
1.147115 -0.374686 3.293000 49 15 2
1.147115 -0.368921 3.293000 54 15 3
1.147115 -0.363157 3.293000 53 14 5
1.136316 -0.354028 3.262000 53 15 4
1.136316 -0.348318 3.262000 53 15 4
1.136316 -0.342608 3.262000 53 16 6
1.136316 -0.336898 3.262000 52 15 9
1.136316 -0.331188 3.262000 51 10 10
1.147115 -0.328571 3.293000 45 9 12
1.136316 -0.319767 3.262000 40 13 9
1.147115 -0.317042 3.293000 46 14 7
1.147115 -0.311277 3.293000 53 17 7
1.157914 -0.308389 3.324000 56 15 7
1.157914 -0.302570 3.324000 59 17 5
1.147115 -0.293984 3.293000 58 19 3
1.147115 -0.288220 3.293000 57 18 3
1.147115 -0.282455 3.293000 59 19 3
1.147115 -0.276691 3.293000 62 21 4
1.136316 -0.268376 3.262000 62 21 5
1.136316 -0.262666 3.262000 62 20 6
1.125517 -0.254514 3.231000 61 18 7
1.136316 -0.251246 3.262000 60 19 8
1.136316 -0.245536 3.262000 60 19 10
1.125517 -0.237546 3.231000 60 20 12
1.125517 -0.231890 3.231000 62 22 15
1.136316 -0.228405 3.262000 64 21 11
1.136316 -0.222695 3.262000 66 24 8
1.136316 -0.216985 3.262000 69 25 9
1.136316 -0.211275 3.262000 75 26 10
1.136316 -0.205565 3.262000 81 22 9
1.136316 -0.199855 3.262000 74 20 8
1.136316 -0.194144 3.262000 68 26 7
1.136316 -0.188434 3.262000 71 39 7
1.136316 -0.182724 3.262000 75 34 5
1.136316 -0.177014 3.262000 78 42 3
1.136316 -0.171304 3.262000 82 36 8
1.136316 -0.165594 3.262000 76 49 13
1.136316 -0.159884 3.262000 71 36 11
1.136316 -0.154173 3.262000 77 48 9
1.136316 -0.148463 3.262000 84 35 9
1.136316 -0.142753 3.262000 85 47 9
1.136316 -0.137043 3.262000 86 36 8
1.136316 -0.131333 3.262000 85 47 7
1.136316 -0.125623 3.262000 85 36 8
1.136316 -0.119913 3.262000 81 39 9
1.136316 -0.114203 3.262000 78 37 12
1.136316 -0.108492 3.262000 79 59 16
1.136316 -0.102782 3.262000 80 39 16
1.136316 -0.097072 3.262000 82 43 17
1.136316 -0.091362 3.262000 85 36 24
1.136316 -0.085652 3.262000 82 39 31
1.125517 -0.079182 3.231000 79 41 24
1.125517 -0.073526 3.231000 77 54 18
1.125517 -0.067870 3.231000 76 42 13
1.125517 -0.062214 3.231000 77 47 9
1.125517 -0.056559 3.231000 78 41 9
1.125517 -0.050903 3.231000 77 39 9
1.125517 -0.045247 3.231000 76 36 9
1.125517 -0.039591 3.231000 78 38 10
1.125517 -0.033935 3.231000 80 38 11
1.125517 -0.028279 3.231000 79 42 12
1.125517 -0.022623 3.231000 79 38 15
1.125517 -0.016968 3.231000 78 37 18
1.125517 -0.011312 3.231000 78 39 16
1.125517 -0.005656 3.231000 79 42 14
1.125517 -0.000000 3.231000 80 41 21
1.125517 0.005656 3.231000 81 43 27
1.125517 0.011312 3.231000 82 40 21
1.125517 0.016968 3.231000 81 39 16
1.125517 0.022624 3.231000 81 37 18
1.125517 0.028279 3.231000 81 37 21
1.125517 0.033935 3.231000 82 39 16
1.125517 0.039591 3.231000 82 46 11
1.125517 0.045247 3.231000 83 44 20
1.125517 0.050903 3.231000 82 43 29
1.125517 0.056559 3.231000 82 44 23
1.125517 0.062215 3.231000 82 42 17
1.125517 0.067870 3.231000 83 44 16
1.125517 0.073526 3.231000 87 41 15
1.125517 0.079182 3.231000 91 44 15
1.125517 0.084838 3.231000 87 47 16
1.125517 0.090494 3.231000 84 47 14
1.125517 0.096150 3.231000 84 46 13
1.125517 0.101806 3.231000 84 47 15
1.125517 0.107462 3.231000 83 49 17
1.125517 0.113117 3.231000 82 46 26
1.125517 0.118773 3.231000 81 44 35
1.125517 0.124429 3.231000 80 46 25
1.125517 0.130085 3.231000 81 46 15
1.125517 0.135741 3.231000 82 44 14
1.125517 0.141397 3.231000 83 42 13
1.125517 0.147053 3.231000 84 43 14
1.125517 0.152708 3.231000 83 44 15
1.115067 0.156894 3.201000 82 46 13
1.115067 0.162497 3.201000 85 49 11
1.115067 0.168101 3.201000 89 46 15
1.115067 0.173704 3.201000 85 45 18
1.115067 0.179307 3.201000 82 46 16
1.115067 0.184911 3.201000 81 45 14
1.115067 0.190514 3.201000 80 44 24
1.125517 0.197955 3.231000 81 44 35
1.125517 0.203611 3.231000 82 45 31
1.125517 0.209267 3.231000 82 47 26
1.125517 0.214923 3.231000 82 47 24
1.125517 0.220579 3.231000 83 48 22
1.125517 0.226235 3.231000 84 46 28
1.125517 0.231891 3.231000 84 45 34
1.125517 0.237546 3.231000 84 44 30
1.125517 0.243202 3.231000 83 45 27
1.115067 0.246548 3.201000 83 45 23
1.115067 0.252151 3.201000 82 48 20
1.115067 0.257754 3.201000 82 47 20
1.115067 0.263358 3.201000 85 44 20
1.115067 0.268961 3.201000 88 43 19
1.115067 0.274564 3.201000 85 41 18
1.115067 0.280168 3.201000 83 45 18
1.115067 0.285771 3.201000 82 46 18
1.115067 0.291374 3.201000 82 43 21
1.115067 0.296978 3.201000 81 42 25
1.115067 0.302581 3.201000 81 41 33
1.115067 0.308184 3.201000 80 41 41
1.115067 0.313788 3.201000 80 42 30
1.115067 0.319391 3.201000 80 44 20
1.115067 0.324994 3.201000 80 43 23
1.115067 0.330598 3.201000 77 42 26
1.115067 0.336201 3.201000 75 42 23
1.115067 0.341804 3.201000 78 44 21
1.115067 0.347408 3.201000 81 45 17
1.115067 0.353011 3.201000 81 44 14
1.115067 0.358615 3.201000 82 41 13
1.115067 0.364218 3.201000 81 39 13
1.115067 0.369821 3.201000 80 40 16
1.115067 0.375425 3.201000 79 41 19
1.115067 0.381028 3.201000 79 40 19
1.115067 0.386631 3.201000 75 38 18
1.115067 0.392235 3.201000 71 39 23
1.115067 0.397838 3.201000 76 41 29
1.115067 0.403441 3.201000 82 41 25
1.115067 0.409045 3.201000 83 42 22
1.115067 0.414648 3.201000 85 42 18
1.115067 0.420251 3.201000 83 46 14
1.115067 0.425855 3.201000 82 44 11
1.115067 0.431458 3.201000 82 43 8
1.115067 0.437061 3.201000 82 41 12
1.115067 0.442665 3.201000 82 41 17
1.115067 0.448268 3.201000 82 36 18
1.125517 0.458125 3.231000 81 37 19
1.115067 0.459475 3.201000 80 38 22
1.115067 0.465078 3.201000 81 40 24
1.125517 0.475093 3.231000 82 41 21
1.115067 0.476285 3.201000 81 42 18
1.115067 0.481888 3.201000 81 40 19
1.115067 0.487492 3.201000 80 40 21
1.115067 0.493095 3.201000 79 40 25
1.115067 0.498698 3.201000 79 40 30
1.115067 0.504302 3.201000 80 39 26
1.115067 0.509905 3.201000 79 38 23
1.115067 0.515508 3.201000 78 41 22
1.115067 0.521112 3.201000 74 44 21
1.115067 0.526715 3.201000 71 42 19
1.115067 0.532318 3.201000 74 42 18
1.115067 0.537922 3.201000 78 41 25
1.115067 0.543525 3.201000 79 41 32
1.115067 0.549129 3.201000 81 39 24
1.125517 0.559931 3.231000 85 37 15
1.125517 0.565587 3.231000 89 36 16
1.115067 0.565938 3.201000 86 37 18
1.115067 0.571542 3.201000 83 38 15
1.115067 0.577145 3.201000 83 40 13
1.115067 0.582749 3.201000 83 39 19
1.115067 0.588352 3.201000 82 40 25
1.115067 0.593955 3.201000 81 40 22
1.115067 0.599559 3.201000 80 40 19
1.115067 0.605162 3.201000 80 39 21
1.115067 0.610765 3.201000 80 36 24
1.115067 0.616369 3.201000 81 37 21
1.115067 0.621972 3.201000 79 38 18
1.115067 0.627575 3.201000 78 39 18
1.104965 0.627442 3.172000 78 40 18
1.104965 0.632995 3.172000 78 40 18
1.115067 0.644386 3.201000 80 41 19
1.104965 0.644100 3.172000 82 38 27
1.104965 0.649653 3.172000 79 38 35
1.104965 0.655205 3.172000 76 40 26
1.115067 0.666799 3.201000 77 40 18
1.115067 0.672402 3.201000 78 39 13
1.115067 0.678006 3.201000 77 39 9
1.115067 0.683609 3.201000 77 34 10
1.115067 0.689212 3.201000 77 31 12
1.115067 0.694816 3.201000 78 34 12
1.115067 0.700419 3.201000 81 34 13
1.115067 0.706022 3.201000 84 34 13
1.115067 0.711626 3.201000 80 34 13
1.115067 0.717229 3.201000 77 34 18
1.115067 0.722832 3.201000 73 34 23
1.115067 0.728436 3.201000 69 36 22
1.104965 0.727389 3.172000 72 34 21
1.104965 0.732942 3.172000 76 34 24
1.104965 0.738494 3.172000 77 37 26
1.104965 0.744047 3.172000 79 37 30
1.104965 0.749599 3.172000 76 36 33
1.104965 0.755152 3.172000 74 35 23
1.104965 0.760705 3.172000 75 38 14
1.104965 0.766257 3.172000 77 35 22
1.104965 0.771810 3.172000 76 32 31
1.115067 0.784469 3.201000 76 31 23
1.115067 0.790073 3.201000 73 30 15
1.115067 0.795676 3.201000 70 31 10
1.115067 0.801279 3.201000 38 29 5
1.115067 0.806883 3.201000 6 8 4
1.115067 0.812486 3.201000 7 1 3
1.115067 0.818089 3.201000 8 3 4
1.115067 0.823693 3.201000 5 5 5
1.115067 0.829296 3.201000 2 5 5
1.115067 0.834899 3.201000 7 4 4
1.115067 0.840503 3.201000 13 3 4
1.115067 0.846106 3.201000 11 3 4
1.115067 0.851710 3.201000 9 3 3
1.115067 0.857313 3.201000 8 4 3
0.955523 0.845086 2.743000 63 46 48
0.955523 0.849887 2.743000 65 47 42
0.948207 0.848145 2.722000 68 48 50
0.940892 0.846330 2.701000 73 50 58
0.926261 0.837824 2.659000 78 54 60
0.926261 0.842479 2.659000 79 60 62
0.919294 0.840762 2.639000 80 61 68
0.912327 0.838975 2.619000 82 63 74
0.905360 0.837117 2.599000 84 64 73
0.898742 0.835514 2.580000 87 66 73
0.885504 0.827658 2.542000 90 63 70
0.866345 0.814104 2.487000 90 63 67
0.866345 0.818457 2.487000 91 65 72
0.860075 0.816855 2.469000 91 68 76
0.853805 0.815191 2.451000 91 65 75
0.841961 0.808113 2.417000 91 64 75
0.836039 0.806631 2.400000 91 62 69
0.830465 0.805426 2.384000 87 62 64
0.824543 0.803826 2.367000 84 66 72
0.818970 0.802508 2.351000 84 67 81
0.813396 0.801134 2.335000 85 63 73
0.797372 0.789358 2.289000 86 58 65
0.792147 0.788166 2.274000 87 60 74
0.786922 0.786922 2.259000 87 60 83
0.781696 0.785625 2.244000 88 59 81
0.781696 0.789553 2.244000 87 59 79
0.757312 0.768729 2.174000 86 64 72
0.752435 0.767559 2.160000 84 71 66
0.752435 0.771340 2.160000 82 69 71
0.747906 0.770456 2.147000 85 69 76
0.738501 0.764479 2.120000 89 65 77
0.733972 0.763479 2.107000 88 64 78
0.720735 0.753331 2.069000 87 65 79
0.720735 0.756953 2.069000 85 67 80
0.716555 0.756164 2.057000 84 63 81
0.716555 0.759764 2.057000 86 65 83
0.712375 0.758912 2.045000 89 66 81
0.704014 0.753543 2.021000 88 67 80
0.699834 0.752586 2.009000 88 66 76
0.696002 0.751962 1.998000 91 66 72
0.687990 0.746763 1.975000 94 65 74
0.684159 0.746042 1.964000 89 64 76
0.672663 0.736887 1.931000 85 62 79
0.668831 0.736050 1.920000 83 60 82
0.668831 0.739411 1.920000 81 61 82
0.657684 0.730393 1.888000 84 64 83
0.657684 0.733698 1.888000 88 63 84
1.175286 -1.298691 3.357000 47 38 49
1.163732 -1.280106 3.324000 46 48 52
1.175286 -1.286938 3.357000 43 33 55
1.175286 -1.281061 3.357000 40 42 50
1.175286 -1.275185 3.357000 42 33 46
1.175286 -1.269309 3.357000 44 43 43
1.175286 -1.263432 3.357000 41 27 41
1.186839 -1.269918 3.390000 37 19 44
1.186839 -1.263984 3.390000 42 21 47
1.186839 -1.258049 3.390000 47 27 45
1.175286 -1.239926 3.357000 40 23 43
1.186839 -1.246181 3.390000 34 22 38
1.175286 -1.228174 3.357000 38 20 34
1.175286 -1.222297 3.357000 42 22 39
1.175286 -1.216421 3.357000 36 20 45
1.175286 -1.210544 3.357000 30 21 44
1.175286 -1.204668 3.357000 37 18 44
1.175286 -1.198792 3.357000 45 16 42
1.175286 -1.192915 3.357000 42 16 40
1.175286 -1.187039 3.357000 39 14 39
1.186839 -1.192773 3.390000 36 13 38
1.175286 -1.175286 3.357000 32 12 23
1.175286 -1.169409 3.357000 35 15 8
1.175286 -1.163533 3.357000 39 14 6
1.175286 -1.157657 3.357000 31 13 4
1.175286 -1.151780 3.357000 24 12 6
1.175286 -1.145904 3.357000 22 11 8
1.175286 -1.140027 3.357000 21 7 23
1.175286 -1.134151 3.357000 21 8 39
1.175286 -1.128274 3.357000 21 12 39
1.175286 -1.122398 3.357000 19 12 39
1.175286 -1.116521 3.357000 18 9 37
1.175286 -1.110645 3.357000 15 6 36
1.175286 -1.104769 3.357000 12 4 33
1.175286 -1.098892 3.357000 16 7 31
1.175286 -1.093016 3.357000 20 10 17
1.175286 -1.087139 3.357000 20 7 3
1.175286 -1.081263 3.357000 20 4 15
1.175286 -1.075386 3.357000 18 8 27
1.175286 -1.069510 3.357000 17 9 33
1.175286 -1.063634 3.357000 21 8 39
1.175286 -1.057757 3.357000 26 7 36
1.175286 -1.051881 3.357000 27 8 34
1.175286 -1.046004 3.357000 28 5 28
1.186839 -1.050353 3.390000 29 10 23
1.186839 -1.044418 3.390000 30 12 25
1.198392 -1.048593 3.423000 27 16 28
1.198392 -1.042601 3.423000 25 14 29
1.198392 -1.036609 3.423000 27 13 30
1.198392 -1.030617 3.423000 30 10 26
1.186839 -1.014747 3.390000 24 13 23
1.186839 -1.008813 3.390000 17 12 22
1.186839 -1.002879 3.390000 23 17 22
1.186839 -0.996945 3.390000 30 22 23
1.186839 -0.991011 3.390000 29 19 25
1.186839 -0.985076 3.390000 29 17 29
1.175286 -0.969611 3.357000 22 16 33
1.175286 -0.963734 3.357000 16 13 29
1.175286 -0.957858 3.357000 23 15 26
1.175286 -0.951981 3.357000 31 14 24
1.175286 -0.946105 3.357000 31 15 22
1.175286 -0.940229 3.357000 31 16 21
1.175286 -0.934352 3.357000 25 16 20
1.175286 -0.928476 3.357000 19 18 21
1.175286 -0.922599 3.357000 22 19 23
1.175286 -0.916723 3.357000 25 21 26
1.175286 -0.910846 3.357000 27 16 30
1.175286 -0.904970 3.357000 30 13 25
1.175286 -0.899094 3.357000 29 13 20
1.175286 -0.893217 3.357000 29 11 17
1.175286 -0.887341 3.357000 29 14 15
1.163732 -0.872799 3.324000 29 17 18
1.175286 -0.875588 3.357000 30 15 21
1.175286 -0.869711 3.357000 31 14 21
1.175286 -0.863835 3.357000 27 16 22
1.175286 -0.857959 3.357000 23 17 21
1.175286 -0.852082 3.357000 24 17 20
1.186839 -0.854524 3.390000 25 17 16
1.186839 -0.848590 3.390000 25 19 13
1.186839 -0.842656 3.390000 24 19 16
1.186839 -0.836722 3.390000 28 16 20
1.186839 -0.830787 3.390000 31 14 20
1.186839 -0.824853 3.390000 29 18 21
1.175286 -0.810947 3.357000 27 15 21
1.175286 -0.805071 3.357000 24 17 21
1.163732 -0.791338 3.324000 21 21 17
1.163732 -0.785519 3.324000 26 17 14
1.175286 -0.787441 3.357000 30 15 15
1.175286 -0.781565 3.357000 29 18 17
1.175286 -0.775689 3.357000 27 22 22
1.175286 -0.769812 3.357000 25 18 27
1.175286 -0.763936 3.357000 22 13 23
1.175286 -0.758059 3.357000 24 18 20
1.175286 -0.752183 3.357000 26 21 17
1.175286 -0.746306 3.357000 30 22 14
1.163732 -0.733151 3.324000 34 21 16
1.175286 -0.734554 3.357000 34 20 19
1.163732 -0.721514 3.324000 35 20 21
1.175286 -0.722801 3.357000 31 24 23
1.175286 -0.716924 3.357000 27 24 24
1.163732 -0.704058 3.324000 32 25 26
1.163732 -0.698239 3.324000 37 30 40
1.163732 -0.692421 3.324000 37 23 54
1.175286 -0.693419 3.357000 37 21 43
1.163732 -0.680783 3.324000 40 23 32
1.163732 -0.674965 3.324000 44 22 31
1.163732 -0.669146 3.324000 43 24 30
1.163732 -0.663327 3.324000 42 27 31
1.163732 -0.657509 3.324000 39 28 33
1.163732 -0.651690 3.324000 35 30 46
1.163732 -0.645871 3.324000 37 24 59
1.163732 -0.640053 3.324000 39 21 47
1.163732 -0.634234 3.324000 42 24 35
1.163732 -0.628416 3.324000 46 29 36
1.163732 -0.622597 3.324000 42 22 38
1.163732 -0.616778 3.324000 38 17 37
1.163732 -0.610960 3.324000 33 20 36
1.163732 -0.605141 3.324000 28 29 35
1.163732 -0.599322 3.324000 31 23 35
1.163732 -0.593504 3.324000 35 26 33
1.163732 -0.587685 3.324000 35 22 32
1.163732 -0.581866 3.324000 35 25 29
1.163732 -0.576048 3.324000 33 23 26
1.163732 -0.570229 3.324000 31 26 27
1.163732 -0.564410 3.324000 27 23 29
1.163732 -0.558592 3.324000 24 26 31
1.163732 -0.552773 3.324000 29 19 34
1.163732 -0.546954 3.324000 35 18 29
1.163732 -0.541136 3.324000 29 18 25
1.163732 -0.535317 3.324000 24 21 27
1.163732 -0.529498 3.324000 28 17 29
1.163732 -0.523679 3.324000 32 19 23
1.152879 -0.513031 3.293000 30 15 17
1.142026 -0.502492 3.262000 28 13 21
1.152879 -0.501502 3.293000 32 14 25
1.152879 -0.495738 3.293000 36 17 22
1.152879 -0.489974 3.293000 37 16 19
1.152879 -0.484209 3.293000 38 15 16
1.152879 -0.478445 3.293000 35 14 14
1.163732 -0.477130 3.324000 32 12 10
1.163732 -0.471312 3.324000 36 12 7
1.163732 -0.465493 3.324000 39 12 9
1.163732 -0.459674 3.324000 33 10 12
1.152879 -0.449623 3.293000 27 9 14
1.152879 -0.443859 3.293000 27 8 16
1.152879 -0.438094 3.293000 27 5 18
1.142026 -0.428260 3.262000 31 11 21
1.152879 -0.426565 3.293000 35 9 14
1.152879 -0.420801 3.293000 33 10 7
1.152879 -0.415036 3.293000 30 7 12
1.152879 -0.409272 3.293000 26 11 18
1.152879 -0.403508 3.293000 21 11 19
1.142026 -0.393999 3.262000 22 11 20
1.152879 -0.391979 3.293000 23 5 18
1.152879 -0.386215 3.293000 27 10 17
1.152879 -0.380450 3.293000 31 8 9
1.152879 -0.374686 3.293000 35 11 1
1.152879 -0.368921 3.293000 40 7 2
1.152879 -0.363157 3.293000 35 9 3
1.142026 -0.354028 3.262000 31 7 2
1.142026 -0.348318 3.262000 34 9 1
1.142026 -0.342608 3.262000 37 8 4
1.152879 -0.340099 3.293000 32 10 8
1.152879 -0.334335 3.293000 27 9 7
1.152879 -0.328571 3.293000 28 8 7
1.152879 -0.322806 3.293000 28 7 4
1.163732 -0.320026 3.324000 28 10 1
1.163732 -0.314208 3.324000 28 10 3
1.163732 -0.308389 3.324000 34 10 5
1.163732 -0.302570 3.324000 41 10 4
1.163732 -0.296752 3.324000 40 10 3
1.152879 -0.288220 3.293000 40 8 2
1.152879 -0.282455 3.293000 36 11 1
1.152879 -0.276691 3.293000 33 13 2
1.152879 -0.270927 3.293000 39 13 3
1.142026 -0.262666 3.262000 44 11 2
1.131173 -0.254514 3.231000 45 10 1
1.131173 -0.248858 3.231000 46 9 4
1.131173 -0.243202 3.231000 46 11 8
1.142026 -0.239825 3.262000 47 9 9
1.142026 -0.234115 3.262000 49 11 10
1.142026 -0.228405 3.262000 51 7 7
1.142026 -0.222695 3.262000 53 13 4
1.142026 -0.216985 3.262000 55 13 4
1.142026 -0.211275 3.262000 53 14 5
1.142026 -0.205565 3.262000 51 13 5
1.142026 -0.199855 3.262000 52 11 5
1.142026 -0.194144 3.262000 53 5 5
1.142026 -0.188434 3.262000 56 16 5
1.142026 -0.182724 3.262000 58 15 4
1.142026 -0.177014 3.262000 56 17 3
1.142026 -0.171304 3.262000 53 7 9
1.142026 -0.165594 3.262000 53 15 15
1.131173 -0.158364 3.231000 52 2 12
1.142026 -0.154173 3.262000 53 14 9
1.142026 -0.148463 3.262000 54 3 9
1.142026 -0.142753 3.262000 54 13 10
1.142026 -0.137043 3.262000 54 3 8
1.142026 -0.131333 3.262000 55 18 6
1.131173 -0.124429 3.231000 57 15 6
1.142026 -0.119913 3.262000 60 16 7
1.131173 -0.113117 3.231000 64 3 10
1.131173 -0.107461 3.231000 64 17 13
1.131173 -0.101805 3.231000 64 6 14
1.131173 -0.096150 3.231000 62 20 15
1.131173 -0.090494 3.231000 61 24 13
1.131173 -0.084838 3.231000 62 25 12
1.131173 -0.079182 3.231000 63 27 11
1.131173 -0.073526 3.231000 62 27 10
1.131173 -0.067870 3.231000 62 16 8
1.131173 -0.062214 3.231000 63 26 6
1.131173 -0.056559 3.231000 65 33 5
1.131173 -0.050903 3.231000 66 27 5
1.131173 -0.045247 3.231000 67 24 4
1.131173 -0.039591 3.231000 68 25 3
1.131173 -0.033935 3.231000 69 28 5
1.131173 -0.028279 3.231000 68 29 7
1.131173 -0.022623 3.231000 67 30 8
1.131173 -0.016968 3.231000 68 29 10
1.131173 -0.011312 3.231000 69 38 9
1.131173 -0.005656 3.231000 70 37 8
1.131173 -0.000000 3.231000 71 32 10
1.131173 0.005656 3.231000 72 31 13
1.131173 0.011312 3.231000 73 31 11
1.131173 0.016968 3.231000 73 30 9
1.131173 0.022624 3.231000 74 32 11
1.131173 0.028279 3.231000 74 30 14
1.131173 0.033935 3.231000 74 34 8
1.131173 0.039591 3.231000 77 42 3
1.131173 0.045247 3.231000 81 47 22
1.131173 0.050903 3.231000 80 45 41
1.131173 0.056559 3.231000 79 46 27
1.131173 0.062215 3.231000 81 46 14
1.131173 0.067870 3.231000 82 48 12
1.131173 0.073526 3.231000 82 45 10
1.131173 0.079182 3.231000 81 45 9
1.131173 0.084838 3.231000 82 45 8
1.131173 0.090494 3.231000 83 46 7
1.131173 0.096150 3.231000 81 48 7
1.131173 0.101806 3.231000 79 49 10
1.131173 0.107462 3.231000 81 45 14
1.131173 0.113117 3.231000 83 45 28
1.131173 0.118773 3.231000 80 47 42
1.131173 0.124429 3.231000 78 50 27
1.131173 0.130085 3.231000 78 47 12
1.131173 0.135741 3.231000 79 46 9
1.131173 0.141397 3.231000 78 43 7
1.120670 0.145687 3.201000 78 47 6
1.131173 0.152708 3.231000 79 46 6
1.120670 0.156894 3.201000 80 46 4
1.120670 0.162497 3.201000 81 45 3
1.120670 0.168101 3.201000 83 49 7
1.120670 0.173704 3.201000 82 45 12
1.120670 0.179307 3.201000 80 47 11
1.120670 0.184911 3.201000 80 46 10
1.120670 0.190514 3.201000 80 45 18
1.120670 0.196117 3.201000 83 41 26
1.120670 0.201721 3.201000 87 42 23
1.120670 0.207324 3.201000 84 45 21
1.120670 0.212927 3.201000 80 49 20
1.131173 0.220579 3.231000 81 47 19
1.131173 0.226235 3.231000 82 49 31
1.131173 0.231891 3.231000 83 46 44
1.120670 0.235341 3.201000 85 47 35
1.120670 0.240944 3.201000 84 44 26
1.120670 0.246548 3.201000 82 46 21
1.120670 0.252151 3.201000 81 47 17
1.120670 0.257754 3.201000 81 49 17
1.120670 0.263358 3.201000 83 46 17
1.120670 0.268961 3.201000 85 46 18
1.120670 0.274564 3.201000 83 44 20
1.120670 0.280168 3.201000 81 45 20
1.120670 0.285771 3.201000 83 44 21
1.120670 0.291374 3.201000 85 42 25
1.120670 0.296978 3.201000 83 42 29
1.120670 0.302581 3.201000 81 39 39
1.120670 0.308184 3.201000 81 41 50
1.120670 0.313788 3.201000 81 45 39
1.120670 0.319391 3.201000 80 43 28
1.120670 0.324994 3.201000 80 41 27
1.120670 0.330598 3.201000 78 41 26
1.120670 0.336201 3.201000 77 42 23
1.120670 0.341804 3.201000 79 44 21
1.120670 0.347408 3.201000 81 46 17
1.120670 0.353011 3.201000 81 42 14
1.120670 0.358615 3.201000 81 42 17
1.120670 0.364218 3.201000 80 39 21
1.120670 0.369821 3.201000 80 40 23
1.120670 0.375425 3.201000 80 41 26
1.120670 0.381028 3.201000 80 42 27
1.120670 0.386631 3.201000 78 38 28
1.120670 0.392235 3.201000 75 37 26
1.120670 0.397838 3.201000 78 40 25
1.120670 0.403441 3.201000 82 43 22
1.120670 0.409045 3.201000 83 42 19
1.120670 0.414648 3.201000 84 41 16
1.120670 0.420251 3.201000 82 43 14
1.120670 0.425855 3.201000 80 44 8
1.120670 0.431458 3.201000 81 43 2
1.120670 0.437061 3.201000 81 44 7
1.120670 0.442665 3.201000 81 40 13
1.120670 0.448268 3.201000 80 38 18
1.120670 0.453872 3.201000 80 39 24
1.120670 0.459475 3.201000 80 40 24
1.120670 0.465078 3.201000 82 40 24
1.120670 0.470682 3.201000 84 42 22
1.120670 0.476285 3.201000 82 41 20
1.120670 0.481888 3.201000 81 39 22
1.120670 0.487492 3.201000 80 39 25
1.120670 0.493095 3.201000 80 39 32
1.120670 0.498698 3.201000 81 39 39
1.120670 0.504302 3.201000 83 39 32
1.120670 0.509905 3.201000 81 40 25
1.120670 0.515508 3.201000 78 41 21
1.120670 0.521112 3.201000 76 43 18
1.120670 0.526715 3.201000 75 44 14
1.120670 0.532318 3.201000 76 42 11
1.120670 0.537922 3.201000 78 41 17
1.120670 0.543525 3.201000 79 40 24
1.120670 0.549129 3.201000 80 40 16
1.120670 0.554732 3.201000 82 36 9
1.120670 0.560335 3.201000 84 39 13
1.120670 0.565938 3.201000 82 38 17
1.120670 0.571542 3.201000 81 41 17
1.120670 0.577145 3.201000 81 40 17
1.120670 0.582749 3.201000 81 41 21
1.120670 0.588352 3.201000 78 40 25
1.120670 0.593955 3.201000 76 39 23
1.120670 0.599559 3.201000 77 41 21
1.120670 0.605162 3.201000 79 42 22
1.120670 0.610765 3.201000 79 38 24
1.120670 0.616369 3.201000 80 35 21
1.110517 0.616337 3.172000 80 37 18
1.110517 0.621890 3.172000 80 39 14
1.110517 0.627442 3.172000 78 40 11
1.110517 0.632995 3.172000 77 40 12
1.110517 0.638548 3.172000 79 38 14
1.110517 0.644100 3.172000 80 35 17
1.110517 0.649653 3.172000 78 37 21
1.110517 0.655205 3.172000 76 38 17
1.120670 0.666799 3.201000 77 38 14
1.120670 0.672402 3.201000 78 39 9
1.120670 0.678006 3.201000 76 35 4
1.120670 0.683609 3.201000 75 32 8
1.120670 0.689212 3.201000 76 34 12
1.120670 0.694816 3.201000 77 35 12
1.120670 0.700419 3.201000 78 35 12
1.120670 0.706022 3.201000 80 34 12
1.120670 0.711626 3.201000 78 36 13
1.110517 0.710731 3.172000 76 39 21
1.110517 0.716284 3.172000 74 37 29
1.110517 0.721836 3.172000 71 38 25
1.110517 0.727389 3.172000 73 34 21
1.110517 0.732942 3.172000 76 32 20
1.110517 0.738494 3.172000 75 35 20
1.110517 0.744047 3.172000 75 37 22
1.110517 0.749599 3.172000 73 34 24
1.110517 0.755152 3.172000 72 32 21
1.110517 0.760705 3.172000 76 34 19
1.110517 0.766257 3.172000 81 34 29
1.110517 0.771810 3.172000 78 31 40
1.110517 0.777362 3.172000 76 30 29
1.110517 0.782915 3.172000 73 30 18
1.120670 0.795676 3.201000 71 34 12
1.120670 0.801279 3.201000 38 22 7
1.120670 0.806883 3.201000 5 1 4
1.120670 0.812486 3.201000 6 2 2
1.120670 0.818089 3.201000 7 4 2
1.120670 0.823693 3.201000 6 4 3
1.120670 0.829296 3.201000 6 5 3
1.120670 0.834899 3.201000 8 4 4
1.120670 0.840503 3.201000 11 3 3
1.120670 0.846106 3.201000 10 3 3
1.120670 0.851710 3.201000 9 3 2
1.120670 0.857313 3.201000 8 3 2
0.968027 0.856704 2.765000 61 46 52
0.968027 0.861544 2.765000 61 49 57
0.952972 0.852910 2.722000 67 50 62
0.930916 0.837824 2.659000 73 52 62
0.923914 0.836142 2.639000 76 57 63
0.923914 0.840762 2.639000 78 62 67
0.916912 0.838975 2.619000 81 63 71
0.909910 0.837117 2.599000 83 65 72
0.903258 0.835514 2.580000 87 66 73
0.896256 0.833518 2.560000 92 64 68
0.870699 0.814104 2.487000 90 63 64
0.864397 0.812533 2.469000 89 63 70
0.864397 0.816855 2.469000 89 64 76
0.852143 0.809536 2.434000 89 64 77
0.840240 0.802429 2.400000 89 62 78
0.840240 0.806631 2.400000 89 62 78
0.828687 0.799683 2.367000 85 65 78
0.823085 0.798393 2.351000 82 68 78
0.817484 0.797047 2.335000 85 66 78
0.806630 0.790498 2.304000 89 62 76
0.801379 0.789358 2.289000 88 59 75
0.796127 0.788166 2.274000 87 60 78
0.790876 0.786922 2.259000 87 59 82
0.785625 0.785625 2.244000 87 60 79
0.780723 0.784627 2.230000 86 61 76
0.761117 0.768729 2.174000 86 66 65
0.756216 0.767559 2.160000 84 68 55
0.751665 0.766698 2.147000 83 69 65
0.746763 0.765432 2.133000 85 67 76
0.742212 0.764479 2.120000 87 63 77
0.737661 0.763479 2.107000 87 65 78
0.728908 0.758065 2.082000 88 66 79
0.724357 0.756953 2.069000 88 64 80
0.720156 0.756164 2.057000 88 63 81
0.720156 0.759764 2.057000 88 65 82
0.715955 0.758912 2.045000 88 66 81
0.707552 0.753543 2.021000 88 65 81
0.703351 0.752586 2.009000 88 63 82
0.699500 0.751962 1.998000 89 64 84
0.691448 0.746763 1.975000 90 67 81
0.687596 0.746042 1.964000 87 66 79
0.676043 0.736887 1.931000 85 67 79
0.672192 0.736050 1.920000 84 63 79
0.664840 0.731324 1.899000 83 62 79
0.660989 0.730393 1.888000 85 63 80
0.657488 0.729812 1.878000 87 64 81
1.181162 -1.298691 3.357000 85 55 70
1.169551 -1.280106 3.324000 84 57 64
1.181162 -1.286938 3.357000 78 42 59
1.181162 -1.281061 3.357000 73 51 54
1.181162 -1.275185 3.357000 76 44 50
1.181162 -1.269309 3.357000 80 53 55
1.181162 -1.263432 3.357000 64 42 60
1.181162 -1.257556 3.357000 49 40 59
1.181162 -1.251679 3.357000 54 33 58
1.181162 -1.245803 3.357000 60 41 53
1.181162 -1.239926 3.357000 49 29 49
1.181162 -1.234050 3.357000 38 39 45
1.181162 -1.228174 3.357000 46 29 40
1.181162 -1.222297 3.357000 55 37 47
1.169551 -1.204463 3.324000 50 23 54
1.181162 -1.210544 3.357000 46 33 51
1.181162 -1.204668 3.357000 51 22 48
1.181162 -1.198792 3.357000 57 31 48
1.181162 -1.192915 3.357000 53 21 48
1.181162 -1.187039 3.357000 49 26 43
1.181162 -1.181162 3.357000 42 12 39
1.181162 -1.175286 3.357000 35 26 41
1.181162 -1.169409 3.357000 41 17 42
1.181162 -1.163533 3.357000 47 26 42
1.181162 -1.157657 3.357000 36 10 42
1.181162 -1.151780 3.357000 25 24 43
1.181162 -1.145904 3.357000 18 13 44
1.181162 -1.140027 3.357000 12 20 49
1.169551 -1.123002 3.324000 11 4 55
1.169551 -1.117183 3.324000 10 20 51
1.169551 -1.111364 3.324000 11 14 48
1.169551 -1.105546 3.324000 12 21 46
1.169551 -1.099727 3.324000 9 3 44
1.169551 -1.093908 3.324000 6 18 41
1.181162 -1.098892 3.357000 9 3 39
1.169551 -1.082271 3.324000 12 18 33
1.169551 -1.076452 3.324000 13 3 28
1.169551 -1.070634 3.324000 14 16 33
1.181162 -1.075386 3.357000 15 4 38
1.181162 -1.069510 3.357000 17 18 40
1.169551 -1.053178 3.324000 22 7 43
1.169551 -1.047359 3.324000 28 12 42
1.169551 -1.041540 3.324000 31 9 42
1.181162 -1.046004 3.357000 35 17 38
1.181162 -1.040128 3.357000 35 9 35
1.181162 -1.034252 3.357000 35 18 39
1.192773 -1.038484 3.390000 34 21 43
1.192773 -1.032550 3.390000 34 19 41
1.192773 -1.026616 3.390000 34 14 40
1.204384 -1.030617 3.423000 35 15 38
1.192773 -1.014747 3.390000 22 18 36
1.192773 -1.008813 3.390000 9 17 30
1.192773 -1.002879 3.390000 21 19 24
1.192773 -0.996945 3.390000 33 19 29
1.192773 -0.991011 3.390000 32 17 35
1.192773 -0.985076 3.390000 31 16 29
1.181162 -0.969611 3.357000 20 19 23
1.181162 -0.963734 3.357000 9 15 28
1.181162 -0.957858 3.357000 22 18 34
1.181162 -0.951981 3.357000 35 16 34
1.169551 -0.936805 3.324000 33 17 34
1.169551 -0.930986 3.324000 32 15 26
1.169551 -0.925167 3.324000 23 17 19
1.169551 -0.919349 3.324000 14 15 19
1.181162 -0.922599 3.357000 21 21 19
1.181162 -0.916723 3.357000 28 15 18
1.181162 -0.910846 3.357000 31 15 17
1.181162 -0.904970 3.357000 34 12 16
1.181162 -0.899094 3.357000 32 16 15
1.181162 -0.893217 3.357000 30 11 13
1.181162 -0.887341 3.357000 31 17 12
1.169551 -0.872799 3.324000 33 14 21
1.181162 -0.875588 3.357000 31 15 30
1.181162 -0.869711 3.357000 30 14 30
1.181162 -0.863835 3.357000 27 20 30
1.169551 -0.849525 3.324000 24 15 24
1.181162 -0.852082 3.357000 25 17 19
1.181162 -0.846206 3.357000 26 15 20
1.181162 -0.840329 3.357000 27 19 21
1.181162 -0.834453 3.357000 28 15 26
1.181162 -0.828576 3.357000 32 14 31
1.181162 -0.822700 3.357000 37 14 30
1.181162 -0.816824 3.357000 35 22 30
1.181162 -0.810947 3.357000 34 16 29
1.169551 -0.797157 3.324000 31 15 28
1.169551 -0.791338 3.324000 28 16 27
1.169551 -0.785519 3.324000 32 14 27
1.169551 -0.779701 3.324000 37 14 26
1.169551 -0.773882 3.324000 32 17 26
1.169551 -0.768063 3.324000 27 20 28
1.181162 -0.769812 3.357000 28 21 29
1.169551 -0.756426 3.324000 29 16 27
1.181162 -0.758059 3.357000 28 17 25
1.181162 -0.752183 3.357000 28 20 24
1.181162 -0.746306 3.357000 33 25 23
1.181162 -0.740430 3.357000 39 21 25
1.181162 -0.734554 3.357000 39 22 26
1.181162 -0.728677 3.357000 39 23 29
1.181162 -0.722801 3.357000 36 29 31
1.181162 -0.716924 3.357000 34 27 32
1.169551 -0.704058 3.324000 38 30 33
1.169551 -0.698239 3.324000 42 28 39
1.169551 -0.692421 3.324000 41 24 44
1.169551 -0.686602 3.324000 41 25 33
1.169551 -0.680783 3.324000 44 29 22
1.169551 -0.674965 3.324000 47 29 28
1.169551 -0.669146 3.324000 46 29 35
1.169551 -0.663327 3.324000 46 31 36
1.169551 -0.657509 3.324000 46 37 38
1.169551 -0.651690 3.324000 47 32 45
1.169551 -0.645871 3.324000 47 29 52
1.169551 -0.640053 3.324000 47 26 45
1.169551 -0.634234 3.324000 50 27 39
1.169551 -0.628416 3.324000 54 29 41
1.169551 -0.622597 3.324000 48 30 43
1.169551 -0.616778 3.324000 42 24 40
1.169551 -0.610960 3.324000 41 21 37
1.169551 -0.605141 3.324000 40 27 37
1.169551 -0.599322 3.324000 39 28 37
1.169551 -0.593504 3.324000 38 27 36
1.169551 -0.587685 3.324000 37 28 35
1.169551 -0.581866 3.324000 37 27 28
1.169551 -0.576048 3.324000 35 28 20
1.169551 -0.570229 3.324000 33 28 26
1.169551 -0.564410 3.324000 34 30 31
1.169551 -0.558592 3.324000 36 26 34
1.169551 -0.552773 3.324000 36 26 37
1.169551 -0.546954 3.324000 37 25 34
1.169551 -0.541136 3.324000 33 26 31
1.169551 -0.535317 3.324000 30 23 32
1.169551 -0.529498 3.324000 30 20 34
1.169551 -0.523679 3.324000 30 19 29
1.158644 -0.513031 3.293000 32 21 25
1.158644 -0.507267 3.293000 34 18 27
1.158644 -0.501502 3.293000 33 18 28
1.158644 -0.495738 3.293000 32 21 25
1.158644 -0.489974 3.293000 32 25 23
1.158644 -0.484209 3.293000 33 22 20
1.158644 -0.478445 3.293000 27 22 18
1.158644 -0.472681 3.293000 21 19 17
1.158644 -0.466916 3.293000 25 20 16
1.147736 -0.456810 3.262000 30 18 18
1.147736 -0.451100 3.262000 27 15 20
1.147736 -0.445390 3.262000 24 16 22
1.158644 -0.443859 3.293000 17 14 24
1.147736 -0.433970 3.262000 10 13 30
1.147736 -0.428260 3.262000 18 18 36
1.147736 -0.422550 3.262000 26 16 29
1.158644 -0.420801 3.293000 23 16 21
1.147736 -0.411129 3.262000 21 16 28
1.147736 -0.405419 3.262000 20 17 35
1.147736 -0.399709 3.262000 20 16 32
1.147736 -0.393999 3.262000 12 14 29
1.158644 -0.391979 3.293000 5 13 25
1.158644 -0.386215 3.293000 11 13 22
1.158644 -0.380450 3.293000 17 14 17
1.158644 -0.374686 3.293000 22 14 13
1.158644 -0.368921 3.293000 27 12 13
1.158644 -0.363157 3.293000 18 10 13
1.147736 -0.354028 3.262000 9 11 12
1.147736 -0.348318 3.262000 15 9 11
1.147736 -0.342608 3.262000 21 11 12
1.158644 -0.340099 3.293000 12 9 14
1.158644 -0.334335 3.293000 4 12 14
1.158644 -0.328571 3.293000 10 10 14
1.169551 -0.325845 3.324000 17 10 12
1.169551 -0.320026 3.324000 10 9 10
1.169551 -0.314208 3.324000 4 10 10
1.169551 -0.308389 3.324000 13 6 11
1.169551 -0.302570 3.324000 23 9 9
1.169551 -0.296752 3.324000 23 5 7
1.158644 -0.288220 3.293000 23 8 8
1.158644 -0.282455 3.293000 14 4 10
1.158644 -0.276691 3.293000 5 9 10
1.158644 -0.270927 3.293000 16 9 10
1.147736 -0.262666 3.262000 27 9 8
1.136829 -0.254514 3.231000 30 5 6
1.136829 -0.248858 3.231000 33 7 10
1.136829 -0.243202 3.231000 33 7 14
1.136829 -0.237546 3.231000 34 7 11
1.136829 -0.231890 3.231000 36 6 8
1.147736 -0.228405 3.262000 39 6 5
1.147736 -0.222695 3.262000 40 9 2
1.147736 -0.216985 3.262000 41 9 3
1.147736 -0.211275 3.262000 31 7 4
1.147736 -0.205565 3.262000 21 9 3
1.147736 -0.199855 3.262000 30 9 3
1.147736 -0.194144 3.262000 39 6 3
1.147736 -0.188434 3.262000 40 6 4
1.147736 -0.182724 3.262000 42 7 3
1.147736 -0.177014 3.262000 33 5 2
1.147736 -0.171304 3.262000 25 5 6
1.136829 -0.164020 3.231000 29 4 10
1.136829 -0.158364 3.231000 34 3 8
1.136829 -0.152708 3.231000 29 3 6
1.147736 -0.148463 3.262000 25 2 6
1.147736 -0.142753 3.262000 23 2 5
1.147736 -0.137043 3.262000 22 4 6
1.147736 -0.131333 3.262000 25 8 7
1.136829 -0.124429 3.231000 29 8 7
1.147736 -0.119913 3.262000 40 7 7
1.136829 -0.113117 3.231000 51 4 7
1.136829 -0.107461 3.231000 50 3 7
1.136829 -0.101805 3.231000 49 5 8
1.136829 -0.096150 3.231000 43 9 9
1.136829 -0.090494 3.231000 37 12 8
1.136829 -0.084838 3.231000 42 10 6
1.136829 -0.079182 3.231000 47 14 6
1.136829 -0.073526 3.231000 48 14 6
1.136829 -0.067870 3.231000 49 12 4
1.136829 -0.062214 3.231000 50 11 3
1.136829 -0.056559 3.231000 52 16 3
1.136829 -0.050903 3.231000 55 14 4
1.126274 -0.044827 3.201000 58 14 3
1.136829 -0.039591 3.231000 58 12 3
1.136829 -0.033935 3.231000 58 16 5
1.136829 -0.028279 3.231000 57 18 7
1.136829 -0.022623 3.231000 56 17 6
1.136829 -0.016968 3.231000 58 14 5
1.136829 -0.011312 3.231000 60 23 6
1.136829 -0.005656 3.231000 61 38 7
1.126274 -0.000000 3.201000 63 23 8
1.126274 0.005603 3.201000 63 19 9
1.126274 0.011207 3.201000 64 19 7
1.126274 0.016810 3.201000 66 21 6
1.136829 0.022624 3.231000 68 20 8
1.136829 0.028279 3.231000 67 18 10
1.126274 0.033620 3.201000 66 24 8
1.136829 0.039591 3.231000 73 43 5
1.136829 0.045247 3.231000 80 34 16
1.136829 0.050903 3.231000 78 46 27
1.136829 0.056559 3.231000 77 35 19
1.136829 0.062215 3.231000 79 50 11
1.136829 0.067870 3.231000 82 37 10
1.126274 0.072844 3.201000 77 49 10
1.126274 0.078447 3.201000 72 35 8
1.126274 0.084050 3.201000 77 42 6
1.126274 0.089654 3.201000 83 38 6
1.126274 0.095257 3.201000 78 53 5
1.126274 0.100860 3.201000 74 36 9
1.126274 0.106464 3.201000 79 40 13
1.126274 0.112067 3.201000 85 36 19
1.126274 0.117671 3.201000 80 50 26
1.126274 0.123274 3.201000 76 38 19
1.126274 0.128877 3.201000 76 48 13
1.136829 0.135741 3.231000 77 40 9
1.126274 0.140084 3.201000 74 39 5
1.126274 0.145687 3.201000 72 37 6
1.126274 0.151291 3.201000 75 50 7
1.126274 0.156894 3.201000 78 40 5
1.126274 0.162497 3.201000 78 37 3
1.126274 0.168101 3.201000 78 36 6
1.126274 0.173704 3.201000 78 39 9
1.126274 0.179307 3.201000 79 40 8
1.126274 0.184911 3.201000 79 50 7
1.126274 0.190514 3.201000 80 42 11
1.126274 0.196117 3.201000 86 35 15
1.126274 0.201721 3.201000 93 36 14
1.136829 0.209267 3.231000 86 44 14
1.126274 0.212927 3.201000 79 42 13
1.136829 0.220579 3.231000 79 43 12
1.136829 0.226235 3.231000 80 43 19
1.126274 0.229737 3.201000 83 43 27
1.126274 0.235341 3.201000 87 42 22
1.126274 0.240944 3.201000 84 39 17
1.126274 0.246548 3.201000 82 43 13
1.126274 0.252151 3.201000 81 47 10
1.126274 0.257754 3.201000 80 47 11
1.126274 0.263358 3.201000 81 47 13
1.126274 0.268961 3.201000 82 45 18
1.126274 0.274564 3.201000 81 45 23
1.126274 0.280168 3.201000 80 45 18
1.126274 0.285771 3.201000 84 45 13
1.126274 0.291374 3.201000 88 44 15
1.126274 0.296978 3.201000 85 45 18
1.126274 0.302581 3.201000 82 42 23
1.126274 0.308184 3.201000 82 40 28
1.126274 0.313788 3.201000 82 44 23
1.126274 0.319391 3.201000 81 45 17
1.126274 0.324994 3.201000 81 44 17
1.126274 0.330598 3.201000 80 41 18
1.126274 0.336201 3.201000 79 44 15
1.126274 0.341804 3.201000 80 46 13
1.126274 0.347408 3.201000 82 44 12
1.126274 0.353011 3.201000 81 38 11
1.126274 0.358615 3.201000 81 39 14
1.126274 0.364218 3.201000 80 38 18
1.126274 0.369821 3.201000 80 39 25
1.126274 0.375425 3.201000 81 43 33
1.126274 0.381028 3.201000 82 41 29
1.126274 0.386631 3.201000 81 38 26
1.126274 0.392235 3.201000 80 39 23
1.126274 0.397838 3.201000 81 41 21
1.126274 0.403441 3.201000 82 42 17
1.126274 0.409045 3.201000 82 43 13
1.126274 0.414648 3.201000 83 41 12
1.126274 0.420251 3.201000 81 41 12
1.126274 0.425855 3.201000 79 42 9
1.126274 0.431458 3.201000 80 44 7
1.126274 0.437061 3.201000 81 42 10
1.126274 0.442665 3.201000 80 38 13
1.126274 0.448268 3.201000 79 39 16
1.126274 0.453872 3.201000 79 42 20
1.126274 0.459475 3.201000 80 40 21
1.126274 0.465078 3.201000 83 38 22
1.126274 0.470682 3.201000 86 39 24
1.126274 0.476285 3.201000 83 42 26
1.126274 0.481888 3.201000 81 41 25
1.126274 0.487492 3.201000 81 41 25
1.126274 0.493095 3.201000 81 39 29
1.126274 0.498698 3.201000 84 39 34
1.126274 0.504302 3.201000 87 39 29
1.126274 0.509905 3.201000 83 42 25
1.126274 0.515508 3.201000 79 42 23
1.126274 0.521112 3.201000 79 43 22
1.126274 0.526715 3.201000 79 43 20
1.126274 0.532318 3.201000 78 42 18
1.126274 0.537922 3.201000 78 41 19
1.126274 0.543525 3.201000 79 40 20
1.126274 0.549129 3.201000 80 37 17
1.126274 0.554732 3.201000 79 30 14
1.126274 0.560335 3.201000 79 35 16
1.126274 0.565938 3.201000 79 38 19
1.126274 0.571542 3.201000 80 39 18
1.126274 0.577145 3.201000 79 40 17
1.126274 0.582749 3.201000 79 41 19
1.126274 0.588352 3.201000 75 42 21
1.126274 0.593955 3.201000 71 42 20
1.126274 0.599559 3.201000 75 43 19
1.126274 0.605162 3.201000 79 42 19
1.126274 0.610765 3.201000 79 42 20
1.116070 0.610785 3.172000 79 37 20
1.116070 0.616337 3.172000 80 37 19
1.116070 0.621890 3.172000 82 39 16
1.116070 0.627442 3.172000 79 43 13
1.116070 0.632995 3.172000 77 40 11
1.116070 0.638548 3.172000 78 39 10
1.105866 0.638211 3.143000 79 38 14
1.116070 0.649653 3.172000 78 39 17
1.116070 0.655205 3.172000 77 38 21
1.126274 0.666799 3.201000 77 36 26
1.126274 0.672402 3.201000 78 37 20
1.126274 0.678006 3.201000 75 31 15
1.126274 0.683609 3.201000 73 33 13
1.126274 0.689212 3.201000 74 39 12
1.126274 0.694816 3.201000 76 37 14
1.126274 0.700419 3.201000 76 37 15
1.116070 0.699626 3.172000 77 36 13
1.116070 0.705179 3.172000 76 37 11
1.116070 0.710731 3.172000 76 36 13
1.116070 0.716284 3.172000 75 38 15
1.116070 0.721836 3.172000 74 37 17
1.116070 0.727389 3.172000 75 34 19
1.116070 0.732942 3.172000 76 33 21
1.116070 0.738494 3.172000 74 34 23
1.116070 0.744047 3.172000 72 34 22
1.116070 0.749599 3.172000 71 31 22
1.116070 0.755152 3.172000 70 32 21
1.116070 0.760705 3.172000 78 34 20
1.116070 0.766257 3.172000 86 32 25
1.116070 0.771810 3.172000 81 30 30
1.116070 0.777362 3.172000 76 30 24
1.116070 0.782915 3.172000 74 28 18
1.116070 0.788467 3.172000 72 31 13
1.116070 0.794020 3.172000 38 27 8
1.126274 0.806883 3.201000 4 10 4
1.126274 0.812486 3.201000 5 2 1
1.126274 0.818089 3.201000 7 3 1
1.126274 0.823693 3.201000 8 4 2
1.126274 0.829296 3.201000 10 4 2
1.126274 0.834899 3.201000 9 5 3
1.126274 0.840503 3.201000 9 4 5
1.126274 0.846106 3.201000 9 4 7
1.126274 0.851710 3.201000 10 3 5
1.131551 0.861330 3.216000 9 3 3
0.965126 0.854689 2.743000 54 48 59
0.957737 0.852910 2.722000 61 51 58
0.942959 0.844441 2.680000 69 51 56
0.935570 0.842479 2.659000 73 54 55
0.928534 0.840762 2.639000 77 59 63
0.921497 0.838975 2.619000 80 62 71
0.914459 0.837117 2.599000 83 64 72
0.907774 0.835514 2.580000 88 71 73
0.894404 0.827658 2.542000 94 65 72
0.875052 0.814104 2.487000 91 63 71
0.868719 0.812533 2.469000 88 64 74
0.868719 0.816855 2.469000 88 64 77
0.856404 0.809536 2.434000 88 63 81
0.850423 0.808113 2.417000 88 60 85
0.844441 0.806631 2.400000 88 63 82
0.838812 0.805426 2.384000 84 68 78
0.832830 0.803826 2.367000 80 66 77
0.816293 0.791926 2.320000 86 67 75
0.805386 0.785351 2.289000 93 62 76
0.805386 0.789358 2.289000 90 58 76
0.800108 0.788166 2.274000 87 59 78
0.794830 0.786922 2.259000 87 59 80
0.789553 0.785625 2.244000 87 60 78
0.784627 0.784627 2.230000 86 62 76
0.764923 0.768729 2.174000 86 64 70
0.759997 0.767559 2.160000 85 68 65
0.755423 0.766698 2.147000 85 68 70
0.755423 0.770456 2.147000 85 67 76
0.750497 0.769166 2.133000 86 66 77
0.741349 0.763479 2.107000 87 67 78
0.732553 0.758065 2.082000 89 66 78
0.727979 0.756953 2.069000 91 60 79
0.727979 0.760575 2.069000 93 63 79
0.723757 0.759764 2.057000 90 67 80
0.719534 0.758912 2.045000 88 66 79
0.711090 0.753543 2.021000 88 64 78
0.706868 0.752586 2.009000 88 63 80
0.702997 0.751962 1.998000 87 63 82
0.698775 0.750923 1.986000 87 64 80
0.694905 0.750221 1.975000 86 66 78
0.691034 0.749480 1.964000 85 66 78
0.679423 0.740267 1.931000 85 64 78
0.671683 0.735175 1.909000 86 63 78
0.668164 0.734648 1.899000 86 62 79
0.664294 0.733698 1.888000 86 64 78
1.187039 -1.292814 3.357000 87 84 77
1.187039 -1.286938 3.357000 88 70 63
1.187039 -1.281061 3.357000 89 76 59
1.187039 -1.275185 3.357000 87 70 55
1.187039 -1.269309 3.357000 85 83 67
1.187039 -1.263432 3.357000 80 68 79
1.187039 -1.257556 3.357000 76 67 74
1.187039 -1.251679 3.357000 76 61 69
1.175370 -1.233556 3.324000 76 76 62
1.175370 -1.227738 3.324000 72 65 56
1.187039 -1.234050 3.357000 68 77 51
1.175370 -1.216100 3.324000 69 65 47
1.175370 -1.210282 3.324000 71 77 55
1.175370 -1.204463 3.324000 70 60 63
1.187039 -1.210544 3.357000 70 67 58
1.187039 -1.204668 3.357000 71 57 53
1.187039 -1.198792 3.357000 72 67 54
1.187039 -1.192915 3.357000 68 52 56
1.187039 -1.187039 3.357000 64 60 48
1.187039 -1.181162 3.357000 61 48 41
1.187039 -1.175286 3.357000 58 64 59
1.187039 -1.169409 3.357000 59 51 77
1.175370 -1.152095 3.324000 60 63 79
1.187039 -1.157657 3.357000 55 48 81
1.187039 -1.151780 3.357000 51 62 81
1.187039 -1.145904 3.357000 51 47 81
1.175370 -1.128821 3.324000 51 59 76
1.175370 -1.123002 3.324000 49 41 71
1.175370 -1.117183 3.324000 46 53 64
1.175370 -1.111364 3.324000 46 46 58
1.175370 -1.105546 3.324000 45 61 55
1.175370 -1.099727 3.324000 43 46 52
1.175370 -1.093908 3.324000 41 62 49
1.175370 -1.088090 3.324000 45 44 47
1.175370 -1.082271 3.324000 50 57 50
1.175370 -1.076452 3.324000 48 44 53
1.175370 -1.070634 3.324000 47 54 51
1.175370 -1.064815 3.324000 49 41 49
1.175370 -1.058996 3.324000 50 52 48
1.175370 -1.053178 3.324000 49 32 47
1.175370 -1.047359 3.324000 47 26 48
1.175370 -1.041540 3.324000 45 31 50
1.187039 -1.046004 3.357000 44 45 48
1.187039 -1.040128 3.357000 46 30 47
1.187039 -1.034252 3.357000 49 30 52
1.198708 -1.038484 3.390000 44 30 58
1.198708 -1.032550 3.390000 39 27 54
1.198708 -1.026616 3.390000 40 24 51
1.187039 -1.010746 3.357000 40 21 50
1.198708 -1.014747 3.390000 34 19 50
1.198708 -1.008813 3.390000 27 21 38
1.187039 -0.993116 3.357000 36 21 26
1.187039 -0.987240 3.357000 44 21 35
1.187039 -0.981364 3.357000 43 16 45
1.187039 -0.975487 3.357000 42 12 29
1.187039 -0.969611 3.357000 36 15 14
1.187039 -0.963734 3.357000 31 12 28
1.175370 -0.948442 3.324000 34 14 42
1.175370 -0.942623 3.324000 37 15 44
1.175370 -0.936805 3.324000 34 16 46
1.175370 -0.930986 3.324000 31 13 32
1.175370 -0.925167 3.324000 25 11 19
1.175370 -0.919349 3.324000 19 7 17
1.187039 -0.922599 3.357000 22 9 15
1.187039 -0.916723 3.357000 25 5 10
1.187039 -0.910846 3.357000 27 7 5
1.187039 -0.904970 3.357000 29 7 7
1.187039 -0.899094 3.357000 28 7 10
1.175370 -0.884437 3.324000 27 3 10
1.187039 -0.887341 3.357000 28 7 10
1.175370 -0.872799 3.324000 29 9 24
1.175370 -0.866981 3.324000 27 10 39
1.175370 -0.861162 3.324000 25 10 38
1.175370 -0.855343 3.324000 23 10 38
1.175370 -0.849525 3.324000 20 7 28
1.187039 -0.852082 3.357000 22 10 19
1.187039 -0.846206 3.357000 24 8 24
1.187039 -0.840329 3.357000 26 10 29
1.187039 -0.834453 3.357000 28 10 36
1.187039 -0.828576 3.357000 28 8 43
1.187039 -0.822700 3.357000 29 6 41
1.187039 -0.816824 3.357000 34 11 39
1.175370 -0.802975 3.324000 38 13 37
1.175370 -0.797157 3.324000 36 15 36
1.175370 -0.791338 3.324000 35 16 38
1.175370 -0.785519 3.324000 36 13 40
1.175370 -0.779701 3.324000 38 12 38
1.175370 -0.773882 3.324000 30 19 36
1.175370 -0.768063 3.324000 22 22 34
1.175370 -0.762245 3.324000 28 20 32
1.175370 -0.756426 3.324000 35 15 31
1.175370 -0.750607 3.324000 35 17 31
1.175370 -0.744789 3.324000 35 17 32
1.175370 -0.738970 3.324000 37 20 33
1.175370 -0.733151 3.324000 40 19 33
1.175370 -0.727333 3.324000 41 22 34
1.175370 -0.721514 3.324000 42 24 37
1.187039 -0.722801 3.357000 41 27 40
1.187039 -0.716924 3.357000 40 25 40
1.175370 -0.704058 3.324000 42 29 41
1.175370 -0.698239 3.324000 44 28 38
1.175370 -0.692421 3.324000 45 29 35
1.187039 -0.693419 3.357000 45 26 23
1.175370 -0.680783 3.324000 47 33 12
1.175370 -0.674965 3.324000 50 37 26
1.175370 -0.669146 3.324000 47 35 40
1.175370 -0.663327 3.324000 44 34 42
1.175370 -0.657509 3.324000 46 36 44
1.175370 -0.651690 3.324000 49 34 44
1.175370 -0.645871 3.324000 48 32 45
1.175370 -0.640053 3.324000 48 28 44
1.175370 -0.634234 3.324000 49 30 44
1.175370 -0.628416 3.324000 50 30 46
1.175370 -0.622597 3.324000 46 30 49
1.175370 -0.616778 3.324000 42 28 44
1.175370 -0.610960 3.324000 42 29 39
1.175370 -0.605141 3.324000 41 33 39
1.175370 -0.599322 3.324000 41 30 39
1.175370 -0.593504 3.324000 41 28 39
1.187039 -0.593519 3.357000 39 29 39
1.175370 -0.581866 3.324000 38 27 27
1.175370 -0.576048 3.324000 37 28 15
1.175370 -0.570229 3.324000 37 30 24
1.175370 -0.564410 3.324000 41 28 34
1.175370 -0.558592 3.324000 44 22 37
1.175370 -0.552773 3.324000 42 26 40
1.175370 -0.546954 3.324000 40 30 39
1.175370 -0.541136 3.324000 36 27 38
1.175370 -0.535317 3.324000 33 27 38
1.175370 -0.529498 3.324000 32 22 39
1.164408 -0.518796 3.293000 32 18 36
1.164408 -0.513031 3.293000 34 20 34
1.153447 -0.502492 3.262000 37 21 33
1.153447 -0.496781 3.262000 36 23 32
1.153447 -0.491071 3.262000 35 27 29
1.153447 -0.485361 3.262000 38 26 27
1.153447 -0.479651 3.262000 41 26 25
1.153447 -0.473941 3.262000 34 24 23
1.153447 -0.468231 3.262000 27 25 24
1.153447 -0.462521 3.262000 29 25 25
1.153447 -0.456810 3.262000 32 26 27
1.142485 -0.446813 3.231000 30 23 29
1.153447 -0.445390 3.262000 29 26 30
1.153447 -0.439680 3.262000 24 20 32
1.153447 -0.433970 3.262000 20 16 42
1.153447 -0.428260 3.262000 25 19 52
1.153447 -0.422550 3.262000 30 21 44
1.153447 -0.416840 3.262000 28 23 36
1.153447 -0.411129 3.262000 27 27 44
1.153447 -0.405419 3.262000 25 23 53
1.153447 -0.399709 3.262000 23 24 45
1.153447 -0.393999 3.262000 18 21 38
1.164408 -0.391979 3.293000 14 21 32
1.164408 -0.386215 3.293000 19 20 27
1.164408 -0.380450 3.293000 25 23 26
1.164408 -0.374686 3.293000 26 19 25
1.164408 -0.368921 3.293000 27 17 24
1.164408 -0.363157 3.293000 22 17 23
1.153447 -0.354028 3.262000 18 21 22
1.153447 -0.348318 3.262000 21 18 21
1.153447 -0.342608 3.262000 24 20 21
1.164408 -0.340099 3.293000 19 18 21
1.164408 -0.334335 3.293000 15 23 21
1.164408 -0.328571 3.293000 18 18 21
