ply
format ascii 1.0
element vertex 1314
property float x
property float y
property float z
property uchar red
property uchar green
property uchar blue
end_header
1.205323 -0.610226 2.881000 75 43 14
1.205323 -0.605183 2.881000 76 41 20
1.195282 -0.595140 2.857000 74 39 26
1.205323 -0.595096 2.881000 73 39 31
1.195282 -0.585138 2.857000 74 41 36
1.195282 -0.580137 2.857000 76 40 32
1.205323 -0.579967 2.881000 72 39 28
1.205323 -0.574924 2.881000 69 41 28
1.205323 -0.569880 2.881000 70 45 29
1.205323 -0.564837 2.881000 71 42 30
1.205323 -0.559794 2.881000 66 36 31
1.205323 -0.554751 2.881000 62 39 29
1.205323 -0.549708 2.881000 67 44 28
1.205323 -0.544665 2.881000 73 40 27
1.195282 -0.535126 2.857000 75 36 27
1.195282 -0.530125 2.857000 78 39 25
1.195282 -0.525124 2.857000 78 42 23
1.195282 -0.520123 2.857000 79 42 26
1.195282 -0.515121 2.857000 76 45 29
1.195282 -0.510120 2.857000 74 43 20
1.195282 -0.505119 2.857000 69 39 12
1.195282 -0.500118 2.857000 65 41 21
1.195282 -0.495117 2.857000 71 44 31
1.195282 -0.490115 2.857000 77 43 29
1.195282 -0.485114 2.857000 75 44 28
1.195282 -0.480113 2.857000 73 42 30
1.205323 -0.479103 2.881000 71 42 32
1.195282 -0.470111 2.857000 69 42 26
1.195282 -0.465110 2.857000 73 41 21
1.195282 -0.460108 2.857000 78 40 17
1.195282 -0.455107 2.857000 78 40 14
1.195282 -0.450106 2.857000 78 41 20
1.195282 -0.445105 2.857000 80 46 27
1.195282 -0.440104 2.857000 83 43 27
1.195282 -0.435102 2.857000 80 42 28
1.195282 -0.430101 2.857000 77 42 30
1.195282 -0.425100 2.857000 77 42 33
1.195282 -0.420099 2.857000 77 41 35
1.195282 -0.415098 2.857000 75 39 37
1.205323 -0.413542 2.881000 74 40 34
1.205323 -0.408498 2.881000 70 45 32
1.205323 -0.403455 2.881000 67 42 29
1.195282 -0.395093 2.857000 71 40 26
1.205323 -0.393369 2.881000 76 41 33
1.195282 -0.385091 2.857000 73 43 41
1.195282 -0.380090 2.857000 71 43 36
1.195282 -0.375088 2.857000 73 42 31
1.195282 -0.370087 2.857000 76 39 27
1.195282 -0.365086 2.857000 77 31 23
1.195282 -0.360085 2.857000 79 37 24
1.195282 -0.355084 2.857000 78 44 25
1.195282 -0.350082 2.857000 77 42 25
1.195282 -0.345081 2.857000 78 39 25
1.205323 -0.342937 2.881000 79 38 25
1.205323 -0.337894 2.881000 79 40 26
1.205323 -0.332851 2.881000 80 39 27
1.205323 -0.327807 2.881000 79 41 28
1.195282 -0.320075 2.857000 78 40 24
1.195282 -0.315074 2.857000 77 38 20
1.195282 -0.310073 2.857000 76 38 22
1.195282 -0.305072 2.857000 78 40 25
1.195282 -0.300071 2.857000 80 42 25
1.185659 -0.292694 2.834000 78 45 25
1.185659 -0.287733 2.834000 77 40 28
1.185659 -0.282772 2.834000 76 34 31
1.195282 -0.280066 2.857000 76 36 28
1.195282 -0.275065 2.857000 72 39 26
1.195282 -0.270064 2.857000 68 39 26
1.195282 -0.265062 2.857000 73 42 26
1.195282 -0.260061 2.857000 79 41 22
1.195282 -0.255060 2.857000 79 42 19
1.195282 -0.250059 2.857000 79 41 24
1.195282 -0.245058 2.857000 78 42 29
1.195282 -0.240056 2.857000 77 42 30
1.185659 -0.233163 2.834000 78 43 32
1.185659 -0.228202 2.834000 79 41 26
1.185659 -0.223241 2.834000 78 41 20
1.185659 -0.218280 2.834000 77 41 22
1.185659 -0.213319 2.834000 77 42 25
1.185659 -0.208358 2.834000 78 40 24
1.185659 -0.203398 2.834000 79 43 23
1.185659 -0.198437 2.834000 80 41 22
1.185659 -0.193476 2.834000 79 41 21
1.185659 -0.188515 2.834000 78 43 19
1.185659 -0.183554 2.834000 74 44 18
1.185659 -0.178593 2.834000 71 43 21
1.185659 -0.173632 2.834000 80 42 25
1.185659 -0.168671 2.834000 89 42 25
1.185659 -0.163710 2.834000 84 43 25
1.185659 -0.158749 2.834000 79 42 22
1.185659 -0.153788 2.834000 78 44 20
1.185659 -0.148827 2.834000 78 41 20
1.185659 -0.143867 2.834000 77 40 19
1.185659 -0.138906 2.834000 76 40 22
1.195282 -0.135032 2.857000 77 38 25
1.195282 -0.130031 2.857000 78 39 23
1.195282 -0.125029 2.857000 78 42 22
1.195282 -0.120028 2.857000 79 42 16
1.195282 -0.115027 2.857000 79 42 10
1.205323 -0.110950 2.881000 79 42 14
1.195282 -0.105025 2.857000 73 45 18
1.195282 -0.100024 2.857000 68 44 22
1.195282 -0.095022 2.857000 73 45 26
1.185659 -0.089296 2.834000 78 39 22
1.185659 -0.084336 2.834000 78 37 19
1.185659 -0.079375 2.834000 78 40 22
1.185659 -0.074414 2.834000 73 42 25
1.185659 -0.069453 2.834000 68 42 28
1.185659 -0.064492 2.834000 72 43 31
1.185659 -0.059531 2.834000 77 42 26
1.185659 -0.054570 2.834000 77 43 22
1.185659 -0.049609 2.834000 78 41 16
1.185659 -0.044648 2.834000 80 43 10
1.175618 -0.039351 2.810000 83 39 16
1.175618 -0.034432 2.810000 82 35 23
1.175618 -0.029513 2.810000 81 39 27
1.175618 -0.024594 2.810000 81 41 31
1.175618 -0.019676 2.810000 81 41 21
1.175618 -0.014757 2.810000 80 42 10
1.175618 -0.009838 2.810000 79 41 20
1.175618 -0.004919 2.810000 79 42 31
1.185659 -0.000000 2.834000 80 40 30
1.185659 0.004961 2.834000 79 41 30
1.185659 0.009922 2.834000 79 42 26
1.185659 0.014883 2.834000 80 44 21
1.185659 0.019844 2.834000 81 40 23
1.185659 0.024805 2.834000 81 39 25
1.185659 0.029766 2.834000 81 39 27
1.185659 0.034726 2.834000 80 38 30
1.185659 0.039687 2.834000 80 40 19
1.185659 0.044648 2.834000 79 41 8
1.185659 0.049609 2.834000 79 42 13
1.175618 0.054108 2.810000 79 43 17
1.175618 0.059027 2.810000 79 42 25
1.175618 0.063946 2.810000 79 42 34
1.175618 0.068865 2.810000 79 41 29
1.175618 0.073784 2.810000 79 41 25
1.175618 0.078703 2.810000 79 39 25
1.175618 0.083622 2.810000 73 39 24
1.175618 0.088540 2.810000 67 41 22
1.175618 0.093459 2.810000 72 45 19
1.175618 0.098378 2.810000 77 43 18
1.185659 0.104179 2.834000 77 44 17
1.185659 0.109140 2.834000 77 40 20
1.185659 0.114101 2.834000 79 40 24
1.175618 0.118054 2.810000 81 39 22
1.185659 0.124023 2.834000 80 39 21
1.175618 0.127892 2.810000 80 39 22
1.175618 0.132811 2.810000 80 36 22
1.175618 0.137729 2.810000 80 38 20
1.175618 0.142648 2.810000 79 39 19
1.175618 0.147567 2.810000 78 39 22
1.175618 0.152486 2.810000 76 40 25
1.175618 0.157405 2.810000 75 41 22
1.175618 0.162324 2.810000 76 42 20
1.175618 0.167243 2.810000 78 40 23
1.175618 0.172162 2.810000 76 42 25
1.175618 0.177081 2.810000 74 43 25
1.175618 0.182000 2.810000 76 45 25
1.175618 0.186919 2.810000 78 42 23
1.175618 0.191837 2.810000 78 41 22
1.175618 0.196756 2.810000 79 43 16
1.175618 0.201675 2.810000 78 45 11
1.175618 0.206594 2.810000 77 42 21
1.175618 0.211513 2.810000 78 42 31
1.175618 0.216432 2.810000 79 41 19
1.175618 0.221351 2.810000 81 39 8
1.175618 0.226270 2.810000 83 37 13
1.175618 0.231189 2.810000 81 33 17
1.175618 0.236108 2.810000 79 36 20
1.175618 0.241026 2.810000 76 39 24
1.175618 0.245945 2.810000 73 39 25
1.175618 0.250864 2.810000 74 42 27
1.175618 0.255783 2.810000 76 40 24
1.175618 0.260702 2.810000 77 42 21
1.175618 0.265621 2.810000 78 40 19
1.175618 0.270540 2.810000 77 38 17
1.175618 0.275459 2.810000 77 38 15
1.175618 0.280378 2.810000 77 39 14
1.175618 0.285296 2.810000 77 39 14
1.175618 0.290215 2.810000 72 40 15
1.175618 0.295134 2.810000 67 39 23
1.175618 0.300053 2.810000 70 39 30
1.175618 0.304972 2.810000 74 39 27
1.175618 0.309891 2.810000 75 40 23
1.175618 0.314810 2.810000 76 37 19
1.175618 0.319729 2.810000 73 34 15
1.175618 0.324648 2.810000 70 36 24
1.175618 0.329567 2.810000 68 36 34
1.175618 0.334486 2.810000 66 37 25
1.175618 0.339404 2.810000 70 41 16
1.175618 0.344323 2.810000 74 40 15
1.175618 0.349242 2.810000 73 39 15
1.175618 0.354161 2.810000 73 39 17
1.175618 0.359080 2.810000 71 41 19
1.175618 0.363999 2.810000 69 38 13
1.175618 0.368918 2.810000 70 37 7
1.175618 0.373837 2.810000 72 37 11
1.175618 0.378756 2.810000 68 36 15
1.175618 0.383675 2.810000 65 36 23
1.175618 0.388594 2.810000 70 36 32
1.175618 0.393512 2.810000 76 37 26
1.175618 0.398431 2.810000 76 38 20
1.175618 0.403350 2.810000 77 38 18
1.175618 0.408269 2.810000 75 37 16
1.175618 0.413188 2.810000 73 38 16
1.175618 0.418107 2.810000 72 38 17
1.175618 0.423026 2.810000 72 38 13
1.175618 0.427945 2.810000 73 43 9
1.166414 0.429475 2.788000 75 41 17
1.166414 0.434355 2.788000 74 39 25
1.166414 0.439236 2.788000 74 40 21
1.166414 0.444116 2.788000 73 42 16
1.166414 0.448996 2.788000 73 41 20
1.166414 0.453877 2.788000 74 42 25
1.166414 0.458757 2.788000 76 42 19
1.166414 0.463638 2.788000 73 42 14
1.175618 0.472215 2.810000 71 39 10
1.175618 0.477134 2.810000 70 38 6
1.175618 0.482053 2.810000 69 38 11
1.175618 0.486972 2.810000 73 35 15
1.175618 0.491891 2.810000 77 38 20
1.175618 0.496809 2.810000 72 39 24
1.175618 0.501728 2.810000 67 38 18
1.175618 0.506647 2.810000 70 39 12
1.175618 0.511566 2.810000 73 38 14
1.175618 0.516485 2.810000 72 33 16
1.175618 0.521404 2.810000 72 34 20
1.175618 0.526323 2.810000 73 35 24
1.175618 0.531242 2.810000 74 34 21
1.175618 0.536161 2.810000 75 35 17
1.166414 0.536843 2.788000 76 37 10
1.166414 0.541724 2.788000 74 36 4
1.166414 0.546604 2.788000 72 38 14
1.166414 0.551485 2.788000 76 39 24
1.175618 0.560755 2.810000 81 37 17
1.166414 0.561245 2.788000 78 34 10
1.166414 0.566126 2.788000 76 34 19
1.166414 0.571006 2.788000 74 36 27
1.166414 0.575887 2.788000 73 36 17
1.166414 0.580767 2.788000 73 35 8
1.166414 0.585647 2.788000 73 34 12
1.166414 0.590528 2.788000 73 31 16
1.166414 0.595408 2.788000 74 35 11
1.166414 0.600289 2.788000 70 38 6
1.166414 0.605169 2.788000 67 38 18
1.166414 0.610049 2.788000 68 34 31
1.166414 0.614930 2.788000 69 33 18
1.166414 0.619810 2.788000 69 32 6
1.166414 0.624691 2.788000 69 33 9
1.166414 0.629571 2.788000 69 34 13
1.166414 0.634451 2.788000 69 31 15
1.166414 0.639332 2.788000 65 26 17
1.166414 0.644212 2.788000 62 28 14
1.166414 0.649093 2.788000 68 34 12
1.166414 0.653973 2.788000 74 31 16
1.166414 0.658853 2.788000 69 33 19
1.166414 0.663734 2.788000 65 33 17
1.166414 0.668614 2.788000 66 35 16
1.166414 0.673494 2.788000 67 31 13
1.166414 0.678375 2.788000 63 30 11
1.166414 0.683255 2.788000 60 30 12
1.166414 0.688136 2.788000 63 30 14
1.166414 0.693016 2.788000 66 28 10
1.166414 0.697896 2.788000 62 31 7
1.166414 0.702777 2.788000 59 31 14
1.166414 0.707657 2.788000 60 29 21
1.166414 0.712538 2.788000 62 29 17
1.166414 0.717418 2.788000 62 33 13
1.156792 0.716340 2.765000 63 30 9
1.156792 0.721180 2.765000 59 27 6
1.156792 0.726020 2.765000 56 25 16
1.156792 0.730860 2.765000 49 16 27
1.156792 0.735700 2.765000 42 14 19
1.166414 0.746700 2.788000 24 7 12
1.166414 0.751581 2.788000 7 5 7
1.166414 0.756461 2.788000 6 5 2
1.166414 0.761342 2.788000 5 5 3
1.166414 0.766222 2.788000 4 4 4
1.166414 0.771102 2.788000 4 4 3
1.166414 0.775983 2.788000 4 5 3
1.166414 0.780863 2.788000 5 4 3
1.166414 0.785744 2.788000 4 4 3
1.166414 0.790624 2.788000 4 4 3
1.166414 0.795504 2.788000 4 4 3
1.166414 0.800385 2.788000 4 4 3
1.166414 0.805265 2.788000 4 4 4
1.166414 0.810146 2.788000 4 4 3
1.166414 0.815026 2.788000 6 5 2
1.156792 0.813142 2.765000 8 4 3
1.156792 0.817983 2.765000 13 5 4
1.166414 0.834548 2.788000 10 8 16
1.147588 0.825879 2.743000 3 5 13
0.983587 0.794277 2.351000 66 46 58
0.970617 0.787865 2.320000 71 48 56
0.963923 0.786465 2.304000 71 52 55
0.957648 0.785351 2.289000 72 50 57
0.957648 0.789358 2.289000 74 48 59
0.951372 0.788166 2.274000 76 49 56
0.951372 0.792147 2.274000 73 54 54
0.945097 0.790876 2.259000 71 52 59
0.926689 0.779349 2.215000 73 50 64
0.920831 0.778276 2.201000 76 53 66
0.920831 0.782129 2.201000 77 58 68
0.920831 0.785982 2.201000 79 59 72
0.898239 0.770456 2.147000 81 61 76
0.886943 0.764479 2.120000 83 58 77
0.881505 0.763479 2.107000 82 59 78
0.876484 0.762798 2.095000 81 61 77
0.871045 0.761709 2.082000 82 65 76
0.865607 0.760575 2.069000 83 62 79
0.860586 0.759764 2.057000 82 60 81
0.860586 0.763365 2.057000 81 60 80
0.826280 0.736392 1.975000 83 62 78
0.816657 0.734650 1.952000 83 56 74
0.816657 0.738067 1.952000 80 59 77
0.812055 0.737306 1.941000 80 60 80
0.812055 0.740703 1.941000 80 61 78
0.807872 0.740267 1.931000 81 62 77
0.803269 0.739411 1.920000 82 61 78
0.794484 0.734648 1.899000 81 60 79
0.794484 0.737972 1.899000 80 59 77
0.785698 0.733099 1.878000 78 59 75
1.200283 -1.120264 2.857000 67 31 7
1.200283 -1.115263 2.857000 68 30 2
1.200283 -1.110262 2.857000 69 32 23
1.200283 -1.105261 2.857000 68 30 44
1.200283 -1.100259 2.857000 67 26 23
1.200283 -1.095258 2.857000 68 27 3
1.200283 -1.090257 2.857000 69 29 3
1.190620 -1.076519 2.834000 69 31 4
1.190620 -1.071558 2.834000 68 33 5
1.190620 -1.066597 2.834000 64 33 7
1.190620 -1.061636 2.834000 61 34 10
1.200283 -1.065251 2.857000 66 34 13
1.190620 -1.051715 2.834000 71 36 25
1.190620 -1.046754 2.834000 73 32 38
1.190620 -1.041793 2.834000 75 29 28
1.190620 -1.036832 2.834000 73 27 18
1.190620 -1.031871 2.834000 72 22 15
1.180537 -1.018214 2.810000 73 28 12
1.180537 -1.013295 2.810000 74 34 13
1.180537 -1.008376 2.810000 69 33 14
1.180537 -1.003457 2.810000 64 32 14
1.180537 -0.998538 2.810000 70 30 14
1.180537 -0.993619 2.810000 76 30 12
1.180537 -0.988700 2.810000 74 32 10
1.190620 -0.992183 2.834000 72 34 15
1.190620 -0.987223 2.834000 73 31 21
1.190620 -0.982262 2.834000 74 31 30
1.190620 -0.977301 2.834000 76 30 39
1.190620 -0.972340 2.834000 78 28 27
1.190620 -0.967379 2.834000 73 31 16
1.200283 -0.970229 2.857000 69 34 15
1.210366 -0.973336 2.881000 66 37 15
1.200283 -0.960226 2.857000 62 39 16
1.210366 -0.963249 2.881000 68 33 18
1.210366 -0.958206 2.881000 73 31 17
1.210366 -0.953163 2.881000 72 33 16
1.210366 -0.948120 2.881000 72 34 16
1.210366 -0.943077 2.881000 70 34 16
1.200283 -0.930219 2.857000 68 35 15
1.200283 -0.925218 2.857000 71 33 15
1.200283 -0.920217 2.857000 74 29 17
1.200283 -0.915216 2.857000 72 32 19
1.200283 -0.910215 2.857000 71 31 22
1.200283 -0.905213 2.857000 70 35 25
1.190620 -0.892965 2.834000 69 40 27
1.180537 -0.880484 2.810000 72 34 29
1.190620 -0.883043 2.834000 75 30 32
1.190620 -0.878082 2.834000 77 31 35
1.200283 -0.880208 2.857000 80 32 26
1.190620 -0.868160 2.834000 77 34 18
1.190620 -0.863200 2.834000 74 37 12
1.190620 -0.858239 2.834000 74 34 7
1.190620 -0.853278 2.834000 74 32 16
1.190620 -0.848317 2.834000 71 37 26
1.200283 -0.850200 2.857000 68 39 25
1.200283 -0.845199 2.857000 72 35 25
1.200283 -0.840198 2.857000 77 34 32
1.200283 -0.835197 2.857000 77 37 39
1.200283 -0.830196 2.857000 77 38 34
1.200283 -0.825195 2.857000 79 39 29
1.200283 -0.820193 2.857000 81 44 29
1.200283 -0.815192 2.857000 77 40 30
1.200283 -0.810191 2.857000 72 38 36
1.190620 -0.798708 2.834000 76 40 43
1.190620 -0.793747 2.834000 80 42 35
1.190620 -0.788786 2.834000 78 39 27
1.200283 -0.790186 2.857000 75 39 27
1.210366 -0.791781 2.881000 76 39 28
1.210366 -0.786738 2.881000 76 41 33
1.210366 -0.781695 2.881000 76 36 39
1.210366 -0.776651 2.881000 77 36 33
1.210366 -0.771608 2.881000 76 37 27
1.210366 -0.766565 2.881000 76 38 29
1.200283 -0.755178 2.857000 75 41 31
1.200283 -0.750177 2.857000 74 42 28
1.190620 -0.739177 2.834000 76 39 25
1.200283 -0.740175 2.857000 77 40 28
1.200283 -0.735173 2.857000 77 42 31
1.200283 -0.730172 2.857000 76 43 31
1.200283 -0.725171 2.857000 77 41 31
1.210366 -0.726219 2.881000 78 41 38
1.210366 -0.721176 2.881000 78 42 45
1.210366 -0.716133 2.881000 79 42 33
1.210366 -0.711090 2.881000 79 39 21
1.210366 -0.706047 2.881000 79 37 23
1.210366 -0.701004 2.881000 80 40 25
1.210366 -0.695960 2.881000 82 41 23
1.210366 -0.690917 2.881000 77 41 21
1.200283 -0.680160 2.857000 73 42 26
1.200283 -0.675159 2.857000 76 42 31
1.200283 -0.670158 2.857000 79 42 28
1.210366 -0.670744 2.881000 81 40 26
1.210366 -0.665701 2.881000 83 41 34
1.200283 -0.655154 2.857000 80 39 42
1.210366 -0.655615 2.881000 78 39 35
1.210366 -0.650572 2.881000 77 38 28
1.210366 -0.645528 2.881000 75 40 25
1.210366 -0.640485 2.881000 76 41 22
1.210366 -0.635442 2.881000 77 42 25
1.210366 -0.630399 2.881000 76 41 29
1.210366 -0.625356 2.881000 76 40 31
1.210366 -0.620312 2.881000 73 39 34
1.200283 -0.610144 2.857000 71 40 21
1.200283 -0.605143 2.857000 74 43 8
1.200283 -0.600141 2.857000 77 45 16
1.200283 -0.595140 2.857000 77 40 25
1.210366 -0.595096 2.881000 78 37 33
1.210366 -0.590053 2.881000 77 39 41
1.210366 -0.585010 2.881000 77 40 35
1.210366 -0.579967 2.881000 74 41 29
1.210366 -0.574924 2.881000 71 44 31
1.210366 -0.569880 2.881000 71 45 34
1.210366 -0.564837 2.881000 72 46 37
1.210366 -0.559794 2.881000 70 42 41
1.210366 -0.554751 2.881000 68 46 36
1.210366 -0.549708 2.881000 71 43 32
1.200283 -0.540127 2.857000 75 42 29
1.200283 -0.535126 2.857000 76 38 27
1.200283 -0.530125 2.857000 78 40 24
1.200283 -0.525124 2.857000 78 40 22
1.200283 -0.520123 2.857000 79 42 26
1.200283 -0.515121 2.857000 78 42 30
1.200283 -0.510120 2.857000 76 43 26
1.200283 -0.505119 2.857000 74 40 22
1.200283 -0.500118 2.857000 72 39 30
1.200283 -0.495117 2.857000 76 41 38
1.200283 -0.490115 2.857000 81 42 34
1.200283 -0.485114 2.857000 77 42 31
1.200283 -0.480113 2.857000 74 39 34
1.200283 -0.475112 2.857000 74 41 37
1.200283 -0.470111 2.857000 73 45 29
1.200283 -0.465110 2.857000 75 41 21
1.200283 -0.460108 2.857000 78 40 14
1.190620 -0.451443 2.834000 78 40 7
1.190620 -0.446483 2.834000 78 40 17
1.190620 -0.441522 2.834000 79 42 27
1.190620 -0.436561 2.834000 80 42 29
1.190620 -0.431600 2.834000 77 43 32
1.190620 -0.426639 2.834000 74 44 37
1.200283 -0.425100 2.857000 76 42 42
1.200283 -0.420099 2.857000 78 42 41
1.200283 -0.415098 2.857000 76 39 40
1.210366 -0.413542 2.881000 74 39 37
1.210366 -0.408498 2.881000 73 41 34
1.200283 -0.400094 2.857000 72 41 31
1.200283 -0.395093 2.857000 74 41 28
1.200283 -0.390092 2.857000 76 41 31
1.200283 -0.385091 2.857000 75 42 35
1.200283 -0.380090 2.857000 74 44 32
1.200283 -0.375088 2.857000 75 42 30
1.200283 -0.370087 2.857000 77 41 25
1.200283 -0.365086 2.857000 77 38 21
1.200283 -0.360085 2.857000 77 37 23
1.200283 -0.355084 2.857000 75 42 26
1.200283 -0.350082 2.857000 74 43 27
1.200283 -0.345081 2.857000 76 40 28
1.200283 -0.340080 2.857000 78 39 29
1.200283 -0.335079 2.857000 79 40 30
1.200283 -0.330078 2.857000 80 40 28
1.200283 -0.325077 2.857000 77 41 26
1.200283 -0.320075 2.857000 74 41 23
1.200283 -0.315074 2.857000 75 40 21
1.200283 -0.310073 2.857000 76 42 23
1.190620 -0.302616 2.834000 78 42 26
1.190620 -0.297655 2.834000 80 44 28
1.190620 -0.292694 2.834000 79 44 30
1.190620 -0.287733 2.834000 78 43 32
1.190620 -0.282772 2.834000 79 38 35
1.190620 -0.277811 2.834000 79 36 31
1.190620 -0.272850 2.834000 76 36 27
1.190620 -0.267889 2.834000 72 37 28
1.200283 -0.265062 2.857000 75 40 29
1.200283 -0.260061 2.857000 78 42 27
1.200283 -0.255060 2.857000 79 41 25
1.200283 -0.250059 2.857000 80 41 26
1.200283 -0.245058 2.857000 76 43 27
1.200283 -0.240056 2.857000 72 45 30
1.200283 -0.235055 2.857000 75 43 33
1.200283 -0.230054 2.857000 78 41 29
1.190620 -0.223241 2.834000 77 42 26
1.190620 -0.218280 2.834000 77 43 27
1.190620 -0.213319 2.834000 76 41 29
1.190620 -0.208358 2.834000 75 39 25
1.190620 -0.203398 2.834000 79 40 21
1.190620 -0.198437 2.834000 82 39 23
1.190620 -0.193476 2.834000 80 41 25
1.190620 -0.188515 2.834000 78 43 22
1.190620 -0.183554 2.834000 76 44 20
1.190620 -0.178593 2.834000 74 45 23
1.190620 -0.173632 2.834000 78 43 26
1.190620 -0.168671 2.834000 83 44 25
1.190620 -0.163710 2.834000 79 41 25
1.180537 -0.157405 2.810000 76 39 24
1.180537 -0.152486 2.810000 77 41 24
1.180537 -0.147567 2.810000 78 41 23
1.190620 -0.143867 2.834000 77 40 22
1.190620 -0.138906 2.834000 77 40 24
1.190620 -0.133945 2.834000 77 37 26
1.190620 -0.128984 2.834000 78 39 23
1.200283 -0.125029 2.857000 78 40 20
1.200283 -0.120028 2.857000 78 41 11
1.190620 -0.114101 2.834000 79 40 3
1.200283 -0.110026 2.857000 81 39 11
1.190620 -0.104179 2.834000 76 42 19
1.190620 -0.099218 2.834000 72 44 25
1.190620 -0.094257 2.834000 77 40 31
1.190620 -0.089296 2.834000 83 36 26
1.180537 -0.083621 2.810000 80 37 22
1.190620 -0.079375 2.834000 78 40 26
1.180537 -0.073784 2.810000 75 41 30
1.180537 -0.068865 2.810000 73 44 31
1.180537 -0.063946 2.810000 74 42 33
1.180537 -0.059027 2.810000 76 42 26
1.180537 -0.054108 2.810000 76 41 20
1.180537 -0.049189 2.810000 76 39 11
1.180537 -0.044270 2.810000 78 41 3
1.180537 -0.039351 2.810000 80 41 12
1.180537 -0.034432 2.810000 80 38 22
1.180537 -0.029513 2.810000 79 41 22
1.180537 -0.024594 2.810000 79 41 22
1.180537 -0.019676 2.810000 78 42 13
1.180537 -0.014757 2.810000 78 42 4
1.180537 -0.009838 2.810000 79 42 22
1.180537 -0.004919 2.810000 79 41 41
1.180537 -0.000000 2.810000 79 42 36
1.180537 0.004919 2.810000 79 41 32
1.180537 0.009838 2.810000 80 42 29
1.180537 0.014757 2.810000 82 41 26
1.180537 0.019676 2.810000 84 38 25
1.180537 0.024595 2.810000 83 38 25
1.180537 0.029514 2.810000 82 40 23
1.180537 0.034432 2.810000 81 38 22
1.180537 0.039351 2.810000 80 41 18
1.180537 0.044270 2.810000 79 40 14
1.180537 0.049189 2.810000 78 42 15
1.180537 0.054108 2.810000 78 42 17
1.180537 0.059027 2.810000 79 42 21
1.180537 0.063946 2.810000 79 40 26
1.180537 0.068865 2.810000 80 39 25
1.180537 0.073784 2.810000 80 38 24
1.180537 0.078703 2.810000 81 33 24
1.180537 0.083622 2.810000 76 35 25
1.180537 0.088540 2.810000 72 39 21
1.180537 0.093459 2.810000 74 43 18
1.180537 0.098378 2.810000 77 45 20
1.180537 0.103297 2.810000 77 42 22
1.180537 0.108216 2.810000 77 39 23
1.180537 0.113135 2.810000 78 40 24
1.180537 0.118054 2.810000 80 39 24
1.180537 0.122973 2.810000 78 40 24
1.180537 0.127892 2.810000 77 42 29
1.180537 0.132811 2.810000 78 40 34
1.180537 0.137729 2.810000 79 42 29
1.180537 0.142648 2.810000 78 40 25
1.180537 0.147567 2.810000 78 41 23
1.180537 0.152486 2.810000 77 40 21
1.180537 0.157405 2.810000 77 42 22
1.180537 0.162324 2.810000 77 40 24
1.180537 0.167243 2.810000 78 38 27
1.180537 0.172162 2.810000 77 40 30
1.180537 0.177081 2.810000 75 45 28
1.180537 0.182000 2.810000 77 44 26
1.180537 0.186919 2.810000 78 42 28
1.171295 0.190335 2.788000 78 42 31
1.171295 0.195216 2.788000 77 44 17
1.171295 0.200096 2.788000 77 41 4
1.171295 0.204977 2.788000 77 38 12
1.180537 0.211513 2.810000 77 39 21
1.180537 0.216432 2.810000 78 39 18
1.180537 0.221351 2.810000 79 40 15
1.180537 0.226270 2.810000 80 41 14
1.180537 0.231189 2.810000 79 37 14
1.180537 0.236108 2.810000 78 36 17
1.180537 0.241026 2.810000 76 37 21
1.180537 0.245945 2.810000 75 34 30
1.180537 0.250864 2.810000 77 37 40
1.180537 0.255783 2.810000 79 37 32
1.180537 0.260702 2.810000 78 38 24
1.180537 0.265621 2.810000 77 39 22
1.180537 0.270540 2.810000 77 39 21
1.180537 0.275459 2.810000 77 39 17
1.180537 0.280378 2.810000 76 39 14
1.180537 0.285296 2.810000 76 39 16
1.180537 0.290215 2.810000 73 38 18
1.180537 0.295134 2.810000 70 36 29
1.180537 0.300053 2.810000 72 38 40
1.180537 0.304972 2.810000 74 38 33
1.180537 0.309891 2.810000 76 38 27
1.180537 0.314810 2.810000 78 38 19
1.180537 0.319729 2.810000 75 37 12
1.180537 0.324648 2.810000 72 39 15
1.180537 0.329567 2.810000 71 37 19
1.180537 0.334486 2.810000 70 34 15
1.180537 0.339404 2.810000 72 37 12
1.180537 0.344323 2.810000 75 39 15
1.180537 0.349242 2.810000 74 39 19
1.180537 0.354161 2.810000 74 39 20
1.180537 0.359080 2.810000 73 41 21
1.180537 0.363999 2.810000 72 41 17
1.180537 0.368918 2.810000 72 39 13
1.180537 0.373837 2.810000 72 39 15
1.180537 0.378756 2.810000 71 38 18
1.180537 0.383675 2.810000 69 41 30
1.180537 0.388594 2.810000 73 38 42
1.180537 0.393512 2.810000 76 37 31
1.180537 0.398431 2.810000 76 38 21
1.180537 0.403350 2.810000 77 39 20
1.180537 0.408269 2.810000 75 38 20
1.171295 0.409953 2.788000 73 39 18
1.171295 0.414834 2.788000 73 37 17
1.171295 0.419714 2.788000 74 36 13
1.171295 0.424594 2.788000 76 40 9
1.171295 0.429475 2.788000 78 41 20
1.171295 0.434355 2.788000 74 40 31
1.171295 0.439236 2.788000 70 41 19
1.171295 0.444116 2.788000 72 40 7
1.171295 0.448996 2.788000 74 42 14
1.171295 0.453877 2.788000 75 41 22
1.171295 0.458757 2.788000 76 41 18
1.171295 0.463638 2.788000 75 39 14
1.171295 0.468518 2.788000 74 37 13
1.180537 0.477134 2.810000 73 37 12
1.171295 0.478279 2.788000 72 38 14
1.171295 0.483159 2.788000 74 37 17
1.171295 0.488039 2.788000 75 40 19
1.171295 0.492920 2.788000 72 40 22
1.171295 0.497800 2.788000 69 42 17
1.171295 0.502681 2.788000 71 40 12
1.171295 0.507561 2.788000 73 40 16
1.171295 0.512442 2.788000 73 35 21
1.180537 0.521404 2.810000 73 31 26
1.180537 0.526323 2.810000 71 33 31
1.180537 0.531242 2.810000 70 34 24
1.180537 0.536161 2.810000 72 37 17
1.171295 0.536843 2.788000 74 39 9
1.171295 0.541724 2.788000 73 38 1
1.171295 0.546604 2.788000 71 39 15
1.171295 0.551485 2.788000 75 38 29
1.171295 0.556365 2.788000 79 39 16
1.171295 0.561245 2.788000 76 35 4
1.171295 0.566126 2.788000 74 36 19
1.171295 0.571006 2.788000 73 36 34
1.171295 0.575887 2.788000 72 39 18
1.171295 0.580767 2.788000 72 38 2
1.171295 0.585647 2.788000 73 40 6
1.171295 0.590528 2.788000 73 36 11
1.171295 0.595408 2.788000 73 36 6
1.171295 0.600289 2.788000 71 39 2
1.171295 0.605169 2.788000 69 41 22
1.171295 0.610049 2.788000 69 35 43
1.171295 0.614930 2.788000 69 30 26
1.171295 0.619810 2.788000 69 32 10
1.171295 0.624691 2.788000 68 33 11
1.161632 0.624377 2.765000 70 34 12
1.161632 0.629217 2.765000 71 34 15
1.161632 0.634058 2.765000 69 30 18
1.161632 0.638898 2.765000 67 29 18
1.171295 0.649093 2.788000 70 29 18
1.161632 0.648578 2.765000 73 26 26
1.171295 0.658853 2.788000 67 30 34
1.171295 0.663734 2.788000 62 34 26
1.171295 0.668614 2.788000 67 31 19
1.171295 0.673494 2.788000 73 27 15
1.171295 0.678375 2.788000 68 28 11
1.171295 0.683255 2.788000 64 27 12
1.171295 0.688136 2.788000 65 28 14
1.171295 0.693016 2.788000 67 27 12
1.171295 0.697896 2.788000 64 29 10
1.171295 0.702777 2.788000 60 30 15
1.171295 0.707657 2.788000 59 29 20
1.171295 0.712538 2.788000 59 27 18
1.171295 0.717418 2.788000 63 30 16
1.161632 0.716340 2.765000 68 30 12
1.161632 0.721180 2.765000 63 27 9
1.161632 0.726020 2.765000 58 27 24
1.161632 0.730860 2.765000 51 21 39
1.161632 0.735700 2.765000 44 21 24
1.161632 0.740540 2.765000 26 11 9
1.171295 0.751581 2.788000 8 4 6
1.171295 0.756461 2.788000 6 5 3
1.171295 0.761342 2.788000 5 7 3
1.171295 0.766222 2.788000 4 5 4
1.161632 0.764741 2.765000 4 4 4
1.161632 0.769581 2.765000 4 4 4
1.161632 0.774421 2.765000 5 5 4
1.171295 0.785744 2.788000 3 4 5
1.161632 0.784102 2.765000 2 5 4
1.171295 0.795504 2.788000 3 4 4
1.171295 0.800385 2.788000 4 5 4
1.171295 0.805265 2.788000 4 4 4
1.171295 0.810146 2.788000 4 5 3
1.161632 0.808302 2.765000 5 4 2
1.161632 0.813142 2.765000 7 4 4
1.161632 0.817983 2.765000 10 5 6
0.994424 0.799683 2.367000 67 45 60
0.987702 0.798393 2.351000 70 46 62
0.974679 0.791926 2.320000 69 49 64
0.967957 0.790498 2.304000 69 49 61
0.955353 0.784186 2.274000 75 49 59
0.955353 0.788166 2.274000 81 48 60
0.949051 0.786922 2.259000 77 51 62
0.942749 0.785625 2.244000 74 54 63
0.936868 0.784627 2.230000 75 51 65
0.930566 0.783226 2.215000 77 54 66
0.924684 0.782129 2.201000 78 58 67
0.924684 0.785982 2.201000 79 61 73
0.907459 0.775122 2.160000 82 58 79
0.896116 0.769166 2.133000 85 56 81
0.885193 0.763479 2.107000 83 59 84
0.880151 0.762798 2.095000 82 61 80
0.869228 0.756953 2.069000 82 62 77
0.869228 0.760575 2.069000 83 63 77
0.869228 0.764197 2.069000 82 61 78
0.864187 0.763365 2.057000 81 61 78
0.841921 0.747205 2.004000 82 62 79
0.815453 0.730510 1.941000 82 60 76
0.815453 0.733908 1.941000 81 62 78
0.815453 0.737306 1.941000 81 61 80
0.811252 0.736887 1.931000 81 62 79
0.806630 0.736050 1.920000 82 62 78
0.802009 0.735175 1.909000 83 62 78
0.802009 0.738517 1.909000 83 60 78
0.797808 0.737972 1.899000 84 62 77
0.788985 0.733099 1.878000 81 62 76
1.205284 -1.120264 2.857000 67 30 10
1.205284 -1.115263 2.857000 68 24 7
1.205284 -1.110262 2.857000 69 28 19
1.205284 -1.105261 2.857000 67 31 31
1.205284 -1.100259 2.857000 65 29 18
1.205284 -1.095258 2.857000 67 28 5
1.195581 -1.081480 2.834000 69 31 5
1.195581 -1.076519 2.834000 70 34 6
1.195581 -1.071558 2.834000 72 31 8
1.195581 -1.066597 2.834000 70 34 10
1.195581 -1.061636 2.834000 69 36 11
1.195581 -1.056675 2.834000 70 37 12
1.195581 -1.051715 2.834000 72 36 18
1.195581 -1.046754 2.834000 70 36 24
1.195581 -1.041793 2.834000 68 34 20
1.185456 -1.028051 2.810000 70 33 16
1.185456 -1.023132 2.810000 72 28 11
1.185456 -1.018214 2.810000 75 29 7
1.185456 -1.013295 2.810000 78 33 10
1.185456 -1.008376 2.810000 73 34 12
1.185456 -1.003457 2.810000 68 32 14
1.185456 -0.998538 2.810000 70 28 15
1.185456 -0.993619 2.810000 72 30 13
1.185456 -0.988700 2.810000 71 36 12
1.185456 -0.983781 2.810000 71 33 16
1.195581 -0.987223 2.834000 71 30 21
1.195581 -0.982262 2.834000 71 32 26
1.195581 -0.977301 2.834000 72 33 31
1.195581 -0.972340 2.834000 73 30 23
1.195581 -0.967379 2.834000 70 30 14
1.205284 -0.970229 2.857000 68 31 17
1.205284 -0.965228 2.857000 67 35 20
1.205284 -0.960226 2.857000 67 35 18
1.205284 -0.955225 2.857000 72 30 16
1.205284 -0.950224 2.857000 78 31 16
1.205284 -0.945223 2.857000 75 33 16
1.205284 -0.940222 2.857000 73 32 16
1.205284 -0.935220 2.857000 71 30 17
1.205284 -0.930219 2.857000 69 33 16
1.205284 -0.925218 2.857000 72 39 16
1.205284 -0.920217 2.857000 76 34 18
1.205284 -0.915216 2.857000 72 34 21
1.205284 -0.910215 2.857000 69 36 21
1.205284 -0.905213 2.857000 67 40 21
1.205284 -0.900212 2.857000 65 36 19
1.195581 -0.888004 2.834000 69 34 18
1.195581 -0.883043 2.834000 74 32 24
1.195581 -0.878082 2.834000 75 31 29
1.195581 -0.873122 2.834000 76 33 25
1.195581 -0.868160 2.834000 74 36 21
1.195581 -0.863200 2.834000 73 37 20
1.195581 -0.858239 2.834000 73 38 19
1.195581 -0.853278 2.834000 74 35 22
1.195581 -0.848317 2.834000 73 39 25
1.195581 -0.843356 2.834000 73 36 25
1.195581 -0.838395 2.834000 75 35 25
1.195581 -0.833434 2.834000 78 36 25
1.195581 -0.828473 2.834000 77 37 25
1.195581 -0.823512 2.834000 77 37 25
1.195581 -0.818551 2.834000 77 40 26
1.195581 -0.813590 2.834000 77 42 26
1.195581 -0.808630 2.834000 76 42 26
1.195581 -0.803669 2.834000 75 39 27
1.185456 -0.791944 2.810000 79 38 29
1.185456 -0.787025 2.810000 83 38 28
1.195581 -0.788786 2.834000 80 40 26
1.205284 -0.790186 2.857000 77 39 27
1.205284 -0.785185 2.857000 76 40 28
1.205284 -0.780184 2.857000 76 37 30
1.205284 -0.775183 2.857000 76 35 33
1.215409 -0.776651 2.881000 77 36 26
1.215409 -0.771608 2.881000 77 36 19
1.205284 -0.760179 2.857000 77 38 28
1.205284 -0.755178 2.857000 77 44 38
1.205284 -0.750177 2.857000 77 40 30
1.195581 -0.739177 2.834000 77 39 22
1.195581 -0.734216 2.834000 77 39 26
1.195581 -0.729255 2.834000 76 40 30
1.205284 -0.730172 2.857000 76 41 26
1.205284 -0.725171 2.857000 77 40 22
1.205284 -0.720170 2.857000 79 40 30
1.205284 -0.715169 2.857000 79 45 38
1.215409 -0.716133 2.881000 79 41 30
1.215409 -0.711090 2.881000 79 39 23
1.205284 -0.700165 2.857000 79 39 25
1.205284 -0.695164 2.857000 79 42 28
1.205284 -0.690163 2.857000 79 40 26
1.205284 -0.685162 2.857000 75 40 25
1.205284 -0.680160 2.857000 71 41 25
1.205284 -0.675159 2.857000 75 43 26
1.205284 -0.670158 2.857000 79 42 20
1.205284 -0.665157 2.857000 79 42 14
1.205284 -0.660156 2.857000 80 40 25
1.205284 -0.655154 2.857000 80 39 37
1.205284 -0.650153 2.857000 80 38 30
1.205284 -0.645152 2.857000 82 37 24
1.205284 -0.640151 2.857000 84 40 22
1.205284 -0.635150 2.857000 81 45 21
1.205284 -0.630149 2.857000 78 44 30
1.205284 -0.625147 2.857000 77 44 39
1.205284 -0.620146 2.857000 76 40 37
1.205284 -0.615145 2.857000 72 41 34
1.205284 -0.610144 2.857000 69 41 26
1.205284 -0.605143 2.857000 73 44 19
1.205284 -0.600141 2.857000 78 43 22
1.205284 -0.595140 2.857000 80 42 25
1.215409 -0.595096 2.881000 83 39 30
1.205284 -0.585138 2.857000 81 39 35
1.205284 -0.580137 2.857000 79 40 31
1.205284 -0.575136 2.857000 76 42 26
1.215409 -0.574924 2.881000 73 43 29
1.215409 -0.569880 2.881000 73 45 32
1.215409 -0.564837 2.881000 74 43 34
1.205284 -0.555131 2.857000 74 42 36
1.205284 -0.550130 2.857000 74 42 35
1.205284 -0.545128 2.857000 75 43 33
1.205284 -0.540127 2.857000 77 39 32
1.205284 -0.535126 2.857000 77 36 31
1.205284 -0.530125 2.857000 78 38 32
1.205284 -0.525124 2.857000 79 39 34
1.205284 -0.520123 2.857000 80 39 32
1.205284 -0.515121 2.857000 79 39 30
1.205284 -0.510120 2.857000 79 41 27
1.205284 -0.505119 2.857000 79 42 24
1.205284 -0.500118 2.857000 79 41 29
1.205284 -0.495117 2.857000 82 41 34
1.205284 -0.490115 2.857000 85 41 31
1.205284 -0.485114 2.857000 80 43 28
1.205284 -0.480113 2.857000 76 40 30
1.205284 -0.475112 2.857000 77 41 32
1.205284 -0.470111 2.857000 78 41 26
1.205284 -0.465110 2.857000 78 40 21
1.195581 -0.456404 2.834000 78 39 19
1.195581 -0.451443 2.834000 78 40 18
1.185456 -0.442701 2.810000 78 40 27
1.185456 -0.437783 2.810000 77 41 36
1.195581 -0.436561 2.834000 77 41 31
1.195581 -0.431600 2.834000 74 44 26
1.195581 -0.426639 2.834000 71 43 31
1.205284 -0.425100 2.857000 75 43 37
1.205284 -0.420099 2.857000 79 41 36
1.205284 -0.415098 2.857000 77 39 35
1.205284 -0.410097 2.857000 75 40 33
1.205284 -0.405095 2.857000 76 42 32
1.205284 -0.400094 2.857000 77 41 26
1.205284 -0.395093 2.857000 76 42 21
1.205284 -0.390092 2.857000 76 41 26
1.205284 -0.385091 2.857000 76 43 31
1.205284 -0.380090 2.857000 77 43 34
1.205284 -0.375088 2.857000 78 43 37
1.195581 -0.367108 2.834000 79 42 30
1.205284 -0.365086 2.857000 77 44 23
1.195581 -0.357186 2.834000 76 42 26
1.195581 -0.352225 2.834000 73 44 30
1.195581 -0.347264 2.834000 71 43 30
1.195581 -0.342303 2.834000 74 40 31
1.195581 -0.337342 2.834000 78 40 33
1.205284 -0.335079 2.857000 79 41 35
1.205284 -0.330078 2.857000 81 41 32
1.205284 -0.325077 2.857000 76 42 30
1.205284 -0.320075 2.857000 71 41 28
1.205284 -0.315074 2.857000 73 41 27
1.205284 -0.310073 2.857000 76 42 28
1.195581 -0.302616 2.834000 78 44 30
1.195581 -0.297655 2.834000 80 43 31
1.195581 -0.292694 2.834000 80 44 32
1.195581 -0.287733 2.834000 80 43 34
1.195581 -0.282772 2.834000 81 42 37
1.195581 -0.277811 2.834000 83 38 31
1.195581 -0.272850 2.834000 80 34 25
1.195581 -0.267889 2.834000 77 38 27
1.195581 -0.262929 2.834000 77 40 29
1.195581 -0.257968 2.834000 78 40 28
1.195581 -0.253007 2.834000 80 39 27
1.195581 -0.248046 2.834000 82 41 29
1.195581 -0.243085 2.834000 74 45 30
1.195581 -0.238124 2.834000 67 44 32
1.195581 -0.233163 2.834000 72 44 33
1.195581 -0.228202 2.834000 78 42 33
1.195581 -0.223241 2.834000 77 43 33
1.195581 -0.218280 2.834000 77 42 32
1.195581 -0.213319 2.834000 75 40 30
1.195581 -0.208358 2.834000 73 40 28
1.195581 -0.203398 2.834000 79 39 26
1.195581 -0.198437 2.834000 85 39 25
1.195581 -0.193476 2.834000 82 41 25
1.195581 -0.188515 2.834000 79 43 24
1.205284 -0.185044 2.857000 78 46 23
1.195581 -0.178593 2.834000 78 44 28
1.195581 -0.173632 2.834000 77 44 33
1.195581 -0.168671 2.834000 77 42 31
1.195581 -0.163710 2.834000 75 41 29
1.185456 -0.157405 2.810000 73 39 28
1.185456 -0.152486 2.810000 75 40 26
1.185456 -0.147567 2.810000 78 40 26
1.185456 -0.142648 2.810000 78 39 26
1.185456 -0.137729 2.810000 78 38 27
1.195581 -0.133945 2.834000 78 34 29
1.195581 -0.128984 2.834000 78 36 26
1.195581 -0.124023 2.834000 78 38 23
1.195581 -0.119062 2.834000 78 40 18
1.195581 -0.114101 2.834000 80 41 14
1.195581 -0.109140 2.834000 83 39 19
1.195581 -0.104179 2.834000 80 40 24
1.195581 -0.099218 2.834000 77 38 27
1.185456 -0.093459 2.810000 82 35 30
1.185456 -0.088540 2.810000 88 37 24
1.185456 -0.083621 2.810000 83 38 18
1.185456 -0.078702 2.810000 79 39 23
1.185456 -0.073784 2.810000 78 40 29
1.185456 -0.068865 2.810000 78 39 28
1.185456 -0.063946 2.810000 77 41 28
1.185456 -0.059027 2.810000 76 40 22
1.185456 -0.054108 2.810000 75 41 17
1.185456 -0.049189 2.810000 74 41 13
1.185456 -0.044270 2.810000 76 41 9
1.185456 -0.039351 2.810000 78 40 18
1.185456 -0.034432 2.810000 78 38 28
1.185456 -0.029513 2.810000 78 38 26
1.185456 -0.024594 2.810000 77 40 25
1.185456 -0.019676 2.810000 76 40 17
1.185456 -0.014757 2.810000 77 43 10
1.185456 -0.009838 2.810000 79 42 22
1.185456 -0.004919 2.810000 78 40 34
1.185456 -0.000000 2.810000 78 40 31
1.185456 0.004919 2.810000 79 42 29
1.185456 0.009838 2.810000 81 41 24
1.185456 0.014757 2.810000 84 41 20
1.185456 0.019676 2.810000 87 39 24
1.185456 0.024595 2.810000 85 37 29
1.185456 0.029514 2.810000 84 37 27
1.185456 0.034432 2.810000 82 34 26
1.185456 0.039351 2.810000 80 38 22
1.185456 0.044270 2.810000 78 36 19
1.185456 0.049189 2.810000 77 41 20
1.185456 0.054108 2.810000 78 44 21
1.185456 0.059027 2.810000 79 42 21
1.185456 0.063946 2.810000 80 40 21
1.185456 0.068865 2.810000 81 40 21
1.185456 0.073784 2.810000 82 41 20
1.185456 0.078703 2.810000 83 34 26
1.185456 0.083622 2.810000 80 30 33
1.185456 0.088540 2.810000 77 37 22
1.185456 0.093459 2.810000 77 45 11
1.185456 0.098378 2.810000 77 44 22
1.185456 0.103297 2.810000 77 42 33
1.185456 0.108216 2.810000 78 41 30
1.185456 0.113135 2.810000 78 42 28
1.185456 0.118054 2.810000 79 41 25
1.185456 0.122973 2.810000 76 41 23
1.185456 0.127892 2.810000 74 42 26
1.185456 0.132811 2.810000 76 41 29
1.185456 0.137729 2.810000 79 40 28
1.185456 0.142648 2.810000 78 41 27
1.185456 0.147567 2.810000 78 39 25
1.185456 0.152486 2.810000 78 37 23
1.185456 0.157405 2.810000 79 41 22
1.176175 0.161053 2.788000 79 40 22
1.185456 0.167243 2.810000 79 37 25
1.176175 0.170814 2.788000 78 37 29
1.176175 0.175694 2.788000 77 42 25
1.176175 0.180575 2.788000 78 45 22
1.176175 0.185455 2.788000 79 43 25
1.176175 0.190335 2.788000 77 43 28
1.185456 0.196756 2.810000 76 42 19
1.176175 0.200096 2.788000 76 39 10
1.185456 0.206594 2.810000 77 39 19
1.185456 0.211513 2.810000 77 39 29
1.176175 0.214737 2.788000 77 40 20
1.185456 0.221351 2.810000 77 42 12
1.185456 0.226270 2.810000 78 40 12
1.185456 0.231189 2.810000 77 39 13
1.185456 0.236108 2.810000 77 38 17
1.185456 0.241026 2.810000 77 39 21
1.185456 0.245945 2.810000 77 36 27
1.185456 0.250864 2.810000 79 35 33
1.185456 0.255783 2.810000 82 35 25
1.185456 0.260702 2.810000 79 35 17
1.185456 0.265621 2.810000 77 37 23
1.185456 0.270540 2.810000 77 40 30
1.185456 0.275459 2.810000 77 39 22
1.185456 0.280378 2.810000 76 41 14
1.185456 0.285296 2.810000 75 40 16
1.185456 0.290215 2.810000 74 39 18
1.185456 0.295134 2.810000 73 38 25
1.185456 0.300053 2.810000 73 39 33
1.185456 0.304972 2.810000 74 37 30
1.176175 0.307465 2.788000 77 37 27
1.185456 0.314810 2.810000 80 37 25
1.185456 0.319729 2.810000 77 39 23
1.176175 0.322106 2.788000 75 40 21
1.176175 0.326986 2.788000 75 42 19
1.176175 0.331867 2.788000 75 39 15
1.185456 0.339404 2.810000 75 37 12
1.185456 0.344323 2.810000 76 37 15
1.185456 0.349242 2.810000 76 39 19
1.185456 0.354161 2.810000 76 40 22
1.185456 0.359080 2.810000 75 43 25
1.185456 0.363999 2.810000 75 41 21
1.185456 0.368918 2.810000 74 41 17
1.185456 0.373837 2.810000 73 39 16
1.185456 0.378756 2.810000 73 38 16
1.185456 0.383675 2.810000 74 39 25
1.185456 0.388594 2.810000 75 39 34
1.185456 0.393512 2.810000 77 38 27
1.185456 0.398431 2.810000 77 39 21
1.185456 0.403350 2.810000 77 38 20
1.176175 0.405073 2.788000 75 37 20
1.176175 0.409953 2.788000 74 38 18
1.176175 0.414834 2.788000 75 35 17
1.176175 0.419714 2.788000 76 37 11
1.176175 0.424594 2.788000 78 41 6
1.176175 0.429475 2.788000 81 41 14
1.176175 0.434355 2.788000 73 40 22
1.176175 0.439236 2.788000 66 38 20
1.176175 0.444116 2.788000 71 38 18
1.176175 0.448996 2.788000 76 39 25
1.176175 0.453877 2.788000 76 41 33
1.176175 0.458757 2.788000 77 39 23
1.176175 0.463638 2.788000 77 37 14
1.176175 0.468518 2.788000 78 35 12
1.185456 0.477134 2.810000 77 36 10
1.176175 0.478279 2.788000 76 37 13
1.176175 0.483159 2.788000 75 36 15
1.176175 0.488039 2.788000 74 39 18
1.176175 0.492920 2.788000 72 41 20
1.176175 0.497800 2.788000 71 40 13
1.176175 0.502681 2.788000 72 41 7
1.176175 0.507561 2.788000 74 40 13
1.176175 0.512442 2.788000 74 39 19
1.176175 0.517322 2.788000 74 35 22
1.176175 0.522202 2.788000 70 34 25
1.176175 0.527083 2.788000 67 37 21
1.176175 0.531963 2.788000 70 40 17
1.176175 0.536843 2.788000 73 38 12
1.176175 0.541724 2.788000 72 39 7
1.176175 0.546604 2.788000 71 37 15
1.176175 0.551485 2.788000 74 37 23
1.176175 0.556365 2.788000 77 36 16
1.176175 0.561245 2.788000 75 33 10
1.176175 0.566126 2.788000 73 34 19
1.176175 0.571006 2.788000 72 36 29
1.176175 0.575887 2.788000 71 38 18
1.176175 0.580767 2.788000 72 41 7
1.176175 0.585647 2.788000 73 40 11
1.176175 0.590528 2.788000 73 40 16
1.176175 0.595408 2.788000 73 39 12
1.176175 0.600289 2.788000 72 42 8
1.176175 0.605169 2.788000 71 40 20
1.176175 0.610049 2.788000 70 36 32
1.176175 0.614930 2.788000 70 33 21
1.176175 0.619810 2.788000 69 34 10
1.176175 0.624691 2.788000 68 35 11
1.166472 0.624377 2.765000 71 36 11
1.166472 0.629217 2.765000 74 34 14
1.166472 0.634058 2.765000 73 33 16
1.166472 0.638898 2.765000 73 30 18
1.166472 0.643738 2.765000 73 30 19
1.166472 0.648578 2.765000 73 31 23
1.166472 0.653418 2.765000 66 30 27
1.176175 0.663734 2.788000 59 31 22
1.176175 0.668614 2.788000 69 29 18
1.176175 0.673494 2.788000 79 28 15
1.176175 0.678375 2.788000 73 30 12
1.176175 0.683255 2.788000 68 29 16
1.176175 0.688136 2.788000 68 28 20
1.176175 0.693016 2.788000 69 28 17
1.176175 0.697896 2.788000 65 30 13
1.176175 0.702777 2.788000 62 30 17
1.176175 0.707657 2.788000 59 30 20
1.166472 0.706660 2.765000 56 29 22
1.166472 0.711500 2.765000 65 30 24
1.166472 0.716340 2.765000 74 29 15
1.166472 0.721180 2.765000 67 26 5
1.166472 0.726020 2.765000 60 26 14
1.166472 0.730860 2.765000 53 21 23
1.166472 0.735700 2.765000 46 21 14
1.166472 0.740540 2.765000 27 12 6
1.166472 0.745381 2.765000 9 6 4
1.166472 0.750221 2.765000 7 4 2
1.166472 0.755061 2.765000 5 5 2
1.166472 0.759901 2.765000 4 5 3
1.166472 0.764741 2.765000 4 5 3
1.157191 0.763458 2.743000 4 5 2
1.166472 0.774421 2.765000 5 5 7
1.166472 0.779262 2.765000 3 5 12
1.166472 0.784102 2.765000 1 4 8
1.166472 0.788942 2.765000 2 4 4
1.166472 0.793782 2.765000 4 4 3
1.166472 0.798622 2.765000 4 5 3
1.166472 0.803462 2.765000 4 4 2
1.166472 0.808302 2.765000 5 4 1
1.166472 0.813142 2.765000 7 4 3
1.157191 0.811474 2.743000 8 6 5
0.991818 0.794277 2.351000 68 43 55
0.991818 0.798393 2.351000 69 45 62
0.978740 0.791926 2.320000 68 49 69
0.965662 0.785351 2.289000 67 51 64
0.959334 0.784186 2.274000 76 52 60
0.959334 0.788166 2.274000 86 50 61
0.953006 0.786922 2.259000 82 50 62
0.940771 0.780723 2.230000 78 51 64
0.934443 0.779349 2.215000 78 49 66
0.928537 0.778276 2.201000 78 53 62
0.922631 0.777154 2.187000 78 61 58
0.917147 0.776340 2.174000 79 60 68
0.911240 0.775122 2.160000 83 57 78
0.899850 0.769166 2.133000 87 58 80
0.888881 0.763479 2.107000 85 61 82
0.878334 0.758065 2.082000 83 60 80
0.872850 0.756953 2.069000 83 61 78
0.872850 0.760575 2.069000 83 61 79
0.867788 0.759764 2.057000 82 61 79
0.867788 0.763365 2.057000 81 61 79
0.857663 0.758017 2.033000 81 63 78
0.837835 0.747446 1.986000 82 62 70
0.818851 0.733908 1.941000 82 62 74
0.818851 0.737306 1.941000 82 62 78
0.814632 0.736887 1.931000 82 61 76
0.809991 0.736050 1.920000 83 62 75
0.809991 0.739411 1.920000 84 60 78
0.805351 0.738517 1.909000 86 59 81
0.801132 0.737972 1.899000 88 61 82
0.792273 0.733099 1.878000 84 65 83
1.210285 -1.120264 2.857000 65 31 13
1.210285 -1.115263 2.857000 67 29 12
1.210285 -1.110262 2.857000 70 27 15
1.210285 -1.105261 2.857000 68 30 18
1.210285 -1.100259 2.857000 67 32 12
1.210285 -1.095258 2.857000 71 31 7
1.200542 -1.081480 2.834000 75 34 8
1.200542 -1.076519 2.834000 73 31 9
1.200542 -1.071558 2.834000 72 26 11
1.200542 -1.066597 2.834000 68 34 14
1.200542 -1.061636 2.834000 64 42 13
1.200542 -1.056675 2.834000 71 37 12
1.200542 -1.051715 2.834000 77 36 11
1.200542 -1.046754 2.834000 71 36 11
1.200542 -1.041793 2.834000 66 41 12
1.200542 -1.036832 2.834000 66 33 14
1.190375 -1.023132 2.810000 66 29 8
1.190375 -1.018214 2.810000 70 33 3
1.190375 -1.013295 2.810000 75 38 7
1.190375 -1.008376 2.810000 71 35 11
1.190375 -1.003457 2.810000 67 36 14
1.190375 -0.998538 2.810000 69 30 17
1.190375 -0.993619 2.810000 71 27 15
1.190375 -0.988700 2.810000 71 32 14
1.190375 -0.983781 2.810000 71 34 17
1.190375 -0.978862 2.810000 71 32 21
1.200542 -0.982262 2.834000 72 34 22
1.200542 -0.977301 2.834000 72 31 24
1.200542 -0.972340 2.834000 73 30 18
1.200542 -0.967379 2.834000 70 30 13
1.210285 -0.970229 2.857000 68 27 19
1.210285 -0.965228 2.857000 66 33 26
1.210285 -0.960226 2.857000 64 39 20
1.210285 -0.955225 2.857000 69 34 14
1.210285 -0.950224 2.857000 74 33 15
1.210285 -0.945223 2.857000 73 33 16
1.210285 -0.940222 2.857000 72 32 17
1.210285 -0.935220 2.857000 71 31 18
1.200542 -0.922731 2.834000 71 30 17
1.200542 -0.917770 2.834000 75 35 17
1.200542 -0.912809 2.834000 80 34 20
1.210285 -0.915216 2.857000 75 35 24
1.210285 -0.910215 2.857000 70 39 20
1.210285 -0.905213 2.857000 70 37 17
1.200542 -0.892965 2.834000 70 33 12
1.190375 -0.880484 2.810000 72 34 8
1.200542 -0.883043 2.834000 75 35 16
1.200542 -0.878082 2.834000 74 33 24
1.200542 -0.873122 2.834000 74 35 24
1.190375 -0.860808 2.810000 73 36 24
1.200542 -0.863200 2.834000 73 37 28
1.190375 -0.850971 2.810000 76 35 32
1.190375 -0.846052 2.810000 78 33 28
1.190375 -0.841133 2.810000 74 34 24
1.200542 -0.843356 2.834000 69 34 25
1.200542 -0.838395 2.834000 73 36 26
1.200542 -0.833434 2.834000 77 38 18
1.200542 -0.828473 2.834000 79 36 11
1.200542 -0.823512 2.834000 80 36 17
1.190375 -0.811619 2.810000 79 39 24
1.200542 -0.813590 2.834000 77 43 23
1.200542 -0.808630 2.834000 75 41 22
1.190375 -0.796863 2.810000 74 41 19
1.190375 -0.791944 2.810000 73 37 16
1.190375 -0.787025 2.810000 72 35 21
1.200542 -0.788786 2.834000 74 38 26
1.200542 -0.783825 2.834000 76 38 27
1.210285 -0.785185 2.857000 76 38 28
1.210285 -0.780184 2.857000 77 35 27
1.210285 -0.775183 2.857000 76 37 27
1.210285 -0.770182 2.857000 76 40 19
1.210285 -0.765180 2.857000 76 38 11
1.210285 -0.760179 2.857000 75 36 28
1.210285 -0.755178 2.857000 76 39 45
1.210285 -0.750177 2.857000 77 38 32
1.200542 -0.739177 2.834000 77 38 19
1.200542 -0.734216 2.834000 77 39 24
1.200542 -0.729255 2.834000 77 40 30
1.210285 -0.730172 2.857000 77 42 22
1.210285 -0.725171 2.857000 79 39 14
1.210285 -0.720170 2.857000 81 36 22
1.210285 -0.715169 2.857000 80 39 31
1.210285 -0.710167 2.857000 80 40 28
1.220452 -0.711090 2.881000 78 40 25
1.210285 -0.700165 2.857000 77 40 28
1.210285 -0.695164 2.857000 78 39 32
1.210285 -0.690163 2.857000 79 39 30
1.210285 -0.685162 2.857000 77 40 29
1.210285 -0.680160 2.857000 75 42 25
1.210285 -0.675159 2.857000 78 41 22
1.210285 -0.670158 2.857000 82 41 12
1.210285 -0.665157 2.857000 79 39 3
1.210285 -0.660156 2.857000 77 38 17
1.210285 -0.655154 2.857000 77 39 32
1.210285 -0.650153 2.857000 78 38 26
1.210285 -0.645152 2.857000 80 37 20
1.210285 -0.640151 2.857000 82 38 20
1.210285 -0.635150 2.857000 80 43 21
1.210285 -0.630149 2.857000 78 45 35
1.210285 -0.625147 2.857000 77 42 50
1.210285 -0.620146 2.857000 77 38 42
1.210285 -0.615145 2.857000 75 39 35
1.210285 -0.610144 2.857000 74 42 32
1.210285 -0.605143 2.857000 76 42 30
1.210285 -0.600141 2.857000 78 42 28
1.210285 -0.595140 2.857000 79 41 26
1.210285 -0.590139 2.857000 81 41 28
1.210285 -0.585138 2.857000 79 40 30
1.210285 -0.580137 2.857000 78 41 27
1.210285 -0.575136 2.857000 76 41 24
1.210285 -0.570134 2.857000 75 41 27
1.210285 -0.565133 2.857000 75 41 30
1.210285 -0.560132 2.857000 76 39 31
1.210285 -0.555131 2.857000 76 39 32
1.210285 -0.550130 2.857000 76 39 33
1.210285 -0.545128 2.857000 78 39 35
1.210285 -0.540127 2.857000 80 35 35
1.210285 -0.535126 2.857000 78 37 35
1.210285 -0.530125 2.857000 77 40 41
1.210285 -0.525124 2.857000 78 39 47
1.210285 -0.520123 2.857000 79 39 38
1.210285 -0.515121 2.857000 79 40 30
1.210285 -0.510120 2.857000 80 41 28
1.210285 -0.505119 2.857000 80 41 26
1.210285 -0.500118 2.857000 79 42 28
1.200542 -0.491131 2.834000 81 40 30
1.210285 -0.490115 2.857000 83 41 28
1.200542 -0.481209 2.834000 79 42 26
1.200542 -0.476248 2.834000 76 40 27
1.210285 -0.475112 2.857000 77 40 28
1.200542 -0.466326 2.834000 78 41 24
1.200542 -0.461365 2.834000 77 38 21
1.200542 -0.456404 2.834000 77 37 25
1.200542 -0.451443 2.834000 77 39 29
1.200542 -0.446483 2.834000 77 41 37
1.200542 -0.441522 2.834000 77 40 46
1.200542 -0.436561 2.834000 77 40 33
1.200542 -0.431600 2.834000 77 41 21
1.200542 -0.426639 2.834000 77 42 26
1.200542 -0.421678 2.834000 78 42 32
1.210285 -0.420099 2.857000 80 41 31
1.210285 -0.415098 2.857000 78 41 31
1.210285 -0.410097 2.857000 76 42 30
