ply
format ascii 1.0
element vertex 1315
property float x
property float y
property float z
property uchar red
property uchar green
property uchar blue
end_header
0.160885 0.755460 1.998000 94 83 109
0.159033 0.750221 1.975000 96 82 108
0.155490 0.736887 1.931000 99 81 106
0.154604 0.736050 1.920000 98 81 105
0.152913 0.731324 1.899000 97 83 105
0.152027 0.730393 1.888000 95 80 105
0.258586 0.907801 3.143000 94 78 103
0.256282 0.905166 3.115000 96 79 101
0.253978 0.902434 3.087000 95 79 100
0.251675 0.899603 3.059000 95 79 99
0.247314 0.889279 3.006000 95 80 98
0.247314 0.894541 3.006000 95 79 99
0.245175 0.892020 2.980000 95 80 101
0.241061 0.882182 2.930000 96 80 101
0.241061 0.887311 2.930000 95 80 100
0.239004 0.884825 2.905000 94 80 101
0.237030 0.882559 2.881000 94 80 102
0.225676 0.845086 2.743000 95 78 98
0.225676 0.849887 2.743000 93 78 95
0.223948 0.848145 2.722000 91 79 97
0.223948 0.852910 2.722000 93 79 100
0.222221 0.851058 2.701000 95 80 98
0.220493 0.849133 2.680000 91 82 96
0.217120 0.840762 2.639000 88 81 96
0.213829 0.832568 2.599000 94 80 95
0.212266 0.830998 2.580000 101 79 93
0.210620 0.829037 2.560000 96 80 91
0.207576 0.821471 2.523000 92 79 93
0.206095 0.819996 2.505000 93 78 96
0.204614 0.818457 2.487000 95 78 97
0.201652 0.810900 2.451000 95 79 98
0.198855 0.803882 2.417000 96 79 97
0.196140 0.797080 2.384000 94 81 97
0.194741 0.795539 2.367000 93 79 99
0.193425 0.794277 2.351000 94 79 101
0.182236 0.775472 2.215000 95 78 103
0.182236 0.779349 2.215000 95 79 104
0.181084 0.778276 2.201000 96 80 105
0.177711 0.767559 2.160000 96 83 106
0.176641 0.766698 2.147000 96 82 106
0.175489 0.765432 2.133000 94 79 106
0.174420 0.764479 2.120000 92 78 104
0.173350 0.763479 2.107000 93 79 103
0.172363 0.762798 2.095000 95 79 106
0.170224 0.756953 2.069000 95 79 110
0.169237 0.756164 2.057000 96 81 109
0.168249 0.755332 2.045000 98 83 108
0.167262 0.754459 2.033000 100 82 111
0.166275 0.753543 2.021000 98 83 114
0.165287 0.752586 2.009000 97 82 112
0.164382 0.751962 1.998000 96 82 110
0.163395 0.750923 1.986000 96 82 107
0.162490 0.750221 1.975000 96 83 105
0.158870 0.736887 1.931000 96 82 106
0.157060 0.731833 1.909000 96 82 107
0.155332 0.727088 1.888000 97 80 107
0.155332 0.730393 1.888000 97 78 108
0.261735 0.905166 3.115000 96 80 100
0.259382 0.902434 3.087000 95 79 100
0.257029 0.899603 3.059000 95 79 99
0.254845 0.897266 3.033000 95 79 99
0.252576 0.894541 3.006000 95 78 102
0.248291 0.884537 2.955000 97 79 106
0.246190 0.882182 2.930000 99 81 103
0.244090 0.879740 2.905000 97 80 101
0.244090 0.884825 2.905000 96 80 103
0.242073 0.882559 2.881000 96 79 106
0.230478 0.845086 2.743000 96 78 102
0.230478 0.849887 2.743000 97 77 98
0.228713 0.848145 2.722000 98 76 100
0.226949 0.846330 2.701000 97 77 103
0.226949 0.851058 2.701000 97 79 99
0.223420 0.842479 2.659000 94 80 95
0.220059 0.834390 2.619000 92 81 94
0.218378 0.832568 2.599000 95 79 94
0.216782 0.830998 2.580000 99 78 91
0.215101 0.829037 2.560000 96 78 88
0.213589 0.827658 2.542000 94 79 92
0.211993 0.825888 2.523000 94 78 96
0.208968 0.818457 2.487000 95 80 95
0.205943 0.810900 2.451000 95 79 95
0.203086 0.803882 2.417000 96 79 94
0.201658 0.802429 2.400000 95 79 94
0.198885 0.795539 2.367000 94 79 98
0.197540 0.794277 2.351000 95 79 103
0.197540 0.798393 2.351000 95 79 100
0.186113 0.775472 2.215000 93 78 105
0.184937 0.774423 2.201000 94 78 105
0.183760 0.773326 2.187000 95 80 104
0.181492 0.767559 2.160000 95 81 103
0.180400 0.766698 2.147000 95 83 104
0.179223 0.765432 2.133000 94 79 106
0.178131 0.764479 2.120000 93 78 105
0.177039 0.763479 2.107000 94 78 105
0.176030 0.762798 2.095000 95 80 107
0.174938 0.761709 2.082000 95 80 110
0.173846 0.760575 2.069000 95 81 109
0.171829 0.755332 2.045000 97 81 109
0.170821 0.754459 2.033000 99 82 110
0.169813 0.753543 2.021000 98 82 111
0.168804 0.752586 2.009000 97 82 110
0.167880 0.751962 1.998000 96 81 110
0.166872 0.750923 1.986000 96 82 106
0.165947 0.750221 1.975000 96 82 102
0.163091 0.740703 1.941000 96 82 105
0.161326 0.736050 1.920000 96 80 109
0.159562 0.731324 1.899000 96 78 110
0.158637 0.730393 1.888000 96 79 112
0.257066 0.891862 2.997000 96 78 100
0.253464 0.884537 2.955000 99 77 101
0.251319 0.882182 2.930000 102 79 100
0.249175 0.879740 2.905000 100 79 98
0.249175 0.884825 2.905000 98 79 100
0.247116 0.882559 2.881000 97 78 103
0.235279 0.845086 2.743000 97 78 100
0.233478 0.843381 2.722000 101 77 97
0.233478 0.848145 2.722000 106 76 98
0.231677 0.846330 2.701000 102 77 98
0.229876 0.844441 2.680000 99 78 96
0.228074 0.842479 2.659000 97 80 94
0.224643 0.834390 2.619000 96 80 94
0.222928 0.832568 2.599000 96 80 94
0.221298 0.830998 2.580000 97 79 93
0.219583 0.829037 2.560000 97 78 92
0.218039 0.827658 2.542000 97 78 94
0.216409 0.825888 2.523000 96 78 95
0.213321 0.818457 2.487000 95 78 95
0.210233 0.810900 2.451000 96 79 94
0.207317 0.803882 2.417000 97 77 96
0.205859 0.802429 2.400000 96 77 98
0.204486 0.801253 2.384000 96 77 103
0.203028 0.799683 2.367000 96 79 108
0.201656 0.798393 2.351000 96 79 101
0.190591 0.777922 2.222000 92 77 104
0.188790 0.774423 2.201000 93 77 105
0.187589 0.773326 2.187000 94 79 104
0.185273 0.767559 2.160000 94 79 103
0.184158 0.766698 2.147000 94 79 103
0.182957 0.765432 2.133000 94 78 104
0.181842 0.764479 2.120000 95 77 102
0.180727 0.763479 2.107000 95 77 100
0.179698 0.762798 2.095000 96 79 104
0.178583 0.761709 2.082000 95 82 109
0.177467 0.760575 2.069000 95 81 108
0.175409 0.755332 2.045000 96 79 107
0.174380 0.754459 2.033000 98 80 108
0.173350 0.753543 2.021000 97 81 109
0.172321 0.752586 2.009000 97 80 110
0.171377 0.751962 1.998000 97 79 111
0.170348 0.750923 1.986000 97 81 109
0.169405 0.750221 1.975000 96 83 106
0.165631 0.736887 1.931000 96 82 111
0.164687 0.736050 1.920000 95 80 115
0.162886 0.731324 1.899000 95 79 113
0.161942 0.730393 1.888000 95 80 112
0.261525 0.889184 2.988000 97 79 97
0.256448 0.877053 2.930000 98 79 97
0.254260 0.874655 2.905000 99 81 96
0.254260 0.879740 2.905000 97 81 96
0.252160 0.877515 2.881000 96 82 98
0.252160 0.882559 2.881000 95 80 100
0.238243 0.838616 2.722000 93 79 98
0.238243 0.843381 2.722000 97 78 97
0.236405 0.841602 2.701000 102 77 95
0.236405 0.846330 2.701000 99 77 94
0.234567 0.844441 2.680000 97 78 94
0.232729 0.842479 2.659000 96 79 94
0.229228 0.834390 2.619000 95 80 94
0.227477 0.832568 2.599000 97 80 95
0.225815 0.830998 2.580000 98 80 96
0.224064 0.829037 2.560000 97 79 97
0.222489 0.827658 2.542000 97 79 96
0.220826 0.825888 2.523000 95 78 95
0.217675 0.818457 2.487000 93 78 94
0.214524 0.810900 2.451000 94 77 94
0.210060 0.798228 2.400000 96 76 98
0.210060 0.802429 2.400000 96 76 102
0.208660 0.801253 2.384000 96 76 108
0.207172 0.799683 2.367000 95 78 114
0.205771 0.798393 2.351000 94 80 103
0.195181 0.780723 2.230000 92 77 104
0.192643 0.774423 2.201000 93 78 105
0.191417 0.773326 2.187000 94 81 104
0.187916 0.762940 2.147000 94 80 103
0.186691 0.761699 2.133000 94 79 103
0.186691 0.765432 2.133000 94 78 103
0.185553 0.764479 2.120000 95 77 99
0.184415 0.763479 2.107000 95 78 95
0.183365 0.762798 2.095000 96 80 102
0.182227 0.761709 2.082000 96 81 109
0.181089 0.760575 2.069000 97 83 107
0.180039 0.759764 2.057000 99 80 105
0.177938 0.754459 2.033000 101 80 106
0.176888 0.753543 2.021000 99 80 108
0.174875 0.748465 1.998000 97 81 110
0.173825 0.747446 1.986000 96 80 113
0.172862 0.746763 1.975000 95 80 112
0.172862 0.750221 1.975000 97 81 111
0.169886 0.740703 1.941000 99 83 116
0.168048 0.736050 1.920000 97 80 122
0.166210 0.731324 1.899000 95 80 117
0.165247 0.730393 1.888000 94 80 112
0.266041 0.886803 2.980000 98 79 95
0.261577 0.877053 2.930000 97 79 96
0.259345 0.874655 2.905000 96 81 96
0.259345 0.879740 2.905000 95 83 97
0.257203 0.877515 2.881000 95 82 99
0.257203 0.882559 2.881000 92 82 101
0.244883 0.845086 2.743000 90 81 98
0.243008 0.843381 2.722000 94 81 96
0.241133 0.841602 2.701000 98 79 95
0.241133 0.846330 2.701000 96 79 94
0.239258 0.844441 2.680000 95 79 94
0.237384 0.842479 2.659000 95 78 95
0.235598 0.840762 2.639000 95 80 95
0.232027 0.832568 2.599000 97 81 94
0.230331 0.830998 2.580000 100 80 95
0.228545 0.829037 2.560000 98 79 96
0.226938 0.827658 2.542000 97 79 95
0.225242 0.825888 2.523000 94 79 95
0.223635 0.824381 2.505000 91 78 95
0.218814 0.810900 2.451000 93 76 96
0.215779 0.803882 2.417000 96 76 98
0.214261 0.802429 2.400000 96 77 101
0.212833 0.801253 2.384000 96 77 104
0.211315 0.799683 2.367000 94 80 107
0.209887 0.798393 2.351000 93 78 101
0.208458 0.797047 2.335000 93 77 96
0.205691 0.790498 2.304000 93 77 97
0.204352 0.789358 2.289000 93 78 98
0.203013 0.788166 2.274000 94 78 99
0.200334 0.781696 2.244000 93 76 100
0.199084 0.780723 2.230000 93 77 101
0.196495 0.774423 2.201000 93 79 103
0.195246 0.773326 2.187000 94 80 102
0.192835 0.767559 2.160000 94 81 101
0.191675 0.766698 2.147000 94 80 102
0.190425 0.765432 2.133000 94 79 102
0.189264 0.764479 2.120000 95 78 101
0.188103 0.763479 2.107000 95 79 100
0.187032 0.762798 2.095000 96 80 108
0.185872 0.761709 2.082000 97 82 116
0.184711 0.760575 2.069000 99 81 112
0.182568 0.755332 2.045000 101 81 108
0.180426 0.750005 2.021000 104 80 107
0.179355 0.749069 2.009000 101 80 106
0.178819 0.750338 2.003000 98 80 107
0.177301 0.747446 1.986000 95 80 108
0.176319 0.746763 1.975000 93 79 109
0.176319 0.750221 1.975000 98 79 109
0.173284 0.740703 1.941000 103 80 112
0.171409 0.736050 1.920000 99 80 115
0.169534 0.731324 1.899000 95 80 112
0.168552 0.730393 1.888000 93 79 109
0.271257 0.886803 2.980000 97 80 94
0.266706 0.877053 2.930000 95 80 95
0.264430 0.874655 2.905000 94 81 96
0.262246 0.872472 2.881000 97 82 98
0.260061 0.870205 2.857000 100 81 100
0.260061 0.875206 2.857000 96 81 103
0.251687 0.851864 2.765000 93 82 99
0.249684 0.849887 2.743000 96 80 95
0.245861 0.841602 2.701000 99 81 94
0.245861 0.846330 2.701000 97 80 94
0.243950 0.844441 2.680000 95 81 95
0.242038 0.842479 2.659000 94 80 97
0.240218 0.840762 2.639000 94 81 95
0.236577 0.832568 2.599000 96 81 94
0.234847 0.830998 2.580000 98 82 95
0.231388 0.823208 2.542000 98 80 96
0.229659 0.821471 2.523000 98 80 95
0.228020 0.819996 2.505000 95 80 95
0.226382 0.818457 2.487000 93 80 96
0.224743 0.816855 2.469000 96 77 98
0.221557 0.809536 2.434000 99 76 99
0.220010 0.808113 2.417000 97 76 101
0.218462 0.806631 2.400000 95 77 100
0.215458 0.799683 2.367000 94 78 100
0.212546 0.792959 2.335000 93 78 99
0.212546 0.797047 2.335000 94 76 99
0.209724 0.790498 2.304000 96 75 98
0.208358 0.789358 2.289000 95 77 98
0.206993 0.788166 2.274000 94 78 97
0.205628 0.786922 2.259000 95 76 97
0.202988 0.780723 2.230000 96 77 99
0.201623 0.779349 2.215000 94 78 102
0.199074 0.773326 2.187000 93 80 101
0.196616 0.767559 2.160000 94 80 100
0.195433 0.766698 2.147000 95 81 101
0.194158 0.765432 2.133000 96 79 102
0.194158 0.769166 2.133000 97 79 104
0.192975 0.768190 2.120000 96 79 106
0.191792 0.767167 2.107000 96 79 114
0.190699 0.766465 2.095000 97 79 123
0.188333 0.760575 2.069000 98 80 117
0.185056 0.750900 2.033000 98 81 111
0.183964 0.750005 2.021000 99 81 108
0.182871 0.749069 2.009000 98 80 105
0.182871 0.752586 2.009000 96 81 104
0.180778 0.747446 1.986000 96 80 104
0.179776 0.746763 1.975000 95 78 106
0.178775 0.746042 1.964000 98 78 108
0.175771 0.736887 1.931000 100 78 108
0.174770 0.736050 1.920000 97 80 109
0.173769 0.735175 1.909000 95 82 108
0.172858 0.734648 1.899000 93 80 107
0.269516 0.874655 2.905000 92 81 92
0.267289 0.872472 2.881000 98 84 94
0.265062 0.870205 2.857000 105 81 96
0.262929 0.868161 2.834000 100 81 97
0.256527 0.851864 2.765000 96 80 95
0.254486 0.849887 2.743000 98 79 93
0.252538 0.848145 2.722000 100 79 92
0.250589 0.846330 2.701000 97 79 90
0.248641 0.844441 2.680000 95 80 96
0.246693 0.842479 2.659000 94 81 103
0.244837 0.840762 2.639000 93 81 97
0.242982 0.838975 2.619000 94 83 91
0.241126 0.837117 2.599000 96 81 94
0.237508 0.829037 2.560000 97 80 96
0.234075 0.821471 2.523000 99 80 95
0.232405 0.819996 2.505000 97 81 95
0.230735 0.818457 2.487000 96 80 96
0.227395 0.810900 2.451000 99 78 98
0.225818 0.809536 2.434000 102 76 100
0.224241 0.808113 2.417000 98 74 102
0.222664 0.806631 2.400000 94 77 100
0.221179 0.805426 2.384000 94 78 99
0.218118 0.798393 2.351000 94 77 97
0.216633 0.797047 2.335000 96 77 96
0.213757 0.790498 2.304000 99 76 97
0.212365 0.789358 2.289000 96 78 99
0.210974 0.788166 2.274000 94 77 98
0.209582 0.786922 2.259000 96 76 98
0.208190 0.785625 2.244000 99 77 99
0.206892 0.784627 2.230000 96 79 101
0.204201 0.778276 2.201000 93 79 102
0.201696 0.772534 2.174000 94 80 104
0.200397 0.771340 2.160000 96 79 102
0.199191 0.770456 2.147000 98 78 101
0.197892 0.769166 2.133000 100 80 103
0.196686 0.768190 2.120000 98 82 105
0.195480 0.767167 2.107000 96 79 109
0.194367 0.766465 2.095000 96 78 114
0.191955 0.760575 2.069000 97 79 112
0.189728 0.755332 2.045000 96 82 110
0.187501 0.750005 2.021000 95 80 108
0.186388 0.749069 2.009000 95 80 106
0.186388 0.752586 2.009000 95 81 103
0.184254 0.747446 1.986000 96 81 100
0.182213 0.742604 1.964000 98 80 103
0.182213 0.746042 1.964000 98 79 106
0.179151 0.736887 1.931000 98 79 107
0.178131 0.736050 1.920000 96 80 108
0.177110 0.735175 1.909000 95 80 107
0.176183 0.734648 1.899000 93 80 107
0.272332 0.872472 2.881000 97 81 91
0.270064 0.870205 2.857000 100 80 91
0.267890 0.868161 2.834000 98 79 92
0.259288 0.845086 2.743000 95 79 92
0.257302 0.843381 2.722000 97 79 92
0.255317 0.841602 2.701000 98 78 89
0.255317 0.846330 2.701000 96 79 87
0.253332 0.844441 2.680000 94 80 98
0.251347 0.842479 2.659000 92 79 109
0.249457 0.840762 2.639000 90 80 99
0.247566 0.838975 2.619000 92 80 89
0.243880 0.830998 2.580000 95 80 93
0.241989 0.829037 2.560000 95 80 97
0.240288 0.827658 2.542000 96 80 96
0.236790 0.819996 2.505000 95 80 95
0.235089 0.818457 2.487000 94 81 97
0.231686 0.810900 2.451000 96 78 99
0.230079 0.809536 2.434000 98 77 101
0.230079 0.813797 2.434000 96 77 103
0.228472 0.812344 2.417000 93 79 100
0.226865 0.810832 2.400000 93 77 98
0.222233 0.798393 2.351000 92 77 96
0.220721 0.797047 2.335000 92 76 94
0.220721 0.801134 2.335000 92 76 97
0.216372 0.789358 2.289000 92 76 100
0.214954 0.788166 2.274000 92 77 99
0.213536 0.786922 2.259000 94 76 99
0.210795 0.780723 2.230000 97 76 100
0.210795 0.784627 2.230000 95 77 101
0.208054 0.778276 2.201000 93 78 104
0.205502 0.772534 2.174000 94 78 108
0.204178 0.771340 2.160000 95 79 104
0.202949 0.770456 2.147000 96 80 101
0.201626 0.769166 2.133000 97 82 102
0.200397 0.768190 2.120000 96 80 104
0.199168 0.767167 2.107000 95 78 104
0.198034 0.766465 2.095000 95 78 105
0.195576 0.760575 2.069000 96 79 107
0.194442 0.759764 2.057000 96 79 109
0.192173 0.754459 2.033000 96 79 108
0.191039 0.753543 2.021000 93 80 107
0.189905 0.752586 2.009000 91 82 101
0.188865 0.751962 1.998000 94 81 96
0.186691 0.746763 1.975000 96 82 100
0.185651 0.746042 1.964000 96 81 105
0.183477 0.740703 1.941000 97 82 106
0.182532 0.740267 1.931000 96 79 107
0.180452 0.735175 1.909000 96 78 107
0.179507 0.734648 1.899000 94 78 108
0.277376 0.872472 2.881000 97 81 92
0.275065 0.870205 2.857000 96 79 92
0.275065 0.875206 2.857000 95 78 93
0.264089 0.845086 2.743000 95 78 93
0.262067 0.843381 2.722000 96 80 93
0.260046 0.841602 2.701000 97 79 92
0.260046 0.846330 2.701000 95 80 91
0.258024 0.844441 2.680000 93 79 97
0.258024 0.849133 2.680000 90 78 103
0.256002 0.847134 2.659000 88 78 98
0.252151 0.838975 2.619000 91 78 93
0.248396 0.830998 2.580000 94 79 95
0.246470 0.829037 2.560000 93 80 97
0.244737 0.827658 2.542000 93 80 100
0.241175 0.819996 2.505000 92 79 102
0.239442 0.818457 2.487000 92 79 100
0.235976 0.810900 2.451000 93 77 98
0.234339 0.809536 2.434000 95 77 98
0.234339 0.813797 2.434000 94 79 99
0.232703 0.812344 2.417000 93 78 98
0.231066 0.810832 2.400000 92 77 98
0.227889 0.803826 2.367000 91 77 97
0.224808 0.797047 2.335000 88 77 96
0.224808 0.801134 2.335000 85 75 100
0.220379 0.789358 2.289000 87 74 104
0.217491 0.782967 2.259000 90 76 101
0.217491 0.786922 2.259000 92 76 98
0.214699 0.780723 2.230000 95 76 97
0.214699 0.784627 2.230000 94 77 97
0.213255 0.783226 2.215000 94 76 99
0.209307 0.772534 2.174000 94 77 102
0.207959 0.771340 2.160000 95 78 101
0.206708 0.770456 2.147000 95 81 101
0.205360 0.769166 2.133000 95 80 101
0.204108 0.768190 2.120000 94 81 102
0.201701 0.762798 2.095000 94 79 103
0.200450 0.761709 2.082000 95 80 105
0.199198 0.760575 2.069000 96 79 107
0.198043 0.759764 2.057000 96 79 110
0.196887 0.758912 2.045000 97 79 108
0.195732 0.758017 2.033000 92 80 106
0.194577 0.757081 2.021000 88 80 103
0.192362 0.751962 1.998000 91 80 99
0.190148 0.746763 1.975000 95 81 104
0.189089 0.746042 1.964000 95 83 108
0.185912 0.736887 1.931000 96 80 108
0.184853 0.736050 1.920000 97 77 108
0.183794 0.735175 1.909000 98 78 110
0.182831 0.734648 1.899000 95 78 112
0.280066 0.870205 2.857000 96 80 94
0.277811 0.868161 2.834000 96 78 94
0.268891 0.845086 2.743000 96 78 94
0.266832 0.843381 2.722000 98 78 94
0.266832 0.848145 2.722000 100 78 95
0.264774 0.846330 2.701000 98 78 96
0.262715 0.844441 2.680000 95 79 96
0.262715 0.849133 2.680000 93 77 97
0.260657 0.847134 2.659000 91 76 97
0.256735 0.838975 2.619000 93 78 98
0.252912 0.830998 2.580000 95 79 98
0.250952 0.829037 2.560000 94 80 98
0.249187 0.827658 2.542000 93 82 104
0.247325 0.825888 2.523000 93 79 110
0.243796 0.818457 2.487000 93 79 104
0.240267 0.810900 2.451000 94 77 98
0.238600 0.809536 2.434000 95 77 96
0.236934 0.808113 2.417000 94 78 95
0.236934 0.812344 2.417000 94 79 96
0.235267 0.810832 2.400000 92 77 98
0.232032 0.803826 2.367000 91 77 98
0.230464 0.802508 2.351000 89 76 99
0.228895 0.801134 2.335000 87 76 103
0.224386 0.789358 2.289000 89 75 108
0.221445 0.782967 2.259000 91 77 102
0.219975 0.781696 2.244000 93 76 97
0.219975 0.785625 2.244000 95 76 95
0.218602 0.784627 2.230000 96 75 94
0.217132 0.783226 2.215000 97 75 95
0.213113 0.772534 2.174000 96 76 96
0.211741 0.771340 2.160000 94 77 98
0.210466 0.770456 2.147000 94 78 101
0.209094 0.769166 2.133000 94 79 101
0.206545 0.763479 2.107000 93 79 101
0.205369 0.762798 2.095000 93 80 103
0.204094 0.761709 2.082000 93 80 105
0.202820 0.760575 2.069000 94 79 108
0.201644 0.759764 2.057000 94 79 112
0.200467 0.758912 2.045000 95 80 109
0.198115 0.753543 2.021000 92 79 106
0.196938 0.752586 2.009000 90 80 104
0.194684 0.747446 1.986000 92 80 103
0.193605 0.746763 1.975000 94 80 107
0.192527 0.746042 1.964000 94 80 112
0.190272 0.740703 1.941000 95 80 110
0.189292 0.740267 1.931000 95 78 109
0.187135 0.735175 1.909000 96 79 112
0.186155 0.734648 1.899000 93 78 116
0.275888 0.851864 2.765000 97 78 93
0.271597 0.843381 2.722000 100 78 93
0.269502 0.841602 2.701000 104 77 94
0.269502 0.846330 2.701000 101 77 95
0.267406 0.844441 2.680000 98 78 95
0.265311 0.842479 2.659000 96 77 95
0.263315 0.840762 2.639000 95 77 96
0.261320 0.838975 2.619000 95 79 97
0.257429 0.830998 2.580000 96 79 97
0.257429 0.835514 2.580000 94 80 97
0.255433 0.833518 2.560000 93 79 99
0.251741 0.825888 2.523000 94 79 101
0.248149 0.818457 2.487000 95 78 98
0.242861 0.805276 2.434000 95 76 96
0.241165 0.803882 2.417000 95 76 94
0.241165 0.808113 2.417000 95 77 92
0.239468 0.806631 2.400000 95 77 94
0.239468 0.810832 2.400000 93 77 97
0.236176 0.803826 2.367000 92 76 97
0.234579 0.802508 2.351000 91 76 97
0.232983 0.801134 2.335000 90 75 101
0.229890 0.794531 2.304000 91 76 105
0.226896 0.788166 2.274000 93 76 100
0.225400 0.786922 2.259000 94 76 95
0.223903 0.785625 2.244000 95 75 93
0.222506 0.784627 2.230000 98 75 90
0.221009 0.783226 2.215000 101 74 91
0.216918 0.772534 2.174000 97 75 92
0.215522 0.771340 2.160000 94 77 95
0.214224 0.770456 2.147000 94 78 98
0.212828 0.769166 2.133000 94 77 96
0.211530 0.768190 2.120000 93 77 95
0.209036 0.762798 2.095000 92 79 98
0.207739 0.761709 2.082000 92 81 102
0.205244 0.756164 2.057000 93 79 104
0.204047 0.755332 2.045000 93 79 107
0.202850 0.754459 2.033000 93 79 105
0.201652 0.753543 2.021000 93 79 104
0.200455 0.752586 2.009000 93 79 103
0.198160 0.747446 1.986000 93 80 102
0.197063 0.746763 1.975000 93 79 105
0.195965 0.746042 1.964000 94 80 108
0.193670 0.740703 1.941000 95 79 107
0.192672 0.740267 1.931000 94 79 107
0.190477 0.735175 1.909000 94 78 110
0.189479 0.734648 1.899000 91 79 113
0.280728 0.851864 2.765000 95 77 93
0.278494 0.849887 2.743000 97 77 93
0.276362 0.848145 2.722000 100 76 93
0.274230 0.846330 2.701000 97 77 94
0.272098 0.844441 2.680000 95 80 94
0.269966 0.842479 2.659000 93 77 94
0.267935 0.840762 2.639000 91 77 95
0.265904 0.838975 2.619000 94 78 96
0.263874 0.837117 2.599000 98 78 96
0.261945 0.835514 2.580000 96 78 96
0.259914 0.833518 2.560000 94 78 94
0.256158 0.825888 2.523000 96 78 92
0.250675 0.812533 2.469000 97 78 93
0.247122 0.805276 2.434000 95 77 95
0.245396 0.803882 2.417000 94 77 92
0.245396 0.808113 2.417000 94 76 90
0.243670 0.806631 2.400000 94 77 93
0.243670 0.810832 2.400000 93 76 96
0.240319 0.803826 2.367000 92 76 95
0.238695 0.802508 2.351000 91 75 95
0.235547 0.795988 2.320000 91 73 98
0.233923 0.794531 2.304000 91 74 102
0.230877 0.788166 2.274000 92 76 98
0.229354 0.786922 2.259000 93 76 94
0.226410 0.780723 2.230000 93 76 90
0.226410 0.784627 2.230000 95 74 87
0.224887 0.783226 2.215000 96 74 87
0.222044 0.777154 2.187000 95 75 88
0.220724 0.776340 2.174000 93 78 91
0.217983 0.770456 2.147000 93 77 95
0.216561 0.769166 2.133000 93 77 92
0.215241 0.768190 2.120000 94 77 89
0.213922 0.767167 2.107000 95 79 94
0.211383 0.761709 2.082000 94 79 100
0.208845 0.756164 2.057000 93 80 101
0.207627 0.755332 2.045000 92 79 102
0.206408 0.754459 2.033000 92 80 102
0.205190 0.753543 2.021000 92 79 103
0.203972 0.752586 2.009000 92 80 102
0.201637 0.747446 1.986000 93 79 101
0.200520 0.746763 1.975000 93 78 103
0.199403 0.746042 1.964000 94 78 105
0.197068 0.740703 1.941000 95 79 105
0.196052 0.740267 1.931000 94 78 105
0.193819 0.735175 1.909000 93 78 108
0.192804 0.734648 1.899000 91 78 111
0.287943 0.858950 2.788000 94 77 94
0.283296 0.849887 2.743000 95 77 95
0.278958 0.841602 2.701000 96 76 94
0.276789 0.839750 2.680000 94 77 92
0.274620 0.837824 2.659000 93 77 92
0.272555 0.836142 2.639000 90 76 92
0.272555 0.840762 2.639000 88 77 94
0.268423 0.832568 2.599000 94 78 96
0.266461 0.830998 2.580000 100 78 95
0.266461 0.835514 2.580000 98 76 95
0.264396 0.833518 2.560000 96 77 96
0.254997 0.808211 2.469000 98 78 96
0.254997 0.812533 2.469000 100 77 95
0.251382 0.805276 2.434000 96 77 95
0.249627 0.803882 2.417000 93 77 94
0.249627 0.808113 2.417000 93 76 93
0.247871 0.806631 2.400000 94 76 94
0.247871 0.810832 2.400000 93 76 95
0.244463 0.803826 2.367000 92 75 95
0.242810 0.802508 2.351000 92 76 94
0.241158 0.801134 2.335000 92 74 98
0.236407 0.789358 2.289000 92 73 102
0.233308 0.782967 2.259000 92 74 99
0.233308 0.786922 2.259000 92 76 96
0.231759 0.785625 2.244000 92 75 95
0.230313 0.784627 2.230000 92 74 95
0.228764 0.783226 2.215000 92 75 93
0.224530 0.772534 2.174000 92 76 91
0.224530 0.776340 2.174000 93 77 95
0.223084 0.775122 2.160000 93 77 99
0.220295 0.769166 2.133000 93 77 95
0.218953 0.768190 2.120000 95 78 92
0.217610 0.767167 2.107000 98 79 95
0.215028 0.761709 2.082000 95 79 99
0.212446 0.756164 2.057000 93 79 100
0.211207 0.755332 2.045000 92 80 101
0.212446 0.763365 2.057000 91 79 103
0.208728 0.753543 2.021000 91 78 105
0.207489 0.752586 2.009000 92 78 102
0.205113 0.747446 1.986000 93 78 98
0.203977 0.746763 1.975000 94 77 100
0.202841 0.746042 1.964000 95 78 103
0.199433 0.736887 1.931000 96 78 104
0.199433 0.740267 1.931000 94 78 105
0.198297 0.739411 1.920000 93 79 110
0.194992 0.730393 1.888000 92 81 116
0.295134 0.865727 2.810000 93 78 96
0.285892 0.843381 2.722000 92 77 98
0.285892 0.848145 2.722000 91 77 94
0.281480 0.839750 2.680000 92 76 91
0.279275 0.837824 2.659000 93 76 90
0.277174 0.836142 2.639000 91 76 90
0.277174 0.840762 2.639000 90 78 93
0.272973 0.832568 2.599000 93 78 96
0.270977 0.830998 2.580000 96 80 95
0.270977 0.835514 2.580000 95 77 95
0.268877 0.833518 2.560000 94 77 98
0.259319 0.808211 2.469000 95 77 101
0.259319 0.812533 2.469000 96 77 98
0.255643 0.805276 2.434000 94 77 95
0.253858 0.803882 2.417000 91 78 95
0.252072 0.802429 2.400000 92 76 96
0.252072 0.806631 2.400000 92 75 95
0.250392 0.805426 2.384000 92 74 95
0.248606 0.803826 2.367000 91 73 94
0.246926 0.802508 2.351000 93 74 94
0.243670 0.795988 2.320000 94 74 98
0.241989 0.794531 2.304000 93 73 102
0.237263 0.782967 2.259000 91 73 100
0.237263 0.786922 2.259000 91 73 98
0.235687 0.785625 2.244000 91 74 100
0.234217 0.784627 2.230000 91 74 103
0.232641 0.783226 2.215000 91 76 99
0.229701 0.777154 2.187000 91 76 95
0.228335 0.776340 2.174000 91 78 99
0.226865 0.775122 2.160000 90 78 103
0.224029 0.769166 2.133000 90 78 99
0.221298 0.763479 2.107000 92 79 95
0.220038 0.762798 2.095000 94 80 97
0.217307 0.756953 2.069000 92 79 99
0.216047 0.756164 2.057000 91 78 99
0.214786 0.755332 2.045000 90 78 100
0.213526 0.754459 2.033000 89 79 104
0.212266 0.753543 2.021000 90 76 108
0.211005 0.752586 2.009000 92 76 102
0.208590 0.747446 1.986000 92 76 96
0.207434 0.746763 1.975000 92 77 98
0.206279 0.746042 1.964000 93 78 101
0.202813 0.736887 1.931000 94 79 103
0.202813 0.740267 1.931000 93 78 105
0.201658 0.739411 1.920000 93 79 113
0.200502 0.738517 1.909000 92 80 122
0.310197 0.879740 2.905000 97 78 97
0.307635 0.877515 2.881000 99 76 96
0.302616 0.868161 2.834000 96 77 94
0.300053 0.865727 2.810000 93 77 94
0.288414 0.836874 2.701000 90 77 95
0.288414 0.841602 2.701000 87 77 92
0.286172 0.839750 2.680000 90 76 90
0.283929 0.837824 2.659000 94 76 89
0.281794 0.836142 2.639000 93 77 89
0.279658 0.834390 2.619000 92 77 91
0.277523 0.832568 2.599000 92 78 93
0.275494 0.830998 2.580000 93 78 92
0.275494 0.835514 2.580000 93 78 91
0.273358 0.833518 2.560000 93 77 94
0.264602 0.811157 2.478000 93 76 97
0.264602 0.815495 2.478000 93 77 96
0.259904 0.805276 2.434000 91 77 96
0.258088 0.803882 2.417000 90 77 95
0.256273 0.802429 2.400000 90 76 95
0.256273 0.806631 2.400000 91 75 95
0.256273 0.810832 2.400000 91 75 95
0.252749 0.803826 2.367000 91 75 94
0.251041 0.802508 2.351000 94 76 94
0.249333 0.801134 2.335000 97 73 96
0.244421 0.789358 2.289000 94 72 99
0.242819 0.788166 2.274000 91 72 97
0.241217 0.786922 2.259000 91 72 96
0.239615 0.785625 2.244000 91 73 98
0.236519 0.779349 2.215000 91 74 100
0.235024 0.778276 2.201000 91 74 97
0.232141 0.772534 2.174000 90 74 95
0.232141 0.776340 2.174000 90 77 97
0.229258 0.770456 2.147000 88 80 100
0.227763 0.769166 2.133000 87 79 98
0.224987 0.763479 2.107000 88 80 96
0.223705 0.762798 2.095000 90 79 96
0.222317 0.761709 2.082000 90 79 97
0.219648 0.756164 2.057000 90 77 97
0.218366 0.755332 2.045000 88 77 96
0.218366 0.758912 2.045000 87 76 101
0.215803 0.753543 2.021000 89 73 106
0.214522 0.752586 2.009000 92 75 102
0.212066 0.747446 1.986000 91 76 99
0.210892 0.746763 1.975000 91 77 99
0.209717 0.746042 1.964000 91 78 99
0.206193 0.736887 1.931000 92 78 100
0.206193 0.740267 1.931000 92 77 102
0.203844 0.735175 1.909000 93 78 106
0.202776 0.734648 1.899000 92 81 111
0.323422 0.892020 2.980000 94 78 89
0.317996 0.882182 2.930000 94 78 95
0.312678 0.872472 2.881000 95 76 101
0.310073 0.870205 2.857000 97 74 97
0.307577 0.868161 2.834000 94 75 94
0.304972 0.865727 2.810000 92 76 93
0.304972 0.870646 2.810000 91 77 92
0.293142 0.841602 2.701000 89 78 91
0.293142 0.846330 2.701000 91 76 90
0.288584 0.837824 2.659000 92 77 89
0.286413 0.836142 2.639000 92 76 88
0.284243 0.834390 2.619000 92 77 89
0.280010 0.826481 2.580000 93 77 91
0.280010 0.830998 2.580000 94 76 89
0.277839 0.829037 2.560000 93 76 88
0.269917 0.809750 2.487000 92 77 90
0.269917 0.814104 2.487000 92 77 93
0.269917 0.818457 2.487000 93 78 95
0.264164 0.805276 2.434000 92 77 97
0.262319 0.803882 2.417000 91 77 95
0.262319 0.808113 2.417000 90 76 94
0.260474 0.806631 2.400000 90 76 94
0.260474 0.810832 2.400000 89 75 95
0.256893 0.803826 2.367000 88 76 94
0.255156 0.802508 2.351000 91 73 94
0.251792 0.795988 2.320000 94 71 95
0.248427 0.789358 2.289000 92 71 97
0.246799 0.788166 2.274000 90 73 95
0.245172 0.786922 2.259000 89 72 94
0.242024 0.780723 2.230000 89 73 95
0.240396 0.779349 2.215000 88 73 97
0.237357 0.773326 2.187000 88 74 96
0.235946 0.772534 2.174000 88 75 95
0.234427 0.771340 2.160000 89 76 96
0.234427 0.775122 2.160000 89 77 97
0.231497 0.769166 2.133000 89 78 97
0.230086 0.768190 2.120000 89 78 97
0.227372 0.762798 2.095000 90 77 96
0.225962 0.761709 2.082000 91 77 96
0.223248 0.756164 2.057000 93 76 94
0.221946 0.755332 2.045000 90 76 93
0.220643 0.754459 2.033000 88 78 98
0.219341 0.753543 2.021000 89 75 104
0.218039 0.752586 2.009000 91 76 103
0.215543 0.747446 1.986000 90 76 102
0.215543 0.750923 1.986000 90 77 99
0.214349 0.750221 1.975000 91 77 97
0.209573 0.736887 1.931000 91 78 98
0.208379 0.736050 1.920000 91 77 100
0.208379 0.739411 1.920000 92 78 100
0.204907 0.730393 1.888000 90 80 100
0.328639 0.892020 2.980000 94 78 89
0.320368 0.874655 2.905000 93 77 93
0.315074 0.865204 2.857000 94 76 98
0.315074 0.870205 2.857000 95 75 95
0.312538 0.868161 2.834000 93 76 92
0.309891 0.865727 2.810000 92 76 91
0.309891 0.870646 2.810000 92 78 90
0.300186 0.848145 2.722000 92 76 90
0.297870 0.846330 2.701000 91 74 90
0.293238 0.837824 2.659000 91 75 88
0.291033 0.836142 2.639000 92 75 87
0.288827 0.834390 2.619000 93 76 88
0.284526 0.826481 2.580000 94 78 90
0.284526 0.830998 2.580000 95 76 90
0.282321 0.829037 2.560000 93 74 90
0.274270 0.809750 2.487000 91 75 92
0.274270 0.814104 2.487000 92 78 94
0.274270 0.818457 2.487000 93 77 96
0.270300 0.810900 2.451000 92 76 98
0.268425 0.809536 2.434000 92 76 96
0.266550 0.808113 2.417000 90 76 94
0.266550 0.812344 2.417000 89 75 94
0.264676 0.810832 2.400000 87 74 94
0.262911 0.809599 2.384000 86 73 94
0.259272 0.802508 2.351000 89 71 94
0.257507 0.801134 2.335000 92 71 94
0.252434 0.789358 2.289000 91 70 95
0.250780 0.788166 2.274000 90 71 94
0.250780 0.792147 2.274000 88 72 94
0.249126 0.790876 2.259000 87 73 95
0.241186 0.769497 2.187000 86 74 96
0.241186 0.773326 2.187000 86 74 95
0.239752 0.772534 2.174000 87 76 94
0.238208 0.771340 2.160000 88 75 95
0.236774 0.770456 2.147000 90 76 97
0.235230 0.769166 2.133000 92 76 99
0.233797 0.768190 2.120000 91 77 101
0.232363 0.767167 2.107000 90 76 98
0.231040 0.766465 2.095000 93 76 95
0.228172 0.760575 2.069000 96 76 96
0.225526 0.755332 2.045000 93 76 96
0.224202 0.754459 2.033000 90 75 100
0.221556 0.749069 2.009000 90 76 104
0.221556 0.752586 2.009000 90 76 101
0.220342 0.751962 1.998000 90 77 99
0.219019 0.750923 1.986000 90 77 99
0.217806 0.750221 1.975000 90 77 98
0.212954 0.736887 1.931000 91 77 101
0.211740 0.736050 1.920000 91 78 103
0.209425 0.731324 1.899000 91 78 99
0.208211 0.730393 1.888000 89 80 96
0.333855 0.892020 2.980000 93 76 90
0.325453 0.874655 2.905000 91 77 92
0.320075 0.865204 2.857000 94 76 95
0.317499 0.863200 2.834000 96 76 93
0.314810 0.860809 2.810000 94 76 91
0.314810 0.865727 2.810000 93 77 89
0.312345 0.863830 2.788000 93 77 88
0.304951 0.848145 2.722000 93 77 89
0.302598 0.846330 2.701000 90 75 90
0.300246 0.844441 2.680000 88 74 88
0.297893 0.842479 2.659000 90 76 86
0.295652 0.840762 2.639000 92 77 88
0.293412 0.838975 2.619000 92 77 90
0.289043 0.830998 2.580000 92 78 91
0.286802 0.829037 2.560000 92 75 93
0.284785 0.827658 2.542000 92 74 94
0.278624 0.814104 2.487000 92 76 95
0.278624 0.818457 2.487000 92 78 97
0.276607 0.816855 2.469000 91 76 100
0.270781 0.803882 2.417000 90 77 97
0.270781 0.808113 2.417000 89 75 95
0.268877 0.806631 2.400000 88 74 94
0.268877 0.810832 2.400000 86 73 94
0.263387 0.798393 2.351000 85 73 94
0.261595 0.797047 2.335000 88 73 94
0.259914 0.795988 2.320000 91 72 93
0.258122 0.794531 2.304000 90 70 93
0.254761 0.788166 2.274000 89 71 93
0.253080 0.786922 2.259000 88 72 94
0.251400 0.785625 2.244000 87 73 95
0.246582 0.774423 2.201000 85 73 96
0.245014 0.773326 2.187000 83 74 95
0.243558 0.772534 2.174000 85 74 94
0.241989 0.771340 2.160000 87 74 95
0.238964 0.765432 2.133000 89 74 97
0.237508 0.764479 2.120000 91 75 101
0.237508 0.768190 2.120000 90 76 105
0.236051 0.767167 2.107000 89 77 100
0.231794 0.756953 2.069000 89 75 95
0.231794 0.760575 2.069000 90 76 97
0.229105 0.755332 2.045000 90 74 100
0.227761 0.754459 2.033000 90 73 102
0.225072 0.749069 2.009000 91 74 104
0.223840 0.748465 1.998000 92 76 100
0.222496 0.747446 1.986000 91 76 97
0.221263 0.746763 1.975000 90 77 98
0.220031 0.746042 1.964000 90 76 100
0.217454 0.740703 1.941000 91 77 103
0.215101 0.736050 1.920000 91 77 107
0.213869 0.735175 1.909000 90 79 99
0.212749 0.734648 1.899000 89 78 92
0.339072 0.892020 2.980000 93 75 91
0.333383 0.882182 2.930000 90 76 93
0.327807 0.872472 2.881000 94 77 95
0.322460 0.863200 2.834000 98 76 94
0.319729 0.860809 2.810000 96 76 94
0.317226 0.858950 2.788000 94 76 92
0.312105 0.849887 2.743000 94 76 89
0.309716 0.848145 2.722000 94 76 90
0.307327 0.846330 2.701000 90 75 90
0.304937 0.844441 2.680000 86 76 88
0.302548 0.842479 2.659000 88 78 87
0.300272 0.840762 2.639000 91 76 89
0.297996 0.838975 2.619000 90 76 91
0.293559 0.830998 2.580000 90 75 92
0.291283 0.829037 2.560000 91 75 93
0.289235 0.827658 2.542000 93 74 93
0.282977 0.814104 2.487000 92 74 94
0.282977 0.818457 2.487000 91 76 95
0.280929 0.816855 2.469000 90 75 97
0.275012 0.803882 2.417000 89 75 96
0.275012 0.808113 2.417000 88 75 96
0.273078 0.806631 2.400000 88 73 95
0.273078 0.810832 2.400000 86 73 95
0.269323 0.803826 2.367000 84 72 94
0.267503 0.802508 2.351000 87 76 93
0.265682 0.801134 2.335000 90 73 92
0.262155 0.794531 2.304000 89 70 92
0.258741 0.788166 2.274000 89 71 92
0.257035 0.786922 2.259000 88 72 92
0.252028 0.775472 2.215000 87 72 94
0.248842 0.769497 2.187000 84 72 96
0.247363 0.768729 2.174000 81 73 97
0.247363 0.772534 2.174000 83 74 99
0.244291 0.766698 2.147000 86 73 95
0.242698 0.765432 2.133000 88 71 91
0.241219 0.764479 2.120000 90 74 95
0.239740 0.763479 2.107000 89 77 99
0.238374 0.762798 2.095000 88 74 97
0.235416 0.756953 2.069000 86 71 96
0.235416 0.760575 2.069000 84 73 97
0.232685 0.755332 2.045000 87 73 99
0.231320 0.754459 2.033000 90 72 100
0.228589 0.749069 2.009000 92 72 102
0.227337 0.748465 1.998000 95 74 98
0.225972 0.747446 1.986000 92 77 94
0.224720 0.746763 1.975000 90 76 96
0.222103 0.741484 1.952000 91 76 98
0.220852 0.740703 1.941000 92 76 100
0.218462 0.736050 1.920000 91 77 103
0.217211 0.735175 1.909000 90 77 99
0.216073 0.734648 1.899000 90 77 96
0.344288 0.892020 2.980000 93 74 93
0.338512 0.882182 2.930000 92 76 94
0.332851 0.872472 2.881000 93 76 95
0.327421 0.863200 2.834000 95 77 96
0.324648 0.860809 2.810000 94 76 98
0.319449 0.851864 2.765000 93 77 94
0.316907 0.849887 2.743000 94 76 91
0.314481 0.848145 2.722000 96 76 91
0.312055 0.846330 2.701000 92 76 91
0.309628 0.844441 2.680000 89 79 89
0.307202 0.842479 2.659000 89 76 88
0.304892 0.840762 2.639000 90 76 90
0.302581 0.838975 2.619000 90 75 92
0.300270 0.837117 2.599000 91 74 92
0.298075 0.835514 2.580000 93 74 93
0.295765 0.833518 2.560000 96 74 93
0.291490 0.825888 2.523000 93 74 93
0.287331 0.818457 2.487000 91 77 94
0.287331 0.822810 2.487000 90 74 95
0.279243 0.803882 2.417000 89 73 96
0.279243 0.808113 2.417000 88 73 97
0.277279 0.806631 2.400000 87 73 96
0.277279 0.810832 2.400000 86 71 96
0.277279 0.815033 2.400000 85 69 94
0.271618 0.802508 2.351000 87 72 92
0.269770 0.801134 2.335000 89 74 91
0.266188 0.794531 2.304000 90 71 91
0.257639 0.772916 2.230000 91 71 91
0.257639 0.776819 2.230000 89 72 91
0.255906 0.775472 2.215000 87 73 94
0.252671 0.769497 2.187000 85 72 97
0.251169 0.768729 2.174000 83 72 100
0.251169 0.772534 2.174000 85 73 104
0.248049 0.766698 2.147000 86 74 95
0.246432 0.765432 2.133000 88 72 86
0.244930 0.764479 2.120000 90 74 89
0.243428 0.763479 2.107000 90 75 93
0.242042 0.762798 2.095000 91 74 95
0.239038 0.756953 2.069000 89 72 97
0.239038 0.760575 2.069000 87 73 97
0.236265 0.755332 2.045000 87 74 98
0.234879 0.754459 2.033000 88 73 99
0.233492 0.753543 2.021000 88 73 100
0.231413 0.750338 2.003000 88 74 95
0.229449 0.747446 1.986000 88 75 91
0.228178 0.746763 1.975000 89 77 93
0.226907 0.746042 1.964000 90 76 96
0.224250 0.740703 1.941000 90 76 98
0.221823 0.736050 1.920000 90 76 100
0.220553 0.735175 1.909000 90 77 100
0.219397 0.734648 1.899000 90 76 100
0.352554 0.889279 3.006000 92 74 87
0.349505 0.886803 2.980000 94 74 90
0.346573 0.884537 2.955000 94 74 93
0.340709 0.874655 2.905000 94 76 93
0.337894 0.872472 2.881000 93 77 94
0.335079 0.870205 2.857000 93 76 94
0.332381 0.868161 2.834000 93 76 95
0.326986 0.858950 2.788000 93 77 92
0.324289 0.856704 2.765000 95 77 90
0.319246 0.848145 2.722000 98 76 90
0.316783 0.846330 2.701000 95 75 90
0.314320 0.844441 2.680000 92 76 89
0.311857 0.842479 2.659000 91 74 88
0.309511 0.840762 2.639000 90 75 89
0.307165 0.838975 2.619000 91 76 89
0.304820 0.837117 2.599000 92 75 90
0.304820 0.841667 2.599000 95 75 91
0.302591 0.840030 2.580000 99 74 90
0.295906 0.825888 2.523000 95 74 90
0.291684 0.818457 2.487000 92 75 91
0.291684 0.822810 2.487000 91 74 93
0.285468 0.809536 2.434000 90 72 94
0.283474 0.808113 2.417000 88 72 95
0.283474 0.812344 2.417000 87 73 97
0.281480 0.810832 2.400000 86 71 99
0.279604 0.809599 2.384000 86 70 93
0.277610 0.807970 2.367000 87 71 87
0.273857 0.801134 2.335000 89 72 88
0.268462 0.789358 2.289000 91 71 89
0.261542 0.772916 2.230000 94 72 90
0.261542 0.776819 2.230000 90 72 91
0.259783 0.775472 2.215000 87 72 93
0.256499 0.769497 2.187000 86 73 95
0.256499 0.773326 2.187000 86 72 98
0.254974 0.772534 2.174000 86 73 101
0.251808 0.766698 2.147000 87 73 95
0.250166 0.765432 2.133000 88 72 90
0.248641 0.764479 2.120000 90 73 91
0.247116 0.763479 2.107000 92 76 93
0.245709 0.762798 2.095000 94 73 96
0.244184 0.761709 2.082000 92 71 99
0.242660 0.760575 2.069000 90 73 98
0.241252 0.759764 2.057000 88 77 98
0.238437 0.754459 2.033000 87 74 102
0.237030 0.753543 2.021000 84 73 105
0.235623 0.752586 2.009000 81 73 101
0.232925 0.747446 1.986000 85 74 96
0.231635 0.746763 1.975000 89 75 97
0.230345 0.746042 1.964000 89 76 98
0.227647 0.740703 1.941000 89 76 99
0.225184 0.736050 1.920000 90 77 100
0.223894 0.735175 1.909000 91 76 99
0.221431 0.730393 1.888000 90 75 99
0.364125 0.894248 3.059000 90 72 85
0.361030 0.891957 3.033000 91 71 86
0.357816 0.889279 3.006000 94 74 87
0.354721 0.886803 2.980000 97 76 90
0.351745 0.884537 2.955000 95 75 94
0.345794 0.874655 2.905000 94 77 93
0.342937 0.872472 2.881000 93 76 93
0.340080 0.870205 2.857000 93 76 92
0.337342 0.868161 2.834000 93 76 92
0.331867 0.858950 2.788000 92 78 91
0.329129 0.856704 2.765000 94 76 90
0.326510 0.854689 2.743000 95 76 90
0.321511 0.846330 2.701000 93 75 90
0.319011 0.844441 2.680000 91 76 89
0.316511 0.842479 2.659000 89 75 89
0.314131 0.840762 2.639000 88 76 88
0.311750 0.838975 2.619000 89 76 87
0.309369 0.837117 2.599000 90 78 88
0.309369 0.841667 2.599000 93 74 90
0.304727 0.833518 2.560000 96 73 88
0.298180 0.819996 2.505000 94 74 87
0.296038 0.818457 2.487000 92 77 89
0.296038 0.822810 2.487000 92 74 92
0.291752 0.815191 2.451000 92 72 93
0.287705 0.808113 2.417000 90 72 94
0.285682 0.806631 2.400000 88 76 98
0.285682 0.810832 2.400000 87 73 102
0.281753 0.803826 2.367000 86 71 92
0.279849 0.802508 2.351000 86 71 82
0.277944 0.801134 2.335000 86 72 84
0.272469 0.789358 2.289000 88 73 87
0.265446 0.772916 2.230000 91 76 89
0.265446 0.776819 2.230000 89 73 91
0.263660 0.775472 2.215000 87 73 92
0.261994 0.774423 2.201000 85 72 94
0.260327 0.773326 2.187000 83 71 96
0.258780 0.772534 2.174000 85 72 98
0.255566 0.766698 2.147000 87 73 96
0.252352 0.760767 2.120000 88 73 94
0.250805 0.759791 2.107000 89 73 93
0.250805 0.763479 2.107000 90 73 93
0.249376 0.762798 2.095000 92 72 97
0.247829 0.761709 2.082000 91 73 101
0.246281 0.760575 2.069000 90 73 100
0.244853 0.759764 2.057000 89 74 99
0.243425 0.758912 2.045000 89 74 105
0.240568 0.753543 2.021000 87 73 111
0.239139 0.752586 2.009000 86 74 106
0.236402 0.747446 1.986000 87 74 102
0.235092 0.746763 1.975000 89 76 101
0.233783 0.746042 1.964000 89 76 101
0.231045 0.740703 1.941000 89 76 100
0.229855 0.740267 1.931000 91 75 100
0.227236 0.735175 1.909000 94 78 99
0.226046 0.734648 1.899000 91 75 99
0.372862 0.897030 3.087000 89 73 80
0.372862 0.902434 3.087000 90 74 84
0.363078 0.889279 3.006000 96 75 88
0.345081 0.865204 2.857000 94 76 93
0.345081 0.870205 2.857000 94 75 92
0.339404 0.860809 2.810000 93 77 91
0.333969 0.851864 2.765000 92 76 87
0.331312 0.849887 2.743000 92 74 84
0.328775 0.848145 2.722000 93 74 87
0.326239 0.846330 2.701000 92 75 90
0.321166 0.837824 2.659000 91 76 89
0.318750 0.836142 2.639000 88 77 88
0.318750 0.840762 2.639000 86 76 86
0.316335 0.838975 2.619000 87 75 84
0.313919 0.837117 2.599000 89 75 87
0.313919 0.841667 2.599000 91 73 90
0.309208 0.833518 2.560000 93 73 89
0.304739 0.825888 2.523000 92 74 89
0.302565 0.824381 2.505000 92 75 90
0.300391 0.822810 2.487000 93 74 91
0.296043 0.815191 2.451000 95 72 91
0.291936 0.808113 2.417000 92 71 92
0.289883 0.806631 2.400000 90 73 95
0.287950 0.805426 2.384000 88 74 98
0.285897 0.803826 2.367000 87 72 91
0.283964 0.802508 2.351000 85 71 85
0.282032 0.801134 2.335000 83 72 88
0.276476 0.789358 2.289000 85 75 91
0.272852 0.782967 2.259000 88 73 91
0.271040 0.781696 2.244000 87 72 92
0.269349 0.780723 2.230000 87 72 92
0.267538 0.779349 2.215000 83 73 93
0.264156 0.773326 2.187000 80 72 95
0.262585 0.772534 2.174000 83 72 97
0.259324 0.766698 2.147000 87 73 95
0.256063 0.760767 2.120000 87 76 93
0.254493 0.759791 2.107000 88 74 94
0.254493 0.763479 2.107000 89 73 95
0.253044 0.762798 2.095000 90 73 96
0.251473 0.761709 2.082000 90 76 98
0.249903 0.760575 2.069000 90 74 97
0.248454 0.759764 2.057000 90 73 96
0.247004 0.758912 2.045000 91 73 101
0.244105 0.753543 2.021000 91 72 107
0.242656 0.752586 2.009000 91 72 105
0.238549 0.743306 1.975000 90 73 103
0.237221 0.742604 1.964000 89 75 103
0.235771 0.741484 1.952000 89 77 104
0.233235 0.736887 1.931000 89 75 102
0.231906 0.736050 1.920000 93 72 100
0.230578 0.735175 1.909000 97 74 101
0.229370 0.734648 1.899000 91 75 102
0.350083 0.870205 2.857000 92 74 92
0.344323 0.860809 2.810000 92 76 91
0.338809 0.851864 2.765000 91 76 84
0.336114 0.849887 2.743000 92 75 78
0.333540 0.848145 2.722000 94 73 84
0.330967 0.846330 2.701000 92 74 91
0.325821 0.837824 2.659000 91 78 89
0.323370 0.836142 2.639000 89 76 88
0.320919 0.834390 2.619000 88 76 85
0.318469 0.832568 2.599000 88 75 82
0.318469 0.837117 2.599000 89 76 86
0.316140 0.835514 2.580000 90 74 90
0.313690 0.833518 2.560000 92 74 91
0.311484 0.832107 2.542000 91 74 92
0.306950 0.824381 2.505000 91 75 91
0.304745 0.822810 2.487000 91 74 90
0.298250 0.809536 2.434000 92 73 90
0.296167 0.808113 2.417000 90 72 90
0.294084 0.806631 2.400000 89 72 92
0.292123 0.805426 2.384000 87 73 94
0.288080 0.798393 2.351000 86 73 91
0.286119 0.797047 2.335000 85 71 89
0.284281 0.795988 2.320000 84 70 92
0.278645 0.784186 2.274000 85 71 95
0.276807 0.782967 2.259000 87 72 94
0.274969 0.781696 2.244000 87 72 93
0.273253 0.780723 2.230000 88 73 93
0.271415 0.779349 2.215000 85 72 93
0.269700 0.778276 2.201000 82 72 94
0.266391 0.772534 2.174000 84 72 96
0.263083 0.766698 2.147000 86 73 94
0.259774 0.760767 2.120000 87 74 92
0.258181 0.759791 2.107000 87 74 94
0.258181 0.763479 2.107000 88 73 97
0.255118 0.758065 2.082000 90 73 96
0.253525 0.756953 2.069000 90 74 96
0.252055 0.756164 2.057000 90 74 95
0.250584 0.755332 2.045000 90 73 94
0.249114 0.754459 2.033000 89 73 98
0.247643 0.753543 2.021000 89 72 103
0.244825 0.748465 1.998000 90 72 103
0.242007 0.743306 1.975000 88 73 104
0.240659 0.742604 1.964000 86 76 106
0.239188 0.741484 1.952000 87 75 108
0.237840 0.740703 1.941000 89 76 104
0.236615 0.740267 1.931000 91 74 101
0.233919 0.735175 1.909000 93 74 103
0.232694 0.734648 1.899000 90 74 105
0.343649 0.851864 2.765000 91 75 87
0.340915 0.849887 2.743000 93 77 83
0.338305 0.848145 2.722000 95 73 86
0.335695 0.846330 2.701000 93 73 89
0.333085 0.844441 2.680000 92 74 89
0.327989 0.836142 2.639000 91 73 88
0.325504 0.834390 2.619000 90 74 89
0.323018 0.832568 2.599000 89 74 89
0.320657 0.830998 2.580000 89 74 90
0.320657 0.835514 2.580000 90 75 92
0.318171 0.833518 2.560000 91 74 94
0.315934 0.832107 2.542000 90 73 96
0.311335 0.824381 2.505000 90 74 94
0.309098 0.822810 2.487000 90 75 92
0.302511 0.809536 2.434000 90 73 90
0.300398 0.808113 2.417000 89 73 89
0.298285 0.806631 2.400000 88 74 91
0.296297 0.805426 2.384000 87 76 93
0.292195 0.798393 2.351000 86 73 95
0.290207 0.797047 2.335000 85 71 97
0.286354 0.790498 2.304000 85 70 96
0.282625 0.784186 2.274000 85 68 95
0.280761 0.782967 2.259000 86 70 93
0.278897 0.781696 2.244000 87 71 92
0.277157 0.780723 2.230000 89 71 91
0.275292 0.779349 2.215000 87 70 91
0.275292 0.783226 2.215000 85 71 92
0.271812 0.777154 2.187000 85 71 94
0.268457 0.771340 2.160000 86 72 91
0.265101 0.765432 2.133000 86 74 89
0.263485 0.764479 2.120000 87 73 93
0.261870 0.763479 2.107000 88 72 97
0.260378 0.762798 2.095000 90 72 98
0.258762 0.761709 2.082000 90 73 99
0.257147 0.760575 2.069000 91 73 97
0.254164 0.755332 2.045000 89 73 95
0.252672 0.754459 2.033000 88 73 101
0.249690 0.749069 2.009000 88 74 107
0.248322 0.748465 1.998000 89 73 105
0.246831 0.747446 1.986000 86 74 104
0.245464 0.746763 1.975000 84 75 104
0.242605 0.741484 1.952000 86 74 104
0.239995 0.736887 1.931000 89 74 100
0.238628 0.736050 1.920000 89 74 96
0.237261 0.735175 1.909000 89 74 98
0.236018 0.734648 1.899000 88 76 101
0.348490 0.851864 2.765000 89 73 90
0.344330 0.846479 2.732000 91 73 89
0.343070 0.848145 2.722000 93 71 88
0.337776 0.839750 2.680000 92 72 88
0.335130 0.837824 2.659000 91 73 88
0.332609 0.836142 2.639000 91 72 89
0.330088 0.834390 2.619000 91 75 93
0.327568 0.832568 2.599000 89 73 97
0.327568 0.837117 2.599000 88 74 95
0.325173 0.835514 2.580000 89 74 94
0.322652 0.833518 2.560000 89 76 97
0.320383 0.832107 2.542000 88 73 101
0.315720 0.824381 2.505000 86 73 97
0.313452 0.822810 2.487000 87 73 94
0.304629 0.803882 2.417000 89 73 91
0.304629 0.808113 2.417000 88 74 88
0.302486 0.806631 2.400000 88 77 90
0.298327 0.799683 2.367000 86 75 92
0.296311 0.798393 2.351000 85 74 99
0.294294 0.797047 2.335000 86 71 106
0.290387 0.790498 2.304000 87 72 101
0.286606 0.784186 2.274000 88 70 96
0.284715 0.782967 2.259000 89 72 93
0.282825 0.781696 2.244000 89 71 91
0.281060 0.780723 2.230000 89 72 90
0.281060 0.784627 2.230000 87 71 89
0.279170 0.783226 2.215000 85 72 90
0.277405 0.782129 2.201000 85 72 92
0.272238 0.771340 2.160000 85 73 89
0.268835 0.765432 2.133000 86 73 86
0.267196 0.764479 2.120000 86 72 91
0.265558 0.763479 2.107000 87 72 97
0.265558 0.767167 2.107000 88 72 100
0.262407 0.761709 2.082000 88 72 103
0.259256 0.756164 2.057000 88 72 100
0.257744 0.755332 2.045000 88 72 97
0.254719 0.750005 2.021000 88 74 104
0.253206 0.749069 2.009000 88 74 111
0.251820 0.748465 1.998000 89 72 107
0.251820 0.751962 1.998000 87 74 104
0.248921 0.746763 1.975000 85 76 102
0.246022 0.741484 1.952000 86 75 100
0.244636 0.740703 1.941000 88 74 95
0.241989 0.736050 1.920000 88 72 91
0.240603 0.735175 1.909000 88 74 94
0.237956 0.730393 1.888000 88 74 97
0.353330 0.851864 2.765000 87 74 92
0.347835 0.843381 2.722000 89 72 89
0.347835 0.848145 2.722000 91 71 88
0.345151 0.846330 2.701000 91 72 88
0.342468 0.844441 2.680000 91 71 88
0.337229 0.836142 2.639000 91 69 88
0.334673 0.834390 2.619000 92 72 92
0.332117 0.832568 2.599000 90 71 95
0.329689 0.830998 2.580000 88 72 94
0.329689 0.835514 2.580000 88 71 92
0.327133 0.833518 2.560000 88 74 95
0.324833 0.832107 2.542000 85 73 97
0.320105 0.824381 2.505000 83 73 95
0.315505 0.816855 2.469000 85 73 93
0.308860 0.803882 2.417000 88 72 91
0.306688 0.802429 2.400000 88 74 88
0.304643 0.801253 2.384000 88 75 89
0.302471 0.799683 2.367000 86 76 90
0.300426 0.798393 2.351000 85 73 95
0.298381 0.797047 2.335000 87 69 101
0.294420 0.790498 2.304000 89 70 98
0.292503 0.789358 2.289000 90 71 95
0.290587 0.788166 2.274000 92 70 93
0.286753 0.781696 2.244000 90 71 91
0.286753 0.785625 2.244000 89 71 90
