ply
format ascii 1.0
element vertex 1265
property float x
property float y
property float z
property uchar red
property uchar green
property uchar blue
end_header
1.301143 0.413542 2.881000 133 87 64
1.311982 0.422072 2.905000 131 90 55
1.301143 0.423628 2.881000 130 92 54
1.301143 0.428671 2.881000 129 90 53
1.301143 0.433714 2.881000 128 88 53
1.290304 0.435103 2.857000 129 91 53
1.290304 0.440104 2.857000 131 92 44
1.301143 0.448844 2.881000 129 91 35
1.290304 0.450106 2.857000 128 93 38
1.290304 0.455107 2.857000 131 92 42
1.279917 0.456405 2.834000 135 90 42
1.290304 0.465110 2.857000 138 88 42
1.290304 0.470111 2.857000 141 88 45
1.290304 0.475112 2.857000 135 89 49
1.279917 0.476248 2.834000 129 91 52
1.290304 0.485114 2.857000 130 89 56
1.290304 0.490116 2.857000 131 89 61
1.290304 0.495117 2.857000 133 89 66
1.290304 0.500118 2.857000 135 89 59
1.290304 0.505119 2.857000 133 88 53
1.290304 0.510120 2.857000 131 88 53
1.290304 0.515122 2.857000 128 87 54
1.290304 0.520123 2.857000 126 85 53
1.279917 0.520896 2.834000 128 87 53
1.279917 0.525857 2.834000 131 89 57
1.279917 0.530818 2.834000 131 85 62
1.279917 0.535779 2.834000 131 83 58
1.279917 0.540740 2.834000 130 84 55
1.279917 0.545701 2.834000 128 86 57
1.279917 0.550662 2.834000 127 84 60
1.279917 0.555623 2.834000 126 83 53
1.279917 0.560584 2.834000 130 83 47
1.290304 0.570134 2.857000 134 85 49
1.290304 0.575136 2.857000 128 84 52
1.290304 0.580137 2.857000 123 86 65
1.290304 0.585138 2.857000 112 85 78
1.290304 0.590139 2.857000 102 85 58
1.290304 0.595140 2.857000 60 45 39
1.279917 0.595310 2.834000 18 7 20
1.279917 0.600271 2.834000 26 16 1
1.290304 0.610144 2.857000 34 30 20
1.301143 0.620313 2.881000 39 27 40
1.290304 0.620146 2.857000 44 23 34
1.311982 0.635650 2.905000 39 28 28
1.311982 0.640736 2.905000 34 34 22
0.981841 0.658367 2.174000 133 107 92
0.981841 0.662172 2.174000 131 110 90
0.981841 0.665978 2.174000 131 108 88
0.951582 0.656518 2.107000 133 110 100
0.946163 0.656446 2.095000 133 107 104
0.940292 0.656018 2.082000 133 108 104
0.929001 0.651741 2.057000 133 107 105
0.923581 0.651519 2.045000 133 107 104
0.923581 0.655098 2.045000 132 109 103
0.918162 0.654813 2.033000 130 112 100
0.912742 0.654486 2.021000 131 114 98
0.907323 0.654116 2.009000 132 115 98
0.907323 0.657633 2.009000 131 112 98
0.902355 0.657530 1.998000 130 108 100
0.891967 0.653418 1.975000 131 111 103
0.881580 0.649226 1.952000 131 117 104
0.876612 0.648965 1.941000 131 115 105
0.872096 0.649001 1.931000 131 115 105
0.852676 0.637854 1.888000 133 114 106
0.848159 0.637763 1.878000 135 115 106
0.843643 0.637637 1.868000 137 116 106
0.839127 0.637476 1.858000 140 117 104
0.839127 0.640729 1.858000 135 116 103
0.839127 0.643981 1.858000 130 116 103
0.839127 0.647233 1.858000 134 114 104
0.834610 0.646985 1.848000 137 113 103
0.830094 0.646701 1.838000 140 115 102
0.816997 0.639664 1.809000 142 119 96
0.808416 0.636079 1.790000 140 119 91
0.804351 0.635999 1.781000 138 118 99
0.800287 0.635887 1.772000 137 117 107
0.800287 0.638989 1.772000 137 117 108
0.796222 0.638829 1.763000 135 116 109
0.784028 0.632085 1.736000 134 117 110
0.780415 0.632197 1.728000 137 115 112
0.776350 0.631913 1.719000 140 115 108
0.772737 0.631967 1.711000 141 115 105
0.772737 0.634962 1.711000 142 115 106
0.768673 0.634602 1.702000 141 117 107
0.761447 0.631588 1.686000 141 120 110
0.753769 0.628141 1.669000 140 115 114
0.750156 0.628038 1.661000 139 104 113
0.746543 0.627906 1.653000 142 112 112
0.742930 0.627747 1.645000 145 116 113
0.739768 0.627943 1.638000 140 118 115
0.739768 0.630810 1.638000 136 120 112
0.729381 0.624780 1.615000 137 117 110
0.725768 0.624498 1.607000 138 118 110
0.715832 0.618723 1.585000 137 119 110
0.712671 0.618753 1.578000 137 121 113
0.709509 0.618758 1.571000 139 118 117
0.709509 0.621508 1.571000 141 117 119
0.702735 0.618298 1.556000 144 116 121
0.702735 0.621022 1.556000 147 117 121
0.696412 0.618133 1.542000 143 120 122
0.693702 0.618417 1.536000 139 122 123
0.690541 0.618275 1.529000 137 121 124
0.687379 0.618109 1.522000 135 120 126
0.681508 0.615471 1.509000 135 121 128
0.678347 0.615245 1.502000 134 122 122
0.675637 0.615406 1.496000 136 120 117
0.672476 0.615133 1.489000 138 121 119
0.669766 0.615250 1.483000 141 119 122
0.667056 0.615346 1.477000 144 119 122
0.663895 0.615003 1.470000 144 120 122
1.295305 -1.020241 2.857000 113 69 22
1.295305 -1.015239 2.857000 116 69 27
1.295305 -1.010238 2.857000 120 69 28
1.306186 -1.013681 2.881000 114 71 29
1.306186 -1.008638 2.881000 109 71 24
1.306186 -1.003595 2.881000 106 72 19
1.295305 -0.990233 2.857000 104 71 30
1.295305 -0.985232 2.857000 104 71 40
1.295305 -0.980231 2.857000 105 71 34
1.306186 -0.983422 2.881000 107 72 28
1.306186 -0.978379 2.881000 109 71 26
1.295305 -0.965228 2.857000 108 72 25
1.295305 -0.960226 2.857000 108 70 26
1.295305 -0.955225 2.857000 109 72 27
1.295305 -0.950224 2.857000 110 69 31
1.295305 -0.945223 2.857000 113 68 35
1.295305 -0.940222 2.857000 117 69 32
1.295305 -0.935220 2.857000 116 72 30
1.295305 -0.930219 2.857000 115 70 32
1.295305 -0.925218 2.857000 118 69 34
1.284878 -0.912809 2.834000 122 71 34
1.284878 -0.907848 2.834000 118 73 34
1.284878 -0.902887 2.834000 115 69 32
1.295305 -0.905213 2.857000 118 71 31
1.295305 -0.900212 2.857000 122 71 31
1.295305 -0.895211 2.857000 117 69 31
1.295305 -0.890210 2.857000 113 73 34
1.306186 -0.892645 2.881000 109 76 38
1.306186 -0.887602 2.881000 105 75 37
1.306186 -0.882558 2.881000 108 76 36
1.306186 -0.877515 2.881000 112 74 34
1.306186 -0.872472 2.881000 115 74 32
1.295305 -0.860203 2.857000 119 75 37
1.295305 -0.855202 2.857000 116 77 43
1.295305 -0.850200 2.857000 113 72 38
1.295305 -0.845199 2.857000 120 70 33
1.306186 -0.847256 2.881000 127 73 26
1.306186 -0.842213 2.881000 115 75 19
1.306186 -0.837170 2.881000 104 75 26
1.306186 -0.832126 2.881000 108 77 33
1.306186 -0.827083 2.881000 112 75 29
1.306186 -0.822040 2.881000 108 77 25
1.295305 -0.810191 2.857000 105 75 34
1.295305 -0.805190 2.857000 110 71 42
1.295305 -0.800189 2.857000 115 72 35
1.306186 -0.801867 2.881000 112 74 27
1.306186 -0.796824 2.881000 109 74 26
1.306186 -0.791781 2.881000 114 77 25
1.306186 -0.786738 2.881000 120 76 29
1.317068 -0.788206 2.905000 120 76 33
1.317068 -0.783121 2.905000 120 76 34
1.317068 -0.778036 2.905000 116 73 36
1.317068 -0.772951 2.905000 113 75 32
1.317068 -0.767866 2.905000 113 78 29
1.317068 -0.762780 2.905000 114 78 32
1.317068 -0.757695 2.905000 113 78 35
1.317068 -0.752610 2.905000 112 75 38
1.306186 -0.741349 2.881000 114 71 41
1.306186 -0.736306 2.881000 116 74 37
1.295305 -0.725171 2.857000 116 77 34
1.295305 -0.720170 2.857000 116 78 36
1.306186 -0.721176 2.881000 116 78 38
1.306186 -0.716133 2.881000 116 78 35
1.317068 -0.717014 2.905000 115 79 32
1.317068 -0.711928 2.905000 115 79 35
1.317068 -0.706843 2.905000 118 79 39
1.317068 -0.701758 2.905000 121 79 36
1.317068 -0.696673 2.905000 122 79 32
1.317068 -0.691588 2.905000 123 79 33
1.317068 -0.686502 2.905000 121 80 34
1.317068 -0.681417 2.905000 119 79 36
1.317068 -0.676332 2.905000 120 79 39
1.306186 -0.665701 2.881000 122 79 39
1.306186 -0.660658 2.881000 121 78 39
1.317068 -0.661076 2.905000 120 78 37
1.317068 -0.655991 2.905000 118 79 34
1.306186 -0.645528 2.881000 117 81 33
1.317068 -0.645821 2.905000 119 83 33
1.317068 -0.640736 2.905000 122 81 30
1.317068 -0.635650 2.905000 122 80 28
1.306186 -0.625356 2.881000 122 81 34
1.317068 -0.625480 2.905000 121 83 41
1.306186 -0.615269 2.881000 120 80 44
1.306186 -0.610226 2.881000 120 79 47
1.306186 -0.605183 2.881000 121 79 41
1.306186 -0.600140 2.881000 122 80 35
1.306186 -0.595096 2.881000 123 80 35
1.306186 -0.590053 2.881000 123 81 36
1.306186 -0.585010 2.881000 123 79 36
1.306186 -0.579967 2.881000 123 77 37
1.317068 -0.579713 2.905000 124 77 42
1.317068 -0.574628 2.905000 124 77 47
1.317068 -0.569543 2.905000 124 78 43
1.317068 -0.564457 2.905000 124 80 40
1.317068 -0.559372 2.905000 124 81 38
1.317068 -0.554287 2.905000 124 79 36
1.317068 -0.549202 2.905000 125 79 38
1.317068 -0.544117 2.905000 130 80 41
1.317068 -0.539032 2.905000 136 81 33
1.317068 -0.533946 2.905000 129 80 25
1.317068 -0.528861 2.905000 123 82 33
1.317068 -0.523776 2.905000 123 84 41
1.328402 -0.523154 2.930000 123 83 45
1.317068 -0.513605 2.905000 120 85 49
1.317068 -0.508520 2.905000 118 83 45
1.317068 -0.503435 2.905000 121 82 42
1.317068 -0.498350 2.905000 124 82 43
1.317068 -0.493265 2.905000 125 83 44
1.317068 -0.488179 2.905000 126 82 45
1.317068 -0.483094 2.905000 126 80 47
1.317068 -0.478009 2.905000 126 81 46
1.317068 -0.472924 2.905000 126 82 46
1.306186 -0.463974 2.881000 126 81 47
1.306186 -0.458930 2.881000 127 81 48
1.306186 -0.453887 2.881000 129 81 45
1.306186 -0.448844 2.881000 127 83 42
1.306186 -0.443801 2.881000 126 84 40
1.306186 -0.438758 2.881000 125 84 38
1.306186 -0.433714 2.881000 124 84 42
1.306186 -0.428671 2.881000 122 84 47
1.306186 -0.423628 2.881000 120 83 45
1.317068 -0.422072 2.905000 125 82 43
1.317068 -0.416987 2.905000 130 82 44
1.317068 -0.411901 2.905000 127 82 46
1.317068 -0.406816 2.905000 124 80 41
1.317068 -0.401731 2.905000 125 81 37
1.317068 -0.396646 2.905000 126 82 41
1.317068 -0.391561 2.905000 126 83 45
1.317068 -0.386475 2.905000 126 82 41
1.317068 -0.381390 2.905000 125 81 37
1.317068 -0.376305 2.905000 125 82 40
1.317068 -0.371220 2.905000 126 84 43
1.317068 -0.366135 2.905000 127 82 47
1.317068 -0.361049 2.905000 128 80 51
1.317068 -0.355964 2.905000 129 81 45
1.317068 -0.350879 2.905000 128 81 39
1.317068 -0.345794 2.905000 128 81 41
1.317068 -0.340709 2.905000 131 81 43
1.317068 -0.335623 2.905000 135 80 39
1.317068 -0.330538 2.905000 130 81 36
1.317068 -0.325453 2.905000 126 81 43
1.317068 -0.320368 2.905000 125 82 50
1.317068 -0.315282 2.905000 125 82 39
1.317068 -0.310197 2.905000 125 83 27
1.317068 -0.305112 2.905000 126 83 35
1.317068 -0.300027 2.905000 126 82 43
1.317068 -0.294942 2.905000 127 83 41
1.306186 -0.287462 2.881000 128 84 39
1.306186 -0.282419 2.881000 129 84 41
1.306186 -0.277375 2.881000 131 85 42
1.317068 -0.274601 2.905000 133 82 40
1.317068 -0.269516 2.905000 126 82 39
1.306186 -0.262246 2.881000 119 81 42
1.317068 -0.259345 2.905000 123 79 46
1.317068 -0.254260 2.905000 127 80 44
1.317068 -0.249175 2.905000 130 80 42
1.317068 -0.244090 2.905000 133 80 43
1.306186 -0.237030 2.881000 130 82 44
1.306186 -0.231987 2.881000 128 82 47
1.306186 -0.226944 2.881000 126 84 51
1.306186 -0.221900 2.881000 124 83 46
1.306186 -0.216857 2.881000 127 83 42
1.295305 -0.210049 2.857000 131 83 36
1.295305 -0.205048 2.857000 129 83 30
1.295305 -0.200047 2.857000 127 83 36
1.306186 -0.196684 2.881000 126 82 42
1.306186 -0.191641 2.881000 125 83 44
1.306186 -0.186598 2.881000 123 84 47
1.306186 -0.181555 2.881000 121 84 45
1.306186 -0.176512 2.881000 123 85 43
1.306186 -0.171468 2.881000 125 82 47
1.306186 -0.166425 2.881000 124 80 50
1.306186 -0.161382 2.881000 124 81 46
1.306186 -0.156339 2.881000 125 84 43
1.306186 -0.151296 2.881000 126 83 42
1.317068 -0.147471 2.905000 124 83 42
1.317068 -0.142386 2.905000 123 84 44
1.317068 -0.137300 2.905000 127 85 46
1.306186 -0.131123 2.881000 131 83 44
1.317068 -0.127130 2.905000 129 82 43
1.317068 -0.122045 2.905000 128 83 44
1.306186 -0.115993 2.881000 126 86 46
1.306186 -0.110950 2.881000 125 84 40
1.306186 -0.105907 2.881000 127 87 35
1.295305 -0.100024 2.857000 130 85 30
1.306186 -0.095821 2.881000 127 84 26
1.306186 -0.090777 2.881000 125 83 31
1.306186 -0.085734 2.881000 127 85 36
1.306186 -0.080691 2.881000 129 83 38
1.295305 -0.075018 2.857000 128 82 41
1.295305 -0.070016 2.857000 127 82 41
1.295305 -0.065015 2.857000 127 85 42
1.295305 -0.060014 2.857000 128 83 41
1.295305 -0.055013 2.857000 129 83 40
1.295305 -0.050012 2.857000 130 83 38
1.295305 -0.045011 2.857000 131 84 37
1.306186 -0.040345 2.881000 133 84 41
1.306186 -0.035302 2.881000 130 84 45
1.306186 -0.030259 2.881000 128 85 44
1.306186 -0.025216 2.881000 129 87 43
1.306186 -0.020173 2.881000 130 86 45
1.306186 -0.015129 2.881000 131 84 48
1.306186 -0.010086 2.881000 132 85 46
1.306186 -0.005043 2.881000 130 86 45
1.306186 -0.000000 2.881000 128 86 43
1.306186 0.005043 2.881000 127 86 42
1.306186 0.010087 2.881000 127 84 48
1.295305 0.015004 2.857000 128 83 54
1.295305 0.020005 2.857000 129 83 51
1.306186 0.025216 2.881000 130 84 47
1.306186 0.030259 2.881000 131 83 50
1.295305 0.035008 2.857000 130 84 53
1.295305 0.040010 2.857000 130 85 50
1.295305 0.045011 2.857000 129 86 47
1.295305 0.050012 2.857000 129 87 47
1.284878 0.054570 2.834000 129 88 47
1.284878 0.059531 2.834000 130 88 50
1.295305 0.065015 2.857000 129 88 53
1.295305 0.070017 2.857000 128 87 45
1.306186 0.075648 2.881000 130 87 38
1.306186 0.080691 2.881000 133 87 41
1.306186 0.085734 2.881000 131 89 44
1.306186 0.090777 2.881000 130 89 46
1.317068 0.096619 2.905000 131 90 49
1.317068 0.101704 2.905000 133 88 43
1.306186 0.105907 2.881000 134 86 38
1.295305 0.110026 2.857000 135 86 44
1.295305 0.115027 2.857000 138 87 51
1.306186 0.121037 2.881000 142 86 54
1.295305 0.125030 2.857000 138 86 58
1.295305 0.130031 2.857000 134 86 56
1.295305 0.135032 2.857000 135 87 54
1.295305 0.140033 2.857000 136 87 57
1.295305 0.145034 2.857000 134 89 60
1.295305 0.150035 2.857000 132 88 55
1.284878 0.153789 2.834000 133 88 50
1.284878 0.158749 2.834000 134 88 49
1.284878 0.163710 2.834000 132 89 49
1.284878 0.168671 2.834000 130 90 47
1.284878 0.173632 2.834000 130 92 45
1.284878 0.178593 2.834000 130 89 49
1.284878 0.183554 2.834000 130 88 53
1.284878 0.188515 2.834000 131 88 57
1.295305 0.195046 2.857000 131 87 61
1.295305 0.200047 2.857000 131 88 57
1.295305 0.205048 2.857000 131 90 53
1.295305 0.210050 2.857000 132 91 54
1.295305 0.215051 2.857000 131 93 55
1.306186 0.221900 2.881000 130 90 52
1.306186 0.226944 2.881000 132 89 50
1.306186 0.231987 2.881000 135 89 53
1.306186 0.237030 2.881000 134 89 56
1.306186 0.242073 2.881000 134 88 54
1.306186 0.247116 2.881000 133 88 53
1.306186 0.252160 2.881000 132 88 52
1.306186 0.257203 2.881000 131 88 51
1.306186 0.262246 2.881000 130 88 50
1.306186 0.267289 2.881000 126 87 49
1.306186 0.272332 2.881000 123 88 55
1.306186 0.277376 2.881000 125 91 61
1.295305 0.280066 2.857000 128 90 58
1.295305 0.285067 2.857000 131 89 55
1.295305 0.290068 2.857000 135 88 56
1.295305 0.295070 2.857000 134 88 58
1.295305 0.300071 2.857000 133 89 54
1.295305 0.305072 2.857000 132 91 50
1.295305 0.310073 2.857000 132 92 51
1.295305 0.315074 2.857000 131 91 53
1.295305 0.320076 2.857000 131 90 47
1.295305 0.325077 2.857000 132 89 41
1.284878 0.327421 2.834000 134 88 48
1.284878 0.332381 2.834000 133 89 55
1.284878 0.337343 2.834000 132 87 54
1.284878 0.342303 2.834000 132 86 54
1.284878 0.347264 2.834000 132 89 55
1.295305 0.355084 2.857000 132 91 56
1.295305 0.360085 2.857000 133 89 55
1.295305 0.365086 2.857000 133 88 54
1.295305 0.370087 2.857000 133 88 53
1.295305 0.375089 2.857000 132 90 53
1.295305 0.380090 2.857000 131 88 53
1.295305 0.385091 2.857000 131 87 53
1.295305 0.390092 2.857000 131 88 53
1.295305 0.395093 2.857000 130 91 52
1.295305 0.400094 2.857000 129 90 55
1.306186 0.408499 2.881000 129 88 58
1.306186 0.413542 2.881000 129 88 55
1.306186 0.418585 2.881000 128 90 53
1.306186 0.423628 2.881000 128 92 54
1.295305 0.425100 2.857000 126 92 55
1.295305 0.430101 2.857000 124 91 57
1.295305 0.435103 2.857000 128 94 58
1.284878 0.436561 2.834000 132 92 51
1.295305 0.445105 2.857000 131 91 43
1.284878 0.446483 2.834000 130 93 44
1.284878 0.451444 2.834000 133 93 44
1.284878 0.456405 2.834000 136 91 46
1.284878 0.461365 2.834000 140 87 48
1.284878 0.466326 2.834000 145 87 51
1.284878 0.471287 2.834000 135 88 54
1.284878 0.476248 2.834000 125 89 54
1.284878 0.481209 2.834000 127 88 54
1.284878 0.486170 2.834000 130 89 54
1.295305 0.495117 2.857000 131 90 53
1.295305 0.500118 2.857000 132 89 51
1.295305 0.505119 2.857000 132 91 49
1.295305 0.510120 2.857000 132 89 52
1.295305 0.515122 2.857000 130 88 54
1.295305 0.520123 2.857000 129 86 54
1.284878 0.520896 2.834000 130 85 55
1.284878 0.525857 2.834000 131 85 56
1.284878 0.530818 2.834000 131 84 57
1.284878 0.535779 2.834000 131 83 53
1.284878 0.540740 2.834000 129 83 48
1.284878 0.545701 2.834000 128 84 51
1.284878 0.550662 2.834000 127 84 54
1.284878 0.555623 2.834000 127 82 51
1.284878 0.560584 2.834000 132 81 48
1.284878 0.565545 2.834000 138 83 49
1.284878 0.570506 2.834000 130 85 50
1.284878 0.575467 2.834000 123 85 56
1.284878 0.580427 2.834000 120 83 63
1.284878 0.585388 2.834000 117 82 54
1.284878 0.590349 2.834000 74 78 46
1.284878 0.595310 2.834000 32 28 24
1.284878 0.600271 2.834000 33 9 2
1.284878 0.605232 2.834000 34 21 17
1.284878 0.610193 2.834000 42 27 33
1.295305 0.620146 2.857000 51 27 30
1.306186 0.630399 2.881000 45 30 27
1.306186 0.635442 2.881000 39 29 23
0.985647 0.658367 2.174000 135 107 95
0.943936 0.652373 2.082000 130 105 102
0.938042 0.651921 2.069000 128 107 101
0.932602 0.651741 2.057000 130 109 101
0.927161 0.651519 2.045000 133 109 102
0.927161 0.655098 2.045000 132 112 102
0.927161 0.658678 2.045000 131 112 100
0.921721 0.658372 2.033000 131 114 97
0.916280 0.658024 2.021000 131 114 97
0.900412 0.650104 1.986000 129 112 97
0.895425 0.649961 1.975000 128 109 96
0.890437 0.649779 1.964000 129 109 96
0.884997 0.649226 1.952000 130 112 100
0.880010 0.648965 1.941000 129 113 105
0.880010 0.652362 1.941000 129 114 108
0.855981 0.637854 1.888000 131 115 112
0.851447 0.637763 1.878000 134 115 108
0.846913 0.637637 1.868000 137 117 105
0.842379 0.637476 1.858000 141 117 104
0.842379 0.640729 1.858000 134 119 103
0.842379 0.643981 1.858000 127 117 104
0.837845 0.643750 1.848000 132 116 105
0.837845 0.646985 1.848000 137 114 105
0.833312 0.646701 1.838000 140 114 105
0.820164 0.639664 1.809000 144 117 101
0.811549 0.636079 1.790000 141 120 97
0.807469 0.635999 1.781000 138 119 101
0.803388 0.635887 1.772000 138 120 105
0.799308 0.635743 1.763000 139 117 105
0.795228 0.635568 1.754000 138 116 106
0.787067 0.632085 1.736000 137 116 105
0.775732 0.625977 1.711000 138 117 105
0.775732 0.628972 1.711000 139 116 105
0.775732 0.631967 1.711000 140 116 105
0.771652 0.631623 1.702000 142 116 106
0.768025 0.631619 1.694000 140 119 107
0.764398 0.631588 1.686000 138 119 112
0.764398 0.634539 1.686000 139 122 116
0.745809 0.621988 1.645000 140 112 115
0.745809 0.624867 1.645000 144 109 114
0.742636 0.625076 1.638000 149 114 114
0.742636 0.627943 1.638000 144 118 115
0.739009 0.627729 1.630000 139 119 111
0.732208 0.624780 1.615000 138 118 107
0.728581 0.624498 1.607000 138 118 108
0.725407 0.624579 1.600000 138 119 110
0.715433 0.618753 1.578000 138 119 114
0.712259 0.618758 1.571000 140 116 118
0.708632 0.618343 1.563000 142 116 119
0.702285 0.615516 1.549000 146 115 121
0.702285 0.618228 1.549000 151 116 121
0.693217 0.612922 1.529000 145 118 121
0.693217 0.615598 1.529000 140 121 120
0.690044 0.615444 1.522000 138 121 120
0.686870 0.615266 1.515000 137 121 119
0.684150 0.615471 1.509000 137 122 117
0.680976 0.615245 1.502000 138 121 117
0.678256 0.615406 1.496000 139 119 116
0.675082 0.615133 1.489000 140 120 118
0.672362 0.615250 1.483000 143 121 120
0.669642 0.615346 1.477000 147 120 120
0.666468 0.615003 1.470000 147 121 119
1.300306 -1.020241 2.857000 112 67 16
1.300306 -1.015239 2.857000 113 68 25
1.300306 -1.010238 2.857000 115 68 27
1.311230 -1.013681 2.881000 111 71 29
1.311230 -1.008638 2.881000 107 71 30
1.311230 -1.003595 2.881000 104 71 31
1.300306 -0.990233 2.857000 102 73 41
1.300306 -0.985232 2.857000 103 73 51
1.300306 -0.980231 2.857000 105 72 40
1.311230 -0.983422 2.881000 108 73 30
1.289839 -0.962418 2.834000 111 72 19
1.300306 -0.965228 2.857000 107 71 9
1.300306 -0.960226 2.857000 104 70 17
1.300306 -0.955225 2.857000 107 70 25
1.300306 -0.950224 2.857000 110 68 31
1.289839 -0.937613 2.834000 112 68 38
1.289839 -0.932652 2.834000 114 68 34
1.289839 -0.927692 2.834000 113 70 30
1.289839 -0.922731 2.834000 112 71 38
1.289839 -0.917770 2.834000 114 70 46
1.289839 -0.912809 2.834000 116 69 41
1.289839 -0.907848 2.834000 114 69 36
1.289839 -0.902887 2.834000 112 65 38
1.289839 -0.897926 2.834000 114 69 41
1.289839 -0.892965 2.834000 116 73 36
1.300306 -0.895211 2.857000 113 73 32
1.300306 -0.890210 2.857000 110 78 37
1.300306 -0.885209 2.857000 108 76 42
1.300306 -0.880208 2.857000 107 76 40
1.300306 -0.875206 2.857000 109 75 39
1.300306 -0.870205 2.857000 111 74 35
1.300306 -0.865204 2.857000 113 74 32
1.300306 -0.860203 2.857000 115 74 35
1.300306 -0.855202 2.857000 112 74 39
1.300306 -0.850200 2.857000 109 72 36
1.300306 -0.845199 2.857000 115 73 34
1.311230 -0.847256 2.881000 121 76 30
1.311230 -0.842213 2.881000 115 74 27
1.311230 -0.837170 2.881000 109 74 30
1.311230 -0.832126 2.881000 113 75 34
1.311230 -0.827083 2.881000 116 74 27
1.300306 -0.815192 2.857000 113 76 21
1.300306 -0.810191 2.857000 111 77 25
1.300306 -0.805190 2.857000 113 74 29
1.300306 -0.800189 2.857000 116 71 28
1.300306 -0.795187 2.857000 114 73 27
1.311230 -0.796824 2.881000 113 74 24
1.311230 -0.791781 2.881000 117 75 21
1.289839 -0.773903 2.834000 121 76 24
1.311230 -0.781695 2.881000 123 75 27
1.322153 -0.783121 2.905000 125 76 31
1.322153 -0.778036 2.905000 118 74 36
1.311230 -0.766565 2.881000 111 74 32
1.300306 -0.755178 2.857000 114 77 28
1.300306 -0.750177 2.857000 117 79 36
1.300306 -0.745176 2.857000 116 77 44
1.300306 -0.740175 2.857000 116 76 43
1.300306 -0.735173 2.857000 115 74 43
1.289839 -0.724294 2.834000 115 76 40
1.289839 -0.719333 2.834000 114 78 38
1.300306 -0.720170 2.857000 113 80 37
1.300306 -0.715169 2.857000 115 79 36
1.300306 -0.710167 2.857000 117 80 30
1.311230 -0.711090 2.881000 119 80 24
1.311230 -0.706047 2.881000 121 82 27
1.311230 -0.701004 2.881000 121 79 30
1.311230 -0.695960 2.881000 121 79 28
1.322153 -0.696673 2.905000 123 78 26
1.311230 -0.685874 2.881000 125 78 28
1.311230 -0.680831 2.881000 121 80 30
1.311230 -0.675788 2.881000 118 82 33
1.311230 -0.670744 2.881000 121 81 36
1.311230 -0.665701 2.881000 124 82 37
1.311230 -0.660658 2.881000 122 79 39
1.311230 -0.655615 2.881000 120 79 40
1.311230 -0.650572 2.881000 116 80 41
1.311230 -0.645528 2.881000 112 81 38
1.322153 -0.645821 2.905000 116 81 35
1.311230 -0.635442 2.881000 120 81 30
1.311230 -0.630399 2.881000 121 79 26
1.311230 -0.625356 2.881000 121 81 35
1.311230 -0.620312 2.881000 119 81 44
1.300306 -0.610144 2.857000 118 80 43
1.300306 -0.605143 2.857000 118 80 43
1.300306 -0.600141 2.857000 118 79 36
1.300306 -0.595140 2.857000 122 79 30
1.300306 -0.590139 2.857000 126 81 33
1.300306 -0.585138 2.857000 125 80 37
1.311230 -0.585010 2.881000 124 79 39
1.311230 -0.579967 2.881000 122 77 42
1.311230 -0.574924 2.881000 121 77 45
1.311230 -0.569880 2.881000 122 78 49
1.322153 -0.569543 2.905000 123 79 42
1.311230 -0.559794 2.881000 122 81 36
1.311230 -0.554751 2.881000 122 83 33
1.311230 -0.549708 2.881000 122 81 30
1.322153 -0.549202 2.905000 123 81 34
1.322153 -0.544117 2.905000 126 80 38
1.322153 -0.539032 2.905000 129 81 35
1.322153 -0.533946 2.905000 125 80 33
1.322153 -0.528861 2.905000 121 81 36
1.322153 -0.523776 2.905000 122 81 40
1.322153 -0.518691 2.905000 123 82 43
1.322153 -0.513605 2.905000 124 82 46
1.322153 -0.508520 2.905000 124 82 43
1.322153 -0.503435 2.905000 124 82 40
1.311230 -0.494233 2.881000 125 83 43
1.311230 -0.489190 2.881000 125 83 46
1.311230 -0.484146 2.881000 125 84 46
1.311230 -0.479103 2.881000 125 81 47
1.311230 -0.474060 2.881000 125 82 46
1.311230 -0.469017 2.881000 125 82 46
1.311230 -0.463974 2.881000 126 82 46
1.311230 -0.458930 2.881000 126 81 46
1.311230 -0.453887 2.881000 126 81 42
1.311230 -0.448844 2.881000 124 82 39
1.300306 -0.440104 2.857000 122 85 37
1.311230 -0.438758 2.881000 123 85 35
1.311230 -0.433714 2.881000 124 85 43
1.311230 -0.428671 2.881000 123 83 51
1.311230 -0.423628 2.881000 123 82 48
1.311230 -0.418585 2.881000 124 81 45
1.311230 -0.413542 2.881000 126 84 44
1.322153 -0.411901 2.905000 122 81 43
1.311230 -0.403455 2.881000 118 79 37
1.311230 -0.398412 2.881000 121 82 31
1.322153 -0.396646 2.905000 124 84 36
1.311230 -0.388326 2.881000 123 83 42
1.311230 -0.383282 2.881000 122 84 38
1.322153 -0.381390 2.905000 123 81 35
1.311230 -0.373196 2.881000 125 81 38
1.322153 -0.371220 2.905000 126 82 41
1.322153 -0.366135 2.905000 126 82 42
1.322153 -0.361049 2.905000 127 81 44
1.311230 -0.353023 2.881000 127 82 39
1.311230 -0.347980 2.881000 127 82 35
1.311230 -0.342937 2.881000 127 83 37
1.311230 -0.337894 2.881000 128 81 39
1.311230 -0.332851 2.881000 129 78 34
1.311230 -0.327807 2.881000 128 80 30
1.311230 -0.322764 2.881000 126 81 36
1.311230 -0.317721 2.881000 125 81 43
1.311230 -0.312678 2.881000 125 80 29
1.311230 -0.307635 2.881000 123 82 15
1.311230 -0.302591 2.881000 121 84 28
1.322153 -0.300027 2.905000 123 83 41
1.311230 -0.292505 2.881000 126 83 38
1.311230 -0.287462 2.881000 127 83 36
1.311230 -0.282419 2.881000 128 83 39
1.300306 -0.275065 2.857000 129 82 42
1.311230 -0.272332 2.881000 131 82 38
1.311230 -0.267289 2.881000 127 81 34
1.311230 -0.262246 2.881000 123 82 41
1.311230 -0.257203 2.881000 125 81 49
1.311230 -0.252160 2.881000 127 82 47
1.311230 -0.247116 2.881000 128 80 45
1.311230 -0.242073 2.881000 130 79 45
1.311230 -0.237030 2.881000 128 81 46
1.311230 -0.231987 2.881000 127 80 44
1.300306 -0.225053 2.857000 125 82 43
1.300306 -0.220052 2.857000 123 82 41
1.300306 -0.215051 2.857000 125 83 40
1.300306 -0.210049 2.857000 128 84 29
1.300306 -0.205048 2.857000 127 84 19
1.300306 -0.200047 2.857000 126 85 29
1.300306 -0.195046 2.857000 125 84 39
1.300306 -0.190045 2.857000 125 85 41
1.300306 -0.185044 2.857000 123 84 44
1.300306 -0.180042 2.857000 122 84 43
1.300306 -0.175041 2.857000 123 84 42
1.300306 -0.170040 2.857000 124 85 44
1.311230 -0.166425 2.881000 125 83 46
1.300306 -0.160038 2.857000 125 83 44
1.311230 -0.156339 2.881000 128 83 43
1.311230 -0.151296 2.881000 130 83 41
1.311230 -0.146252 2.881000 127 84 40
1.311230 -0.141209 2.881000 124 85 42
1.311230 -0.136166 2.881000 126 84 44
1.311230 -0.131123 2.881000 128 84 44
1.311230 -0.126080 2.881000 127 82 44
1.311230 -0.121037 2.881000 125 82 46
1.300306 -0.115027 2.857000 123 83 49
1.300306 -0.110026 2.857000 121 82 40
1.300306 -0.105025 2.857000 124 84 31
1.300306 -0.100024 2.857000 127 86 21
1.300306 -0.095022 2.857000 125 83 12
1.300306 -0.090021 2.857000 124 82 21
1.300306 -0.085020 2.857000 126 84 31
1.300306 -0.080019 2.857000 127 84 34
1.300306 -0.075018 2.857000 127 82 38
1.300306 -0.070016 2.857000 126 81 40
1.300306 -0.065015 2.857000 127 82 43
1.289839 -0.059531 2.834000 128 83 40
1.289839 -0.054570 2.834000 128 83 37
1.289839 -0.049609 2.834000 128 84 35
1.289839 -0.044648 2.834000 129 84 33
1.289839 -0.039687 2.834000 130 85 39
1.300306 -0.035008 2.857000 129 85 45
1.300306 -0.030007 2.857000 127 87 43
1.300306 -0.025006 2.857000 128 86 42
1.311230 -0.020173 2.881000 128 85 42
1.300306 -0.015003 2.857000 128 85 43
1.300306 -0.010002 2.857000 127 85 43
1.300306 -0.005001 2.857000 127 85 44
1.300306 -0.000000 2.857000 127 87 45
1.300306 0.005001 2.857000 124 87 46
1.300306 0.010002 2.857000 122 86 48
1.300306 0.015004 2.857000 125 84 51
1.300306 0.020005 2.857000 128 83 49
1.300306 0.025006 2.857000 128 83 48
1.300306 0.030007 2.857000 129 84 52
1.300306 0.035008 2.857000 129 84 57
1.300306 0.040010 2.857000 129 86 53
1.289839 0.044648 2.834000 129 86 49
1.289839 0.049609 2.834000 129 88 47
1.289839 0.054570 2.834000 129 87 46
1.289839 0.059531 2.834000 130 90 46
1.289839 0.064492 2.834000 129 88 46
1.300306 0.070017 2.857000 128 87 39
1.300306 0.075018 2.857000 129 86 33
1.300306 0.080019 2.857000 131 86 37
1.311230 0.085734 2.881000 129 88 41
1.311230 0.090777 2.881000 127 89 42
1.311230 0.095821 2.881000 129 90 43
1.311230 0.100864 2.881000 132 90 34
1.300306 0.105025 2.857000 133 87 26
1.300306 0.110026 2.857000 134 87 37
1.300306 0.115027 2.857000 135 86 48
1.300306 0.120028 2.857000 136 87 49
1.300306 0.125030 2.857000 134 86 50
1.289839 0.128984 2.834000 131 85 51
1.289839 0.133945 2.834000 131 86 53
1.289839 0.138906 2.834000 130 86 54
1.289839 0.143867 2.834000 131 87 55
1.289839 0.148828 2.834000 131 88 53
1.289839 0.153789 2.834000 131 88 51
1.289839 0.158749 2.834000 132 88 51
1.289839 0.163710 2.834000 130 89 52
1.289839 0.168671 2.834000 129 91 50
1.289839 0.173632 2.834000 129 90 48
1.289839 0.178593 2.834000 130 90 50
1.289839 0.183554 2.834000 130 89 52
1.289839 0.188515 2.834000 131 89 55
1.289839 0.193476 2.834000 131 88 59
1.289839 0.198437 2.834000 131 89 56
1.300306 0.205048 2.857000 131 89 53
1.300306 0.210050 2.857000 131 92 50
1.300306 0.215051 2.857000 131 91 47
1.300306 0.220052 2.857000 131 90 47
1.300306 0.225053 2.857000 134 89 48
1.300306 0.230054 2.857000 138 90 47
1.300306 0.235056 2.857000 135 89 46
1.300306 0.240057 2.857000 133 90 49
1.311230 0.247116 2.881000 131 89 53
1.311230 0.252160 2.881000 129 89 52
1.311230 0.257203 2.881000 130 89 51
1.300306 0.260061 2.857000 130 88 48
1.300306 0.265063 2.857000 128 87 46
1.300306 0.270064 2.857000 126 87 55
1.300306 0.275065 2.857000 127 89 65
1.300306 0.280066 2.857000 128 90 60
1.300306 0.285067 2.857000 131 89 55
1.300306 0.290068 2.857000 133 87 58
1.300306 0.295070 2.857000 132 89 62
1.300306 0.300071 2.857000 132 91 67
1.300306 0.305072 2.857000 131 91 73
1.289839 0.307577 2.834000 131 94 64
1.289839 0.312538 2.834000 130 92 55
1.289839 0.317499 2.834000 129 92 43
1.289839 0.322460 2.834000 133 90 31
1.289839 0.327421 2.834000 137 88 42
1.289839 0.332381 2.834000 134 88 54
1.289839 0.337343 2.834000 131 89 54
1.289839 0.342303 2.834000 131 88 54
1.289839 0.347264 2.834000 131 90 56
1.289839 0.352225 2.834000 131 89 58
1.289839 0.357186 2.834000 132 89 56
1.289839 0.362147 2.834000 132 89 55
1.289839 0.367108 2.834000 132 91 54
1.289839 0.372069 2.834000 130 88 54
1.289839 0.377030 2.834000 129 89 53
1.289839 0.381991 2.834000 129 87 53
1.289839 0.386952 2.834000 130 89 50
1.289839 0.391913 2.834000 127 89 48
1.289839 0.396873 2.834000 125 90 45
1.289839 0.401834 2.834000 127 89 43
1.289839 0.406795 2.834000 129 90 47
1.300306 0.415098 2.857000 129 91 51
1.300306 0.420099 2.857000 128 94 54
1.300306 0.425100 2.857000 128 92 58
1.289839 0.426639 2.834000 127 92 61
1.289839 0.431600 2.834000 131 92 64
1.289839 0.436561 2.834000 136 92 58
1.289839 0.441522 2.834000 133 93 52
1.289839 0.446483 2.834000 131 97 49
1.289839 0.451444 2.834000 133 94 47
1.289839 0.456405 2.834000 135 94 51
1.289839 0.461365 2.834000 138 89 55
1.289839 0.466326 2.834000 140 87 57
1.289839 0.471287 2.834000 135 88 60
1.289839 0.476248 2.834000 130 89 56
1.289839 0.481209 2.834000 131 89 53
1.289839 0.486170 2.834000 132 90 47
1.289839 0.491131 2.834000 132 89 41
1.289839 0.496092 2.834000 132 88 43
1.289839 0.501053 2.834000 132 91 46
1.289839 0.506014 2.834000 132 92 50
1.289839 0.510975 2.834000 130 89 55
1.289839 0.515935 2.834000 129 89 56
1.289839 0.520896 2.834000 132 85 57
1.289839 0.525857 2.834000 135 84 55
1.289839 0.530818 2.834000 132 85 53
1.289839 0.535779 2.834000 130 85 47
1.289839 0.540740 2.834000 128 85 42
1.289839 0.545701 2.834000 127 86 45
1.289839 0.550662 2.834000 124 84 49
1.289839 0.555623 2.834000 122 82 49
1.289839 0.560584 2.834000 127 82 49
1.289839 0.565545 2.834000 133 84 49
1.289839 0.570506 2.834000 128 85 49
1.289839 0.575467 2.834000 123 86 48
1.289839 0.580427 2.834000 121 83 48
1.289839 0.585388 2.834000 119 82 51
1.289839 0.590349 2.834000 82 63 54
1.289839 0.595310 2.834000 45 18 28
1.289839 0.600271 2.834000 34 13 3
1.289839 0.605232 2.834000 24 21 15
1.289839 0.610193 2.834000 34 25 27
1.289839 0.615154 2.834000 44 28 27
1.300306 0.625147 2.857000 40 29 27
1.300306 0.630149 2.857000 36 30 25
1.300306 0.635150 2.857000 30 24 23
0.947581 0.652373 2.082000 130 107 100
0.941664 0.651921 2.069000 129 109 99
0.936203 0.651741 2.057000 131 109 98
0.925279 0.647696 2.033000 133 111 100
0.925279 0.651254 2.033000 132 111 102
0.925279 0.654813 2.033000 132 111 99
0.919818 0.654486 2.021000 132 113 97
0.909350 0.650535 1.998000 133 117 96
0.903888 0.650104 1.986000 132 112 96
0.903888 0.653581 1.986000 130 109 92
0.898882 0.653418 1.975000 132 109 89
0.888414 0.649226 1.952000 135 111 97
0.888414 0.652643 1.952000 130 113 105
0.883407 0.652362 1.941000 126 116 112
0.878856 0.652382 1.931000 129 115 119
0.854734 0.637763 1.878000 132 114 111
0.850183 0.637637 1.868000 136 115 104
0.850183 0.640907 1.868000 139 117 103
0.845632 0.640729 1.858000 135 117 103
0.845632 0.643981 1.858000 130 117 104
0.841080 0.643750 1.848000 133 115 106
0.836529 0.643484 1.838000 135 114 107
0.831978 0.643183 1.828000 135 114 108
0.827882 0.643200 1.819000 136 116 106
0.819234 0.639633 1.800000 136 117 104
0.810587 0.635999 1.781000 137 119 103
0.806490 0.635887 1.772000 137 118 103
0.806490 0.638989 1.772000 137 118 103
0.802394 0.638829 1.763000 135 117 103
0.782369 0.625895 1.719000 134 117 100
0.778727 0.625977 1.711000 133 116 98
0.778727 0.628972 1.711000 131 117 102
0.774631 0.628643 1.702000 135 115 106
0.774631 0.631623 1.702000 139 114 107
0.770990 0.631619 1.694000 137 116 108
0.767349 0.631588 1.686000 136 118 113
0.763253 0.631152 1.677000 137 116 119
0.748689 0.621988 1.645000 139 113 118
0.748689 0.624867 1.645000 141 112 117
0.745503 0.625076 1.638000 144 113 116
0.745503 0.627943 1.638000 139 117 115
0.741862 0.627729 1.630000 135 122 110
0.735035 0.624780 1.615000 135 119 105
0.731394 0.624498 1.607000 136 117 107
0.731394 0.627311 1.607000 137 118 110
0.718195 0.618753 1.578000 138 120 114
0.715009 0.618758 1.571000 139 117 119
0.711368 0.618343 1.563000 140 116 120
0.704996 0.615516 1.549000 143 116 121
0.704996 0.618228 1.549000 146 117 120
0.695894 0.612922 1.529000 143 119 120
0.695894 0.615598 1.529000 140 123 118
0.692708 0.615444 1.522000 139 121 117
0.689522 0.615266 1.515000 139 121 112
0.686791 0.615471 1.509000 141 121 107
0.683605 0.615245 1.502000 144 123 111
0.680875 0.615406 1.496000 142 120 116
0.680875 0.618025 1.496000 140 120 117
0.677689 0.617739 1.489000 143 121 119
0.672227 0.615346 1.477000 145 121 118
0.666310 0.612493 1.464000 145 120 117
1.294799 -1.012027 2.834000 111 69 21
1.294799 -1.007066 2.834000 110 69 27
1.294799 -1.002105 2.834000 110 70 32
1.294799 -0.997144 2.834000 108 74 36
1.294799 -0.992183 2.834000 106 70 35
1.294799 -0.987223 2.834000 103 69 33
1.294799 -0.982262 2.834000 100 72 39
1.294799 -0.977301 2.834000 103 76 45
1.294799 -0.972340 2.834000 106 74 39
1.294799 -0.967379 2.834000 109 76 33
1.294799 -0.962418 2.834000 113 73 29
1.294799 -0.957457 2.834000 106 70 26
1.294799 -0.952496 2.834000 100 70 27
1.294799 -0.947535 2.834000 105 71 28
1.294799 -0.942574 2.834000 110 69 35
1.294799 -0.937613 2.834000 110 68 42
1.294799 -0.932652 2.834000 111 70 37
1.294799 -0.927692 2.834000 110 72 31
1.294799 -0.922731 2.834000 110 73 35
1.294799 -0.917770 2.834000 110 73 39
1.294799 -0.912809 2.834000 111 71 35
1.294799 -0.907848 2.834000 110 69 31
1.294799 -0.902887 2.834000 110 67 34
1.294799 -0.897926 2.834000 110 68 37
1.294799 -0.892965 2.834000 111 71 34
1.305308 -0.895211 2.857000 109 73 31
1.294799 -0.883043 2.834000 108 75 34
1.305308 -0.885209 2.857000 108 77 37
1.305308 -0.880208 2.857000 109 76 35
1.305308 -0.875206 2.857000 110 74 34
1.305308 -0.870205 2.857000 111 74 33
1.305308 -0.865204 2.857000 111 76 32
1.294799 -0.853278 2.834000 112 75 34
1.305308 -0.855202 2.857000 108 76 36
1.305308 -0.850200 2.857000 105 75 34
1.305308 -0.845199 2.857000 110 77 32
1.305308 -0.840198 2.857000 115 75 29
1.316273 -0.842213 2.881000 115 74 27
1.316273 -0.837170 2.881000 115 75 32
1.305308 -0.825195 2.857000 118 76 37
1.305308 -0.820193 2.857000 121 74 31
1.305308 -0.815192 2.857000 119 77 26
1.305308 -0.810191 2.857000 117 77 27
1.294799 -0.798708 2.834000 117 78 27
1.294799 -0.793747 2.834000 118 75 29
1.305308 -0.795187 2.857000 117 74 30
1.305308 -0.790186 2.857000 117 73 30
1.294799 -0.778864 2.834000 120 73 31
1.294799 -0.773903 2.834000 123 74 36
1.305308 -0.775183 2.857000 126 74 42
1.305308 -0.770182 2.857000 130 74 38
1.305308 -0.765180 2.857000 119 73 34
1.305308 -0.760179 2.857000 109 75 27
1.294799 -0.749098 2.834000 114 80 21
1.294799 -0.744138 2.834000 120 78 29
1.294799 -0.739177 2.834000 120 76 38
1.294799 -0.734216 2.834000 120 75 38
1.294799 -0.729255 2.834000 117 76 37
1.294799 -0.724294 2.834000 115 78 33
1.294799 -0.719333 2.834000 112 81 29
1.294799 -0.714372 2.834000 110 80 31
1.305308 -0.715169 2.857000 114 81 33
1.305308 -0.710167 2.857000 118 80 30
1.316273 -0.711090 2.881000 122 80 28
1.316273 -0.706047 2.881000 127 79 31
1.316273 -0.701004 2.881000 124 78 34
1.316273 -0.695960 2.881000 122 78 32
1.316273 -0.690917 2.881000 125 77 30
1.316273 -0.685874 2.881000 128 80 32
1.316273 -0.680831 2.881000 122 83 34
1.316273 -0.675788 2.881000 117 82 36
1.316273 -0.670744 2.881000 122 82 38
1.316273 -0.665701 2.881000 127 81 43
1.316273 -0.660658 2.881000 123 80 48
1.316273 -0.655615 2.881000 120 80 44
1.316273 -0.650572 2.881000 113 82 40
1.316273 -0.645528 2.881000 107 81 41
1.316273 -0.640485 2.881000 113 80 43
1.316273 -0.635442 2.881000 119 79 37
1.305308 -0.625147 2.857000 120 77 32
1.305308 -0.620146 2.857000 121 78 37
1.305308 -0.615145 2.857000 118 80 41
1.305308 -0.610144 2.857000 116 80 42
1.305308 -0.605143 2.857000 115 82 44
1.305308 -0.600141 2.857000 115 79 39
1.305308 -0.595140 2.857000 122 78 34
1.305308 -0.590139 2.857000 130 79 36
1.305308 -0.585138 2.857000 127 79 38
1.305308 -0.580137 2.857000 125 78 40
1.305308 -0.575136 2.857000 121 76 42
1.316273 -0.574924 2.881000 118 77 43
1.316273 -0.569880 2.881000 120 79 44
1.316273 -0.564837 2.881000 123 80 40
1.316273 -0.559794 2.881000 121 82 37
1.316273 -0.554751 2.881000 120 81 34
1.316273 -0.549708 2.881000 120 84 31
1.316273 -0.544665 2.881000 121 82 34
1.316273 -0.539621 2.881000 121 79 38
1.327238 -0.539032 2.905000 122 79 36
1.316273 -0.529535 2.881000 121 80 35
1.316273 -0.524492 2.881000 120 80 37
1.316273 -0.519449 2.881000 122 79 39
1.327238 -0.518691 2.905000 124 81 42
1.327238 -0.513605 2.905000 127 82 44
1.316273 -0.504319 2.881000 131 80 42
1.316273 -0.499276 2.881000 128 81 40
1.305308 -0.490115 2.857000 126 82 42
1.305308 -0.485114 2.857000 125 83 45
1.316273 -0.484146 2.881000 124 83 45
1.316273 -0.479103 2.881000 124 81 46
1.316273 -0.474060 2.881000 124 81 45
1.316273 -0.469017 2.881000 125 83 45
1.316273 -0.463974 2.881000 127 81 46
1.305308 -0.455107 2.857000 125 82 48
1.305308 -0.450106 2.857000 124 80 44
1.305308 -0.445105 2.857000 121 80 41
1.305308 -0.440104 2.857000 118 83 38
1.305308 -0.435102 2.857000 121 86 36
1.305308 -0.430101 2.857000 124 84 42
1.305308 -0.425100 2.857000 125 84 49
1.305308 -0.420099 2.857000 126 82 47
1.316273 -0.418585 2.881000 124 79 45
1.316273 -0.413542 2.881000 123 80 44
1.316273 -0.408498 2.881000 118 80 43
1.316273 -0.403455 2.881000 113 81 40
1.316273 -0.398412 2.881000 118 84 37
1.316273 -0.393369 2.881000 123 83 42
1.316273 -0.388326 2.881000 120 84 47
1.316273 -0.383282 2.881000 118 83 40
1.316273 -0.378239 2.881000 122 81 32
1.316273 -0.373196 2.881000 126 81 38
1.316273 -0.368153 2.881000 126 81 44
1.316273 -0.363110 2.881000 126 82 43
1.316273 -0.358066 2.881000 126 82 42
1.305308 -0.350082 2.857000 126 82 40
1.305308 -0.345081 2.857000 126 82 38
1.305308 -0.340080 2.857000 126 82 42
1.305308 -0.335079 2.857000 125 83 46
1.305308 -0.330078 2.857000 124 81 40
1.305308 -0.325077 2.857000 125 80 35
1.305308 -0.320075 2.857000 127 81 39
1.305308 -0.315074 2.857000 126 82 42
1.305308 -0.310073 2.857000 125 82 34
1.305308 -0.305072 2.857000 120 83 27
1.316273 -0.302591 2.881000 116 84 32
1.316273 -0.297548 2.881000 121 86 38
1.316273 -0.292505 2.881000 126 84 35
1.305308 -0.285067 2.857000 126 84 32
1.305308 -0.280066 2.857000 127 83 37
1.305308 -0.275065 2.857000 128 81 42
1.305308 -0.270064 2.857000 129 80 39
1.305308 -0.265062 2.857000 128 79 37
1.305308 -0.260061 2.857000 127 81 42
1.305308 -0.255060 2.857000 127 82 47
1.305308 -0.250059 2.857000 127 81 45
1.305308 -0.245058 2.857000 127 80 44
1.316273 -0.242073 2.881000 127 81 47
1.305308 -0.235055 2.857000 126 83 50
1.305308 -0.230054 2.857000 126 83 47
1.305308 -0.225053 2.857000 124 84 45
1.305308 -0.220052 2.857000 122 82 43
1.305308 -0.215051 2.857000 124 84 42
1.294799 -0.208358 2.834000 126 84 37
1.305308 -0.205048 2.857000 125 86 32
1.294799 -0.198437 2.834000 125 85 36
1.294799 -0.193476 2.834000 125 85 40
1.305308 -0.190045 2.857000 126 85 41
1.294799 -0.183554 2.834000 124 86 43
1.294799 -0.178593 2.834000 123 84 43
1.305308 -0.175041 2.857000 123 85 44
1.305308 -0.170040 2.857000 124 84 44
1.305308 -0.165039 2.857000 125 84 45
1.305308 -0.160038 2.857000 127 83 42
1.305308 -0.155036 2.857000 131 82 39
1.305308 -0.150035 2.857000 135 83 39
1.305308 -0.145034 2.857000 130 86 40
1.316273 -0.141209 2.881000 126 85 41
1.316273 -0.136166 2.881000 126 84 41
1.305308 -0.130031 2.857000 126 83 41
1.305308 -0.125029 2.857000 124 81 41
1.305308 -0.120028 2.857000 123 82 42
1.305308 -0.115027 2.857000 120 83 44
1.294799 -0.109140 2.834000 118 81 39
1.294799 -0.104179 2.834000 121 81 34
1.294799 -0.099218 2.834000 124 82 27
1.294799 -0.094257 2.834000 124 82 21
1.294799 -0.089296 2.834000 124 83 25
1.294799 -0.084336 2.834000 125 85 30
1.294799 -0.079375 2.834000 126 83 34
1.294799 -0.074414 2.834000 126 81 38
1.294799 -0.069453 2.834000 126 81 41
1.294799 -0.064492 2.834000 127 80 44
1.294799 -0.059531 2.834000 129 81 42
1.294799 -0.054570 2.834000 127 83 39
1.294799 -0.049609 2.834000 126 83 41
1.294799 -0.044648 2.834000 127 84 42
1.294799 -0.039687 2.834000 128 83 43
1.294799 -0.034726 2.834000 127 84 44
1.294799 -0.029765 2.834000 127 85 44
1.294799 -0.024804 2.834000 127 86 44
1.305308 -0.020005 2.857000 127 85 46
1.294799 -0.014883 2.834000 125 86 49
1.294799 -0.009922 2.834000 123 85 46
1.294799 -0.004961 2.834000 124 85 44
1.294799 -0.000000 2.834000 126 87 43
1.305308 0.005001 2.857000 121 89 43
1.294799 0.009922 2.834000 117 87 46
1.294799 0.014883 2.834000 122 87 49
1.294799 0.019844 2.834000 128 85 48
1.294799 0.024805 2.834000 127 84 47
1.294799 0.029766 2.834000 127 84 50
1.294799 0.034726 2.834000 128 84 53
1.294799 0.039687 2.834000 129 84 50
1.294799 0.044648 2.834000 129 86 48
1.294799 0.049609 2.834000 130 86 47
1.294799 0.054570 2.834000 130 85 46
1.294799 0.059531 2.834000 130 87 45
1.294799 0.064492 2.834000 129 87 45
1.294799 0.069453 2.834000 129 86 41
1.294799 0.074414 2.834000 129 85 37
1.305308 0.080019 2.857000 129 86 39
1.305308 0.085020 2.857000 127 89 41
1.316273 0.090777 2.881000 125 90 42
1.316273 0.095821 2.881000 128 92 44
1.305308 0.100024 2.857000 131 89 39
1.305308 0.105025 2.857000 132 88 35
1.294799 0.109140 2.834000 133 87 43
1.294799 0.114101 2.834000 132 86 51
1.294799 0.119062 2.834000 131 87 50
1.294799 0.124023 2.834000 130 88 49
1.294799 0.128984 2.834000 129 87 51
1.294799 0.133945 2.834000 127 86 53
1.294799 0.138906 2.834000 125 85 53
1.294799 0.143867 2.834000 128 86 53
1.294799 0.148828 2.834000 131 87 55
1.294799 0.153789 2.834000 130 89 56
1.294799 0.158749 2.834000 130 88 54
1.294799 0.163710 2.834000 129 89 51
1.294799 0.168671 2.834000 128 90 49
1.294799 0.173632 2.834000 129 90 47
1.294799 0.178593 2.834000 130 90 49
1.294799 0.183554 2.834000 130 89 50
1.294799 0.188515 2.834000 131 89 53
1.294799 0.193476 2.834000 131 89 57
1.294799 0.198437 2.834000 131 88 55
1.294799 0.203398 2.834000 131 87 53
1.294799 0.208359 2.834000 131 90 50
1.294799 0.213319 2.834000 132 92 48
1.294799 0.218280 2.834000 133 90 47
1.305308 0.225053 2.857000 137 89 46
1.305308 0.230054 2.857000 141 89 43
1.305308 0.235056 2.857000 136 90 41
1.305308 0.240057 2.857000 132 90 48
1.305308 0.245058 2.857000 129 91 55
1.305308 0.250059 2.857000 127 90 54
1.305308 0.255060 2.857000 129 91 52
1.305308 0.260061 2.857000 131 89 51
1.305308 0.265063 2.857000 130 88 50
1.305308 0.270064 2.857000 130 88 55
1.294799 0.272851 2.834000 129 89 59
1.294799 0.277811 2.834000 129 90 57
1.294799 0.282772 2.834000 130 90 55
1.294799 0.287733 2.834000 132 89 56
1.294799 0.292694 2.834000 131 91 58
1.294799 0.297655 2.834000 131 90 59
1.294799 0.302616 2.834000 130 89 60
1.294799 0.307577 2.834000 130 91 56
1.294799 0.312538 2.834000 128 91 53
1.294799 0.317499 2.834000 127 90 50
1.294799 0.322460 2.834000 133 92 47
1.283834 0.324648 2.810000 140 90 49
1.283834 0.329567 2.810000 135 89 52
1.294799 0.337343 2.834000 131 89 52
1.294799 0.342303 2.834000 131 88 53
1.294799 0.347264 2.834000 131 88 58
1.294799 0.352225 2.834000 131 89 63
1.294799 0.357186 2.834000 131 88 60
1.294799 0.362147 2.834000 131 89 57
1.294799 0.367108 2.834000 132 88 55
1.294799 0.372069 2.834000 129 85 53
1.294799 0.377030 2.834000 127 86 52
1.294799 0.381991 2.834000 128 86 52
1.294799 0.386952 2.834000 129 87 49
1.294799 0.391913 2.834000 125 88 47
1.294799 0.396873 2.834000 121 89 45
1.294799 0.401834 2.834000 125 91 44
1.294799 0.406795 2.834000 130 90 47
1.294799 0.411756 2.834000 129 90 50
1.294799 0.416717 2.834000 129 91 52
1.294799 0.421678 2.834000 130 91 54
1.283834 0.423026 2.810000 131 91 57
1.283834 0.427945 2.810000 135 91 59
1.283834 0.432864 2.810000 140 91 55
1.294799 0.441522 2.834000 136 93 51
1.294799 0.446483 2.834000 133 94 50
1.294799 0.451444 2.834000 134 94 48
1.294799 0.456405 2.834000 135 91 51
1.294799 0.461365 2.834000 135 88 55
1.294799 0.466326 2.834000 136 87 56
1.294799 0.471287 2.834000 135 89 57
1.294799 0.476248 2.834000 135 89 55
1.294799 0.481209 2.834000 135 90 53
1.294799 0.486170 2.834000 135 90 52
1.294799 0.491131 2.834000 133 91 51
1.294799 0.496092 2.834000 132 90 49
1.294799 0.501053 2.834000 132 93 48
1.294799 0.506014 2.834000 132 91 51
1.294799 0.510975 2.834000 131 88 54
1.294799 0.515935 2.834000 130 87 54
1.294799 0.520896 2.834000 134 84 54
1.294799 0.525857 2.834000 139 84 53
1.294799 0.530818 2.834000 134 88 52
1.294799 0.535779 2.834000 129 86 49
1.294799 0.540740 2.834000 127 86 46
1.294799 0.545701 2.834000 126 86 46
1.294799 0.550662 2.834000 121 86 47
1.283834 0.550917 2.810000 117 83 47
1.294799 0.560584 2.834000 122 82 48
1.294799 0.565545 2.834000 128 83 50
1.294799 0.570506 2.834000 125 85 52
1.294799 0.575467 2.834000 123 85 49
1.283834 0.575512 2.810000 122 84 46
1.294799 0.585388 2.834000 121 81 47
1.294799 0.590349 2.834000 89 77 49
1.294799 0.595310 2.834000 58 36 33
1.294799 0.600271 2.834000 36 5 18
1.294799 0.605232 2.834000 14 14 22
1.294799 0.610193 2.834000 25 25 26
1.294799 0.615154 2.834000 37 28 30
1.305308 0.625147 2.857000 35 30 34
1.305308 0.630149 2.857000 34 30 30
0.951225 0.652373 2.082000 130 109 101
0.945286 0.651921 2.069000 130 108 102
0.934321 0.647939 2.045000 131 107 103
0.928838 0.647696 2.033000 133 108 102
0.928838 0.651254 2.033000 133 110 102
0.923356 0.650948 2.021000 133 111 101
0.917873 0.650600 2.009000 134 112 101
0.912847 0.650535 1.998000 136 113 98
0.907365 0.650104 1.986000 134 111 96
0.902339 0.649961 1.975000 133 109 94
0.897313 0.649779 1.964000 136 109 92
0.891831 0.649226 1.952000 140 110 97
0.886805 0.648965 1.941000 131 114 102
0.886805 0.652362 1.941000 123 115 106
0.882236 0.652382 1.931000 127 116 111
0.858022 0.637763 1.878000 131 115 106
0.853453 0.637637 1.868000 134 113 102
0.848884 0.637476 1.858000 138 115 100
0.848884 0.640729 1.858000 136 118 98
0.844315 0.640515 1.848000 134 116 102
0.844315 0.643750 1.848000 134 113 106
0.839746 0.643484 1.838000 134 113 107
0.835178 0.643183 1.828000 131 114 108
0.826497 0.639664 1.809000 128 114 107
0.822385 0.639633 1.800000 132 115 106
0.817816 0.639213 1.790000 136 117 104
0.813704 0.639116 1.781000 135 116 103
0.809592 0.638989 1.772000 135 117 104
0.805480 0.638829 1.763000 133 118 104
0.785378 0.625895 1.719000 132 117 103
0.781723 0.625977 1.711000 128 115 103
0.781723 0.628972 1.711000 124 115 104
0.777611 0.628643 1.702000 130 115 106
0.777611 0.631623 1.702000 136 114 106
0.773956 0.631619 1.694000 135 113 105
0.770301 0.631588 1.686000 135 113 110
0.766189 0.631152 1.677000 136 111 115
0.762534 0.631062 1.669000 138 112 114
