ply
format ascii 1.0
element vertex 1264
property float x
property float y
property float z
property uchar red
property uchar green
property uchar blue
end_header
-0.668831 0.668831 1.920000 183 177 187
-0.668831 0.672192 1.920000 181 173 190
-0.657684 0.664294 1.888000 184 177 192
-0.657684 0.667599 1.888000 187 176 188
-0.654201 0.667350 1.878000 188 176 185
-0.650717 0.667067 1.868000 189 174 187
-0.647233 0.666748 1.858000 187 173 189
-0.640266 0.662788 1.838000 185 173 192
-0.636783 0.662382 1.828000 189 175 195
-0.633648 0.662305 1.819000 193 176 193
-0.630164 0.661831 1.809000 195 185 191
-0.627029 0.661689 1.800000 198 182 192
-0.623546 0.661146 1.790000 195 181 194
-0.617275 0.657600 1.772000 192 179 194
-0.614140 0.657346 1.763000 196 178 194
-0.609263 0.655188 1.749000 200 182 194
-0.607870 0.656744 1.745000 201 189 195
-0.604735 0.656396 1.736000 203 188 194
-0.601948 0.656396 1.728000 200 185 193
-0.598813 0.655986 1.719000 198 180 196
-0.596026 0.655928 1.711000 199 181 199
-0.592891 0.655457 1.702000 200 184 200
-0.590104 0.655342 1.694000 199 186 200
-0.584182 0.651701 1.677000 199 190 201
-0.581395 0.651513 1.669000 200 193 202
-0.575822 0.648161 1.653000 201 192 202
-0.573035 0.647904 1.645000 203 197 202
-0.570597 0.648014 1.638000 206 194 203
-0.570597 0.650882 1.638000 205 194 204
-0.567810 0.650556 1.630000 204 192 206
-0.565023 0.650202 1.622000 204 192 209
-0.562585 0.650223 1.615000 204 191 205
-0.557359 0.646985 1.600000 205 190 202
-0.549696 0.640851 1.578000 206 191 206
-0.549696 0.643613 1.578000 206 194 210
-0.547257 0.643508 1.571000 207 194 208
-0.544470 0.642968 1.563000 210 194 207
-0.539593 0.639920 1.549000 214 193 206
-0.539593 0.642631 1.549000 209 195 204
-0.537155 0.642427 1.542000 205 190 203
-0.535065 0.642616 1.536000 205 189 201
-1.069951 -0.178325 3.087000 113 53 17
-1.069951 -0.172921 3.087000 143 89 68
-1.069951 -0.167518 3.087000 126 127 120
-1.069951 -0.162114 3.087000 110 124 94
-1.069951 -0.156710 3.087000 72 34 68
-1.069951 -0.151306 3.087000 34 1 37
-1.069951 -0.145902 3.087000 44 11 6
-1.069951 0.043230 3.087000 88 48 23
-1.069951 0.048634 3.087000 89 45 19
-1.069951 0.054038 3.087000 90 45 18
-1.069951 0.059442 3.087000 90 46 18
-1.079656 0.065434 3.115000 91 48 17
-1.079656 0.070887 3.115000 91 46 17
-1.079656 0.076339 3.115000 91 46 19
-1.079656 0.081792 3.115000 94 43 21
-1.069951 0.086461 3.087000 96 39 28
-1.069951 0.091865 3.087000 92 41 35
-1.069951 0.097268 3.087000 88 45 27
-1.069951 0.102672 3.087000 87 44 20
-1.069951 0.108076 3.087000 86 42 24
-1.069951 0.113480 3.087000 86 41 29
-1.069951 0.118884 3.087000 86 40 23
-1.069951 0.124287 3.087000 87 42 17
-1.069951 0.129691 3.087000 89 41 14
-1.069951 0.135095 3.087000 90 41 12
-1.069951 0.140499 3.087000 90 41 16
-1.079656 0.147226 3.115000 86 38 21
-1.069951 0.151306 3.087000 82 37 27
-1.069951 0.156710 3.087000 85 41 34
-1.079656 0.163584 3.115000 89 41 29
-1.079656 0.169037 3.115000 87 41 24
-1.079656 0.174490 3.115000 85 41 31
-1.079656 0.179943 3.115000 87 44 38
-1.079656 0.185396 3.115000 90 46 48
-1.079656 0.190848 3.115000 87 52 59
-1.099412 0.199893 3.172000 84 56 52
-1.109463 0.207324 3.201000 82 54 46
-1.119861 0.214923 3.231000 80 55 45
-1.130606 0.222695 3.262000 80 54 44
-1.130606 0.228405 3.262000 80 54 49
-1.141351 0.236340 3.293000 82 53 54
-1.141351 0.242105 3.293000 83 53 50
-1.141351 0.247869 3.293000 79 51 46
-1.141351 0.253634 3.293000 75 51 45
-1.152095 0.261840 3.324000 74 49 45
-1.152095 0.267659 3.324000 72 46 49
-1.152095 0.273477 3.324000 73 44 53
-1.152095 0.279296 3.324000 74 42 47
-1.163533 0.287945 3.357000 73 43 42
-1.163533 0.293821 3.357000 73 46 42
-1.163533 0.299698 3.357000 73 44 42
-1.152095 0.302570 3.324000 74 44 43
-1.152095 0.308389 3.324000 75 45 44
-1.152095 0.314208 3.324000 76 45 42
-1.152095 0.320027 3.324000 77 46 41
-1.152095 0.325845 3.324000 79 47 42
-1.152095 0.331664 3.324000 78 47 43
-1.152095 0.337482 3.324000 78 50 44
-1.152095 0.343301 3.324000 77 51 46
-1.152095 0.349120 3.324000 76 52 45
-1.152095 0.354938 3.324000 78 50 45
-1.152095 0.360757 3.324000 80 48 48
-1.152095 0.366576 3.324000 78 46 52
-1.152095 0.372395 3.324000 76 45 49
-1.152095 0.378213 3.324000 79 44 46
-1.152095 0.384032 3.324000 83 47 47
-1.141351 0.386215 3.293000 78 47 49
-1.152095 0.395669 3.324000 74 45 44
-1.152095 0.401488 3.324000 74 47 39
-1.163533 0.411350 3.357000 74 47 41
-1.163533 0.417226 3.357000 74 47 44
-1.163533 0.423103 3.357000 73 47 42
-1.152095 0.424763 3.324000 73 46 40
-1.152095 0.430581 3.324000 72 47 42
-1.152095 0.436400 3.324000 69 49 45
-1.152095 0.442218 3.324000 66 48 45
-1.141351 0.443859 3.293000 68 47 45
-1.141351 0.449623 3.293000 70 49 44
-1.141351 0.455387 3.293000 67 48 44
-1.152095 0.465493 3.324000 64 47 46
-1.141351 0.466916 3.293000 67 46 49
-1.141351 0.472681 3.293000 71 45 44
-1.141351 0.478445 3.293000 71 47 39
-1.141351 0.484209 3.293000 72 49 39
-1.141351 0.489974 3.293000 73 45 39
-1.141351 0.495738 3.293000 73 42 40
-1.152095 0.506224 3.324000 71 44 42
-1.141351 0.507267 3.293000 69 48 36
-1.141351 0.513031 3.293000 68 45 31
-1.152095 0.523680 3.324000 68 44 29
-1.152095 0.529498 3.324000 68 42 27
-1.152095 0.535317 3.324000 69 42 26
-1.152095 0.541136 3.324000 67 39 25
-1.152095 0.546954 3.324000 66 39 29
-1.152095 0.552773 3.324000 62 38 34
-1.152095 0.558592 3.324000 58 41 31
-1.152095 0.564410 3.324000 63 40 29
-1.141351 0.564911 3.293000 68 39 30
-1.152095 0.576048 3.324000 60 39 31
-1.152095 0.581866 3.324000 51 39 28
-1.152095 0.587685 3.324000 56 41 26
-1.152095 0.593504 3.324000 62 44 24
-1.141351 0.593733 3.293000 57 42 22
-1.152095 0.605141 3.324000 53 40 26
-1.152095 0.610960 3.324000 61 37 31
-1.152095 0.616778 3.324000 69 34 25
-1.152095 0.622597 3.324000 64 33 19
-1.152095 0.628416 3.324000 59 30 20
-1.141351 0.628319 3.293000 57 28 22
-1.152095 0.640053 3.324000 54 28 27
-1.152095 0.645872 3.324000 56 27 32
-1.152095 0.651690 3.324000 58 23 27
-1.141351 0.651377 3.293000 55 25 22
-1.141351 0.657141 3.293000 53 29 19
-1.141351 0.662906 3.293000 55 24 16
-1.141351 0.668670 3.293000 57 19 17
-1.141351 0.674435 3.293000 52 21 18
-1.141351 0.680199 3.293000 46 21 15
-1.141351 0.685963 3.293000 45 17 13
-1.141351 0.691728 3.293000 44 17 12
-1.141351 0.697492 3.293000 41 18 12
-1.152095 0.709877 3.324000 37 17 11
-1.141351 0.709021 3.293000 42 15 10
-1.152095 0.721514 3.324000 47 13 11
-1.152095 0.756426 3.324000 25 6 16
-1.172198 0.775545 3.382000 24 6 10
-0.758012 0.696759 2.187000 167 151 158
-0.758012 0.700587 2.187000 166 150 159
-0.753506 0.700228 2.174000 166 150 161
-0.748654 0.699500 2.160000 169 153 164
-0.748654 0.703281 2.160000 173 155 167
-0.739296 0.698224 2.133000 175 158 170
-0.692505 0.682012 1.998000 180 168 182
-0.684533 0.677619 1.975000 185 169 181
-0.680721 0.677283 1.964000 186 167 181
-0.669283 0.669283 1.931000 188 166 184
-0.669283 0.672663 1.931000 187 171 188
-0.658192 0.664840 1.899000 185 175 193
-0.654379 0.664294 1.888000 186 176 199
-0.654379 0.667599 1.888000 188 178 193
-0.650913 0.667350 1.878000 189 176 188
-0.647447 0.667067 1.868000 190 174 189
-0.643981 0.666748 1.858000 189 174 190
-0.637049 0.662788 1.838000 187 171 190
-0.633583 0.662382 1.828000 190 173 191
-0.637049 0.669223 1.838000 194 174 191
-0.626998 0.661831 1.809000 196 181 192
-0.623878 0.661689 1.800000 198 183 194
-0.620412 0.661146 1.790000 199 182 197
-0.614173 0.657600 1.772000 200 182 196
-0.611054 0.657346 1.763000 200 181 195
-0.607935 0.657061 1.754000 201 184 196
-0.601696 0.653357 1.736000 202 187 198
-0.598923 0.653371 1.728000 204 191 197
-0.598923 0.656396 1.728000 199 186 197
-0.593031 0.652933 1.711000 194 183 198
-0.589912 0.652478 1.702000 199 182 200
-0.587139 0.652376 1.694000 205 184 200
-0.584366 0.652247 1.686000 203 187 200
-0.581246 0.651701 1.677000 201 191 201
-0.578474 0.651513 1.669000 201 193 203
-0.575701 0.651298 1.661000 201 196 202
-0.572928 0.651055 1.653000 203 196 202
-0.567729 0.648014 1.638000 205 196 204
-0.564956 0.647703 1.630000 204 194 206
-0.564956 0.650556 1.630000 203 192 210
-0.562184 0.650202 1.622000 204 191 214
-0.559757 0.650223 1.615000 205 190 207
-0.556985 0.649815 1.607000 206 190 200
-0.546933 0.640851 1.578000 208 194 206
-0.544507 0.640758 1.571000 208 195 213
-0.544507 0.643508 1.571000 208 195 210
-0.541734 0.642968 1.563000 208 193 207
-0.536882 0.639920 1.549000 209 192 205
-0.536882 0.642631 1.549000 205 192 204
-0.534456 0.642427 1.542000 200 191 203
-0.529950 0.639687 1.529000 200 190 202
-1.069375 -0.179134 3.101000 112 21 10
-1.064547 -0.172921 3.087000 143 69 53
-1.064547 -0.167518 3.087000 133 138 96
-1.074203 -0.163584 3.115000 123 106 94
-1.074203 -0.158131 3.115000 78 10 92
-1.064547 -0.151306 3.087000 33 6 47
-1.064547 -0.145902 3.087000 46 12 3
-1.064547 0.043230 3.087000 90 46 21
-1.064547 0.048634 3.087000 91 44 20
-1.064547 0.054038 3.087000 92 44 21
-1.064547 0.059442 3.087000 90 46 22
-1.074203 0.065434 3.115000 89 46 19
-1.074203 0.070887 3.115000 91 46 16
-1.074203 0.076339 3.115000 93 45 16
-1.074203 0.081792 3.115000 96 43 17
-1.074203 0.087245 3.115000 100 42 21
-1.074203 0.092698 3.115000 94 43 24
-1.064547 0.097268 3.087000 88 45 21
-1.064547 0.102672 3.087000 87 46 18
-1.064547 0.108076 3.087000 86 43 21
-1.064547 0.113480 3.087000 85 41 24
-1.064547 0.118884 3.087000 85 42 18
-1.074203 0.125415 3.115000 88 43 12
-1.064547 0.129691 3.087000 91 41 13
-1.064547 0.135095 3.087000 93 40 14
-1.074203 0.141773 3.115000 96 37 17
-1.074203 0.147226 3.115000 91 34 19
-1.074203 0.152679 3.115000 86 38 23
-1.074203 0.158132 3.115000 86 44 27
-1.074203 0.163584 3.115000 87 41 24
-1.083859 0.170557 3.143000 86 41 22
-1.083859 0.176058 3.143000 86 42 27
-1.093860 0.183235 3.172000 90 45 31
-1.083859 0.187062 3.143000 95 47 40
-1.083859 0.192564 3.143000 90 51 50
-1.093860 0.199893 3.172000 85 53 47
-1.103860 0.207324 3.201000 83 54 45
-1.114206 0.214923 3.231000 82 54 45
-1.124896 0.222695 3.262000 81 55 45
-1.124896 0.228405 3.262000 81 53 47
-1.135586 0.236340 3.293000 85 52 50
-1.135586 0.242105 3.293000 90 50 47
-1.146276 0.250202 3.324000 83 50 45
-1.146276 0.256021 3.324000 76 51 43
-1.146276 0.261840 3.324000 75 52 42
-1.146276 0.267659 3.324000 74 48 45
-1.146276 0.273477 3.324000 74 44 48
-1.157657 0.282069 3.357000 75 45 45
-1.157657 0.287945 3.357000 73 43 43
-1.157657 0.293821 3.357000 72 45 43
-1.157657 0.299698 3.357000 73 46 43
-1.157657 0.305574 3.357000 75 45 44
-1.146276 0.308389 3.324000 75 44 44
-1.146276 0.314208 3.324000 76 46 43
-1.146276 0.320027 3.324000 78 49 42
-1.146276 0.325845 3.324000 80 47 42
-1.146276 0.331664 3.324000 79 44 43
-1.146276 0.337482 3.324000 78 48 43
-1.146276 0.343301 3.324000 77 50 43
-1.146276 0.349120 3.324000 76 51 38
-1.146276 0.354938 3.324000 76 50 33
-1.146276 0.360757 3.324000 77 48 40
-1.146276 0.366576 3.324000 77 46 47
-1.146276 0.372395 3.324000 77 46 45
-1.135586 0.374686 3.293000 83 45 43
-1.146276 0.384032 3.324000 89 46 45
-1.135586 0.386215 3.293000 83 47 46
-1.146276 0.395669 3.324000 77 47 43
-1.146276 0.401488 3.324000 76 49 41
-1.157657 0.411350 3.357000 75 46 40
-1.157657 0.417226 3.357000 79 44 40
-1.157657 0.423103 3.357000 83 46 40
-1.157657 0.428979 3.357000 78 46 40
-1.157657 0.434856 3.357000 73 48 42
-1.157657 0.440732 3.357000 72 52 43
-1.157657 0.446609 3.357000 71 48 42
-1.146276 0.448037 3.324000 70 46 41
-1.146276 0.453856 3.324000 69 49 40
-1.157657 0.464238 3.357000 67 51 39
-1.157657 0.470114 3.357000 65 48 41
-1.157657 0.475991 3.357000 68 48 44
-1.146276 0.477130 3.324000 71 46 41
-1.146276 0.482949 3.324000 69 46 39
-1.146276 0.488768 3.324000 67 47 37
-1.146276 0.494586 3.324000 69 46 35
-1.146276 0.500405 3.324000 71 44 33
-1.146276 0.506224 3.324000 69 44 30
-1.146276 0.512042 3.324000 67 44 31
-1.146276 0.517861 3.324000 67 44 31
-1.146276 0.523680 3.324000 68 43 30
-1.157657 0.534755 3.357000 69 43 29
-1.146276 0.535317 3.324000 71 40 28
-1.146276 0.541136 3.324000 68 39 28
-1.146276 0.546954 3.324000 65 39 32
-1.146276 0.552773 3.324000 64 39 37
-1.146276 0.558592 3.324000 63 39 31
-1.146276 0.564410 3.324000 63 39 25
-1.146276 0.570229 3.324000 63 39 27
-1.146276 0.576048 3.324000 61 40 29
-1.146276 0.581866 3.324000 60 39 27
-1.146276 0.587685 3.324000 64 41 26
-1.146276 0.593504 3.324000 69 40 23
-1.146276 0.599322 3.324000 62 41 20
-1.146276 0.605141 3.324000 55 39 23
-1.146276 0.610960 3.324000 59 35 25
-1.146276 0.616778 3.324000 64 33 21
-1.146276 0.622597 3.324000 61 33 18
-1.146276 0.628416 3.324000 58 31 16
-1.146276 0.634234 3.324000 57 28 15
-1.146276 0.640053 3.324000 56 28 21
-1.157657 0.652284 3.357000 59 28 28
-1.157657 0.658160 3.357000 62 26 23
-1.157657 0.664037 3.357000 59 25 19
-1.146276 0.663328 3.324000 56 27 17
-1.146276 0.669146 3.324000 60 29 16
-1.146276 0.674965 3.324000 65 22 15
-1.146276 0.680784 3.324000 56 19 15
-1.146276 0.686602 3.324000 47 19 13
-1.146276 0.692421 3.324000 46 17 11
-1.146276 0.698240 3.324000 45 18 12
-1.146276 0.704058 3.324000 45 21 12
-1.146276 0.709877 3.324000 45 18 14
-1.146276 0.715696 3.324000 51 15 15
-1.146276 0.721514 3.324000 57 12 13
-1.146276 0.727333 3.324000 47 10 10
-1.157657 0.763936 3.357000 28 7 11
-1.192486 0.792973 3.458000 31 6 7
-1.204556 0.807114 3.493000 35 6 5
-1.192486 0.805080 3.458000 29 5 3
-0.749701 0.692617 2.174000 168 149 159
-0.749701 0.696423 2.174000 169 150 160
-0.744873 0.695719 2.160000 170 150 162
-0.744873 0.699500 2.160000 172 155 164
-0.735562 0.694490 2.133000 175 156 167
-0.733148 0.695933 2.126000 177 158 171
-0.696939 0.679250 2.021000 181 163 178
-0.696939 0.682788 2.021000 183 161 175
-0.692801 0.682250 2.009000 185 164 177
-0.689007 0.682012 1.998000 186 172 180
-0.681076 0.677619 1.975000 187 169 181
-0.677283 0.677283 1.964000 189 167 182
-0.665902 0.669283 1.931000 191 168 185
-0.665902 0.672663 1.931000 190 169 188
-0.665902 0.676043 1.931000 190 173 191
-0.654867 0.668164 1.899000 189 176 194
-0.651074 0.667599 1.888000 189 176 189
-0.647626 0.667350 1.878000 190 176 184
-0.644177 0.667067 1.868000 192 177 187
-0.637280 0.663160 1.848000 191 181 190
-0.633832 0.662788 1.838000 190 176 190
-0.630383 0.662382 1.828000 192 175 190
-0.633832 0.669223 1.838000 195 178 191
-0.623831 0.661831 1.809000 197 184 192
-0.620727 0.661689 1.800000 199 183 196
-0.614175 0.657822 1.781000 204 182 199
-0.611072 0.657600 1.772000 209 182 197
-0.607968 0.657346 1.763000 205 182 195
-0.604864 0.657061 1.754000 202 184 198
-0.598657 0.653357 1.736000 204 187 200
-0.595898 0.653371 1.728000 206 188 199
-0.592795 0.652977 1.719000 198 186 198
-0.590036 0.652933 1.711000 190 181 198
-0.586932 0.652478 1.702000 200 181 199
-0.586932 0.655457 1.702000 211 183 200
-0.584173 0.655342 1.694000 207 187 200
-0.581415 0.655198 1.686000 204 190 201
-0.578311 0.654636 1.677000 202 192 202
-0.572793 0.651298 1.661000 201 192 203
-0.570035 0.651055 1.653000 203 195 203
-0.567276 0.650783 1.645000 205 195 204
-0.564862 0.650882 1.638000 203 194 205
-0.562103 0.650556 1.630000 202 192 208
-0.554172 0.644189 1.607000 204 192 210
-0.551758 0.644184 1.600000 206 190 206
-0.546585 0.640919 1.585000 208 189 202
-0.544171 0.640851 1.578000 211 193 206
-0.538998 0.637495 1.563000 210 197 210
-0.541757 0.643508 1.571000 209 194 208
-0.538998 0.642968 1.563000 207 194 207
-0.534170 0.639920 1.549000 205 191 205
-0.534170 0.642631 1.549000 200 190 204
-0.534170 0.645343 1.549000 196 191 204
-0.531756 0.645126 1.542000 196 191 203
-1.068751 -0.179943 3.115000 101 25 4
-1.068751 -0.174490 3.115000 116 30 38
-1.068751 -0.169037 3.115000 130 109 72
-1.068751 -0.163584 3.115000 144 152 94
-1.068751 -0.158131 3.115000 91 67 116
-1.068751 -0.152679 3.115000 39 2 58
-1.068751 -0.147226 3.115000 47 7 1
-1.068751 -0.141773 3.115000 56 14 2
-1.059144 0.043230 3.087000 91 45 20
-1.059144 0.048634 3.087000 93 43 21
-1.068751 0.054528 3.115000 95 44 24
-1.059144 0.059442 3.087000 92 45 27
-1.068751 0.065434 3.115000 89 47 21
-1.068751 0.070887 3.115000 89 46 15
-1.068751 0.076339 3.115000 90 47 14
-1.068751 0.081792 3.115000 91 44 14
-1.068751 0.087245 3.115000 92 43 14
-1.068751 0.092698 3.115000 90 45 14
-1.059144 0.097268 3.087000 88 49 15
-1.059144 0.102672 3.087000 87 47 17
-1.059144 0.108076 3.087000 86 46 18
-1.059144 0.113480 3.087000 85 43 19
-1.059144 0.118884 3.087000 83 44 13
-1.068751 0.125415 3.115000 86 42 8
-1.068751 0.130867 3.115000 89 43 12
-1.068751 0.136320 3.115000 90 40 17
-1.068751 0.141773 3.115000 92 36 17
-1.078357 0.148549 3.143000 87 37 18
-1.078357 0.154051 3.143000 83 37 19
-1.078357 0.159553 3.143000 84 40 20
-1.078357 0.165055 3.143000 85 41 20
-1.088307 0.172130 3.172000 85 42 21
-1.088307 0.177683 3.172000 85 44 23
-1.088307 0.183235 3.172000 87 45 25
-1.088307 0.188788 3.172000 88 47 33
-1.088307 0.194341 3.172000 86 51 41
-1.098257 0.201721 3.201000 83 54 42
-1.098257 0.207324 3.201000 82 54 44
-1.108550 0.214923 3.231000 80 53 45
-1.119186 0.222695 3.262000 79 52 47
-1.119186 0.228405 3.262000 79 52 46
-1.129822 0.236340 3.293000 81 49 46
-1.140458 0.244384 3.324000 84 46 45
-1.140458 0.250202 3.324000 76 48 44
-1.140458 0.256021 3.324000 69 54 41
-1.151780 0.264439 3.357000 70 52 39
-1.151780 0.270316 3.357000 71 52 41
-1.151780 0.276192 3.357000 72 49 43
-1.151780 0.282069 3.357000 74 51 44
-1.151780 0.287945 3.357000 73 46 45
-1.151780 0.293821 3.357000 72 46 45
-1.151780 0.299698 3.357000 74 47 45
-1.151780 0.305574 3.357000 77 47 45
-1.151780 0.311451 3.357000 75 46 45
-1.151780 0.317327 3.357000 73 47 44
-1.151780 0.323204 3.357000 76 48 43
-1.140458 0.325845 3.324000 79 49 43
-1.140458 0.331664 3.324000 78 48 44
-1.140458 0.337482 3.324000 77 50 42
-1.151780 0.346709 3.357000 76 51 41
-1.151780 0.352586 3.357000 75 53 31
-1.151780 0.358462 3.357000 75 49 21
-1.140458 0.360757 3.324000 75 50 32
-1.140458 0.366576 3.324000 75 48 43
-1.140458 0.372395 3.324000 75 48 42
-1.140458 0.378213 3.324000 79 47 41
-1.140458 0.384032 3.324000 83 46 42
-1.140458 0.389850 3.324000 79 48 44
-1.140458 0.395669 3.324000 75 49 43
-1.151780 0.405474 3.357000 72 48 43
-1.163103 0.415394 3.390000 69 47 40
-1.163103 0.421328 3.390000 74 47 37
-1.151780 0.423103 3.357000 78 48 39
-1.151780 0.428979 3.357000 75 47 41
-1.151780 0.434856 3.357000 73 50 41
-1.151780 0.440732 3.357000 75 48 42
-1.151780 0.446609 3.357000 77 46 40
-1.151780 0.452485 3.357000 73 47 38
-1.151780 0.458362 3.357000 70 50 36
-1.151780 0.464238 3.357000 68 49 34
-1.151780 0.470114 3.357000 67 48 36
-1.151780 0.475991 3.357000 70 48 39
-1.140458 0.477130 3.324000 74 47 39
-1.140458 0.482949 3.324000 72 46 39
-1.129822 0.484209 3.293000 69 49 35
-1.140458 0.494586 3.324000 70 47 32
-1.140458 0.500405 3.324000 70 46 25
-1.140458 0.506224 3.324000 66 44 19
-1.140458 0.512042 3.324000 61 43 25
-1.140458 0.517861 3.324000 63 43 32
-1.151780 0.528879 3.357000 65 44 32
-1.151780 0.534755 3.357000 65 41 32
-1.151780 0.540632 3.357000 65 38 31
-1.140458 0.541136 3.324000 66 40 31
-1.140458 0.546954 3.324000 68 41 36
-1.140458 0.552773 3.324000 69 38 41
-1.140458 0.558592 3.324000 70 39 31
-1.140458 0.564410 3.324000 67 39 22
-1.140458 0.570229 3.324000 64 39 25
-1.140458 0.576048 3.324000 61 39 28
-1.140458 0.581866 3.324000 59 39 27
-1.140458 0.587685 3.324000 61 38 26
-1.140458 0.593504 3.324000 64 34 22
-1.140458 0.599322 3.324000 58 38 19
-1.140458 0.605141 3.324000 52 41 19
-1.140458 0.610960 3.324000 55 35 20
-1.140458 0.616778 3.324000 59 33 18
-1.140458 0.622597 3.324000 58 33 17
-1.151780 0.634654 3.357000 56 34 13
-1.140458 0.634234 3.324000 55 29 9
-1.151780 0.646407 3.357000 54 28 16
-1.151780 0.652284 3.357000 55 30 24
-1.151780 0.658160 3.357000 55 30 20
-1.151780 0.664037 3.357000 53 28 17
-1.140458 0.663328 3.324000 51 28 16
-1.140458 0.669146 3.324000 54 26 16
-1.140458 0.674965 3.324000 58 21 14
-1.129822 0.674435 3.293000 53 19 12
-1.140458 0.686602 3.324000 48 21 11
-1.140458 0.692421 3.324000 46 19 10
-1.140458 0.698240 3.324000 45 20 11
-1.140458 0.704058 3.324000 42 20 13
-1.140458 0.709877 3.324000 40 21 17
-1.140458 0.715696 3.324000 43 17 21
-1.140458 0.721514 3.324000 47 13 15
-1.140458 0.727333 3.324000 42 12 9
-1.140458 0.733152 3.324000 37 13 6
-1.140458 0.738970 3.324000 33 12 4
-1.140458 0.744789 3.324000 30 10 5
-1.174425 0.772963 3.423000 24 9 7
-1.186433 0.786920 3.458000 18 10 6
-1.186433 0.792973 3.458000 22 7 5
-1.186433 0.799026 3.458000 27 6 4
-1.186433 0.805080 3.458000 23 6 3
-1.186433 0.811133 3.458000 19 5 3
-0.736632 0.691532 2.147000 172 147 162
-0.736632 0.695290 2.147000 173 153 164
-0.731828 0.694490 2.133000 175 157 168
-0.727368 0.693968 2.120000 177 158 173
-0.722908 0.693401 2.107000 178 160 174
-0.693401 0.675712 2.021000 178 166 183
-0.693401 0.679250 2.021000 176 164 177
-0.689284 0.678734 2.009000 181 162 172
-0.689284 0.682250 2.009000 186 160 175
-0.685510 0.682012 1.998000 187 168 179
-0.673845 0.673845 1.964000 187 170 181
-0.673845 0.677283 1.964000 189 169 183
-0.662522 0.669283 1.931000 190 171 186
-0.662522 0.672663 1.931000 191 171 189
-0.658748 0.672192 1.920000 192 173 189
-0.651543 0.668164 1.899000 192 175 190
-0.647769 0.667599 1.888000 193 177 185
-0.644338 0.667350 1.878000 192 177 181
-0.644338 0.670638 1.878000 192 179 186
-0.634045 0.663160 1.848000 192 179 191
-0.627183 0.659182 1.828000 192 179 190
-0.627183 0.662382 1.828000 193 178 190
-0.620664 0.658664 1.809000 194 179 191
-0.617576 0.658538 1.800000 195 181 193
-0.617576 0.661689 1.800000 197 183 197
-0.611058 0.657822 1.781000 201 182 202
-0.607970 0.657600 1.772000 204 182 199
-0.604882 0.657346 1.763000 202 182 196
-0.601794 0.657061 1.754000 200 185 199
-0.595618 0.653357 1.736000 202 187 203
-0.592873 0.653371 1.728000 203 188 201
-0.587041 0.649938 1.711000 198 184 199
-0.583953 0.649499 1.702000 193 177 199
-0.583953 0.652478 1.702000 200 180 199
-0.581208 0.652376 1.694000 208 183 200
-0.581208 0.655342 1.694000 205 187 201
-0.578463 0.655198 1.686000 203 190 201
-0.572631 0.651513 1.669000 200 191 202
-0.569886 0.651298 1.661000 197 185 203
-0.564396 0.647904 1.645000 201 193 205
-0.561995 0.648014 1.638000 204 198 205
-0.559250 0.647703 1.630000 201 195 205
-0.551359 0.641376 1.607000 198 191 206
-0.551359 0.644189 1.607000 202 191 207
-0.548957 0.644184 1.600000 205 192 206
-0.543810 0.640919 1.585000 208 191 205
-0.541409 0.640851 1.578000 211 193 206
-0.539007 0.640758 1.571000 212 194 207
-0.536262 0.640232 1.563000 213 193 207
-0.533861 0.640088 1.556000 210 192 207
-0.531459 0.639920 1.549000 206 191 206
-0.529057 0.639727 1.542000 203 191 205
-0.526999 0.639927 1.536000 201 193 205
-0.524597 0.639687 1.529000 201 193 205
-1.053740 -0.178325 3.087000 89 18 14
-1.053740 -0.172921 3.087000 89 47 28
-1.053740 -0.167518 3.087000 127 119 42
-1.063298 -0.163584 3.115000 165 130 83
-1.063298 -0.158131 3.115000 105 106 125
-1.063298 -0.152679 3.115000 46 48 68
-1.063298 -0.147226 3.115000 49 1 11
-1.063298 -0.141773 3.115000 52 9 8
-1.063298 0.043623 3.115000 93 45 19
-1.063298 0.049075 3.115000 95 42 19
-1.063298 0.054528 3.115000 98 44 18
-1.063298 0.059981 3.115000 94 46 17
-1.063298 0.065434 3.115000 90 46 16
-1.063298 0.070887 3.115000 88 46 14
-1.063298 0.076339 3.115000 87 45 14
-1.063298 0.081792 3.115000 85 45 14
-1.063298 0.087245 3.115000 84 45 13
-1.063298 0.092698 3.115000 86 47 12
-1.063298 0.098151 3.115000 89 48 13
-1.053740 0.102672 3.087000 88 49 13
-1.053740 0.108076 3.087000 87 46 15
-1.063298 0.114509 3.115000 84 44 18
-1.063298 0.119962 3.115000 82 42 15
-1.063298 0.125415 3.115000 85 41 12
-1.063298 0.130867 3.115000 88 41 14
-1.063298 0.136320 3.115000 88 41 17
-1.063298 0.141773 3.115000 88 40 16
-1.072855 0.148549 3.143000 84 42 16
-1.072855 0.154051 3.143000 80 40 20
-1.072855 0.159553 3.143000 82 40 25
-1.082754 0.166578 3.172000 84 42 21
-1.082754 0.172130 3.172000 84 42 18
-1.092654 0.179307 3.201000 85 43 17
-1.092654 0.184911 3.201000 83 45 17
-1.092654 0.190514 3.201000 82 48 27
-1.092654 0.196117 3.201000 82 53 37
-1.092654 0.201721 3.201000 82 55 43
-1.102894 0.209267 3.231000 80 55 48
-1.102894 0.214923 3.231000 79 54 49
-1.124057 0.224812 3.293000 78 51 50
-1.124057 0.230576 3.293000 77 50 50
-1.134639 0.238565 3.324000 77 47 51
-1.134639 0.244384 3.324000 78 47 46
-1.145904 0.252686 3.357000 70 45 42
-1.145904 0.258563 3.357000 63 49 39
-1.145904 0.264439 3.357000 66 51 36
-1.145904 0.270316 3.357000 69 49 38
-1.145904 0.276192 3.357000 71 49 40
-1.145904 0.282069 3.357000 73 48 42
-1.145904 0.287945 3.357000 72 47 45
-1.145904 0.293821 3.357000 72 48 42
-1.145904 0.299698 3.357000 76 49 39
-1.145904 0.305574 3.357000 80 49 39
-1.145904 0.311451 3.357000 75 48 39
-1.134639 0.314208 3.324000 70 49 40
-1.134639 0.320027 3.324000 74 48 41
-1.134639 0.325845 3.324000 78 50 41
-1.134639 0.331664 3.324000 77 51 41
-1.145904 0.340833 3.357000 76 51 41
-1.145904 0.346709 3.357000 75 54 41
-1.145904 0.352586 3.357000 75 50 35
-1.145904 0.358462 3.357000 74 46 29
-1.134639 0.360757 3.324000 74 49 34
-1.134639 0.366576 3.324000 74 49 39
-1.134639 0.372395 3.324000 74 49 38
-1.134639 0.378213 3.324000 76 50 37
-1.134639 0.384032 3.324000 78 49 40
-1.134639 0.389850 3.324000 76 51 43
-1.134639 0.395669 3.324000 74 49 44
-1.145904 0.405474 3.357000 69 47 46
-1.157168 0.415394 3.390000 64 48 39
-1.157168 0.421328 3.390000 69 49 33
-1.145904 0.423103 3.357000 74 48 38
-1.157168 0.433196 3.390000 73 45 42
-1.145904 0.434856 3.357000 73 45 44
-1.145904 0.440732 3.357000 78 45 46
-1.145904 0.446609 3.357000 83 46 43
-1.145904 0.452485 3.357000 77 46 39
-1.145904 0.458362 3.357000 72 49 37
-1.157168 0.468802 3.390000 70 49 35
-1.157168 0.474736 3.390000 69 49 36
-1.157168 0.480670 3.390000 73 51 36
-1.145904 0.481867 3.357000 78 47 39
-1.134639 0.482949 3.324000 75 45 42
-1.134639 0.488768 3.324000 72 46 39
-1.134639 0.494586 3.324000 71 47 35
-1.134639 0.500405 3.324000 70 45 33
-1.134639 0.506224 3.324000 63 45 32
-1.134639 0.512042 3.324000 56 43 33
-1.145904 0.523002 3.357000 59 42 35
-1.145904 0.528879 3.357000 62 42 37
-1.145904 0.534755 3.357000 61 42 38
-1.145904 0.540632 3.357000 60 41 35
-1.145904 0.546508 3.357000 65 42 31
-1.145904 0.552384 3.357000 71 40 33
-1.145904 0.558261 3.357000 74 34 35
-1.145904 0.564137 3.357000 78 38 29
-1.145904 0.570014 3.357000 71 40 23
-1.134639 0.570229 3.324000 65 39 27
-1.134639 0.576048 3.324000 62 39 31
-1.134639 0.581866 3.324000 59 39 27
-1.134639 0.587685 3.324000 59 39 23
-1.134639 0.593504 3.324000 59 37 21
-1.134639 0.599322 3.324000 54 36 20
-1.134639 0.605141 3.324000 49 36 20
-1.134639 0.610960 3.324000 52 34 20
-1.134639 0.616778 3.324000 55 33 22
-1.145904 0.628778 3.357000 55 34 23
-1.145904 0.634654 3.357000 55 32 18
-1.145904 0.640531 3.357000 54 29 13
-1.145904 0.646407 3.357000 53 31 16
-1.145904 0.652284 3.357000 51 34 20
-1.145904 0.658160 3.357000 49 31 19
-1.145904 0.664037 3.357000 47 31 19
-1.145904 0.669913 3.357000 46 28 16
-1.134639 0.669146 3.324000 49 26 14
-1.134639 0.674965 3.324000 52 21 12
-1.134639 0.680784 3.324000 51 17 11
-1.134639 0.686602 3.324000 50 19 10
-1.134639 0.692421 3.324000 47 19 9
-1.134639 0.698240 3.324000 45 20 8
-1.134639 0.704058 3.324000 40 21 7
-1.134639 0.709877 3.324000 36 20 10
-1.134639 0.715696 3.324000 36 19 13
-1.134639 0.721514 3.324000 37 15 10
-1.134639 0.727333 3.324000 36 14 8
-1.134639 0.733152 3.324000 36 12 5
-1.134639 0.738970 3.324000 33 12 3
-1.134639 0.744789 3.324000 30 10 4
-1.145904 0.758059 3.357000 19 8 5
-1.157168 0.771446 3.390000 9 8 8
-1.180380 0.792973 3.458000 14 9 11
-1.180380 0.799026 3.458000 19 7 7
-1.180380 0.805080 3.458000 17 8 3
-1.180380 0.811133 3.458000 16 7 2
-0.719219 0.689713 2.107000 177 160 173
-0.715123 0.689452 2.095000 178 160 171
-0.706248 0.684517 2.069000 178 164 170
-0.698056 0.680157 2.045000 179 166 175
-0.689863 0.675712 2.021000 175 167 180
-0.689863 0.679250 2.021000 172 165 177
-0.689863 0.682788 2.021000 180 163 175
-0.682012 0.678515 1.998000 188 165 178
-0.677916 0.677916 1.986000 188 172 181
-0.670407 0.673845 1.964000 188 170 182
-0.670407 0.677283 1.964000 189 170 183
-0.659142 0.669283 1.931000 190 172 186
-0.655387 0.668831 1.920000 192 172 190
-0.655387 0.672192 1.920000 194 174 190
-0.651632 0.671683 1.909000 195 177 190
-0.644464 0.667599 1.888000 197 177 188
-0.641051 0.667350 1.878000 194 178 186
-0.637637 0.667067 1.868000 192 179 188
-0.634224 0.666748 1.858000 193 180 191
-0.627397 0.662788 1.838000 194 179 191
-0.623983 0.662382 1.828000 193 179 191
-0.620911 0.662305 1.819000 193 179 192
-0.614426 0.658538 1.800000 194 180 193
-0.611012 0.658013 1.790000 196 182 195
-0.607940 0.657822 1.781000 198 184 198
-0.604868 0.657600 1.772000 200 182 196
-0.601796 0.657346 1.763000 199 182 195
-0.598724 0.657061 1.754000 199 185 196
-0.592579 0.653357 1.736000 200 190 197
-0.589849 0.653371 1.728000 201 188 197
-0.584046 0.649938 1.711000 199 186 198
-0.580974 0.649499 1.702000 197 182 197
-0.580974 0.652478 1.702000 201 181 196
-0.578243 0.652376 1.694000 205 184 198
-0.575512 0.652247 1.686000 204 190 201
-0.572440 0.651701 1.677000 203 189 201
-0.569709 0.651513 1.669000 198 199 202
-0.566978 0.651298 1.661000 194 195 203
-0.564247 0.651055 1.653000 199 196 204
-0.559127 0.648014 1.638000 204 196 205
-0.556396 0.647703 1.630000 199 199 206
-0.548545 0.641376 1.607000 195 193 205
-0.546156 0.641383 1.600000 200 190 204
-0.543425 0.640963 1.592000 205 188 204
-0.541036 0.640919 1.585000 208 193 204
-0.538646 0.640851 1.578000 211 193 205
-0.536257 0.640758 1.571000 214 195 207
-0.533526 0.640232 1.563000 218 194 207
-0.531137 0.640088 1.556000 213 193 208
-0.528747 0.639920 1.549000 208 193 209
-0.526358 0.639727 1.542000 207 193 210
-0.524310 0.639927 1.536000 206 193 207
-0.521920 0.639687 1.529000 206 196 205
-1.048336 -0.172921 3.087000 86 24 18
-1.048336 -0.167518 3.087000 122 88 12
-1.057845 -0.163584 3.115000 158 144 73
-1.057845 -0.158131 3.115000 113 123 135
-1.057845 -0.152679 3.115000 68 83 78
-1.057845 -0.147226 3.115000 56 22 21
-1.057845 -0.141773 3.115000 45 4 14
-1.057845 -0.136320 3.115000 53 13 8
-1.057845 0.049075 3.115000 91 44 18
-1.067354 0.055018 3.143000 90 45 13
-1.057845 0.059981 3.115000 89 47 8
-1.067354 0.066022 3.143000 88 48 11
-1.057845 0.070887 3.115000 88 46 14
-1.057845 0.076339 3.115000 88 45 14
-1.057845 0.081792 3.115000 88 46 14
-1.057845 0.087245 3.115000 89 47 12
-1.057845 0.092698 3.115000 89 48 11
-1.057845 0.098151 3.115000 89 50 10
-1.057845 0.103603 3.115000 89 47 10
-1.057845 0.109056 3.115000 88 45 13
-1.057845 0.114509 3.115000 88 44 17
-1.057845 0.119962 3.115000 89 41 17
-1.067354 0.126542 3.143000 89 41 17
-1.057845 0.130867 3.115000 90 41 17
-1.057845 0.136320 3.115000 89 40 17
-1.067354 0.143047 3.143000 88 42 15
-1.067354 0.148549 3.143000 84 42 14
-1.077202 0.155472 3.172000 81 42 22
-1.077202 0.161025 3.172000 83 42 31
-1.077202 0.166578 3.172000 85 45 23
-1.077202 0.172130 3.172000 87 44 15
-1.087050 0.179307 3.201000 89 44 12
-1.087050 0.184911 3.201000 86 46 10
-1.087050 0.190514 3.201000 82 49 22
-1.087050 0.196117 3.201000 83 54 34
-1.087050 0.201721 3.201000 84 58 43
-1.097238 0.209267 3.231000 80 57 53
-1.097238 0.214923 3.231000 77 59 53
-1.107766 0.222695 3.262000 74 52 53
-1.107766 0.228405 3.262000 70 51 54
-1.128821 0.238565 3.324000 72 50 56
-1.128821 0.244384 3.324000 74 51 48
-1.140027 0.252686 3.357000 69 47 41
-1.140027 0.258563 3.357000 65 47 37
-1.140027 0.264439 3.357000 69 48 33
-1.140027 0.270316 3.357000 74 47 35
-1.140027 0.276192 3.357000 73 48 37
-1.140027 0.282069 3.357000 72 48 41
-1.140027 0.287945 3.357000 71 48 46
-1.140027 0.293821 3.357000 70 50 39
-1.140027 0.299698 3.357000 73 52 33
-1.140027 0.305574 3.357000 76 55 33
-1.140027 0.311451 3.357000 73 52 33
-1.140027 0.317327 3.357000 71 54 36
-1.140027 0.323204 3.357000 73 51 39
-1.140027 0.329080 3.357000 75 52 39
-1.140027 0.334957 3.357000 75 51 39
-1.140027 0.340833 3.357000 75 51 40
-1.140027 0.346709 3.357000 76 49 41
-1.140027 0.352586 3.357000 77 48 39
-1.140027 0.358462 3.357000 72 49 38
-1.140027 0.364339 3.357000 67 52 36
-1.140027 0.370215 3.357000 70 48 35
-1.140027 0.376092 3.357000 74 49 34
-1.151234 0.385723 3.390000 73 49 33
-1.151234 0.391657 3.390000 73 51 37
-1.140027 0.393721 3.357000 72 50 42
-1.151234 0.403525 3.390000 71 49 45
-1.162441 0.413445 3.423000 69 49 49
-1.151234 0.415394 3.390000 66 51 39
-1.151234 0.421328 3.390000 69 49 30
-1.140027 0.423103 3.357000 73 51 37
-1.140027 0.428979 3.357000 73 45 44
-1.151234 0.439131 3.390000 73 42 47
-1.140027 0.440732 3.357000 76 44 51
-1.140027 0.446609 3.357000 78 49 46
-1.140027 0.452485 3.357000 73 48 41
-1.140027 0.458362 3.357000 68 53 39
-1.162441 0.473365 3.423000 67 50 37
-1.151234 0.474736 3.390000 66 50 35
-1.151234 0.480670 3.390000 68 49 34
-1.151234 0.486604 3.390000 70 48 40
-1.140027 0.487744 3.357000 70 45 46
-1.151234 0.498472 3.390000 70 46 42
-1.140027 0.499497 3.357000 69 46 39
-1.140027 0.505373 3.357000 69 44 42
-1.140027 0.511249 3.357000 64 43 45
-1.140027 0.517126 3.357000 59 44 42
-1.140027 0.523002 3.357000 61 43 39
-1.140027 0.528879 3.357000 63 42 42
-1.151234 0.540012 3.390000 62 42 45
-1.140027 0.540632 3.357000 61 42 38
-1.140027 0.546508 3.357000 65 41 32
-1.140027 0.552384 3.357000 69 43 31
-1.140027 0.558261 3.357000 70 38 30
-1.140027 0.564137 3.357000 70 41 27
-1.140027 0.570014 3.357000 66 40 25
-1.140027 0.575890 3.357000 62 40 29
-1.128821 0.576048 3.324000 60 39 34
-1.140027 0.587643 3.357000 58 39 27
-1.140027 0.593519 3.357000 60 40 20
-1.140027 0.599396 3.357000 62 41 21
-1.140027 0.605272 3.357000 57 36 22
-1.128821 0.605141 3.324000 52 35 21
-1.140027 0.617025 3.357000 52 33 21
-1.128821 0.616778 3.324000 53 34 25
-1.140027 0.628778 3.357000 51 34 30
-1.140027 0.634654 3.357000 50 34 23
-1.140027 0.640531 3.357000 47 31 17
-1.140027 0.646407 3.357000 44 33 16
-1.140027 0.652284 3.357000 46 31 16
-1.140027 0.658160 3.357000 47 30 18
-1.140027 0.664037 3.357000 46 28 21
-1.140027 0.669913 3.357000 45 27 17
-1.140027 0.675789 3.357000 48 25 13
-1.140027 0.681666 3.357000 51 21 11
-1.128821 0.680784 3.324000 48 19 10
-1.128821 0.686602 3.324000 45 21 9
-1.128821 0.692421 3.324000 44 20 9
-1.128821 0.698240 3.324000 42 21 5
-1.128821 0.704058 3.324000 38 20 2
-1.128821 0.709877 3.324000 34 21 3
-1.128821 0.715696 3.324000 35 17 5
-1.128821 0.721514 3.324000 36 16 6
-1.128821 0.727333 3.324000 34 12 7
-1.128821 0.733152 3.324000 33 10 5
-1.140027 0.746306 3.357000 30 11 3
-1.140027 0.752183 3.357000 27 11 3
-1.151234 0.765511 3.390000 19 8 3
-1.151234 0.771446 3.390000 11 7 10
-1.174327 0.792973 3.458000 14 7 18
-1.174327 0.799026 3.458000 16 7 10
-1.174327 0.805080 3.458000 13 7 3
-1.174327 0.811133 3.458000 10 7 2
-1.174327 0.817186 3.458000 15 10 1
-0.719946 0.697679 2.120000 178 157 169
-0.711456 0.693119 2.095000 178 163 166
-0.690401 0.676166 2.033000 179 167 171
-0.686326 0.675712 2.021000 178 166 177
-0.682250 0.675217 2.009000 177 167 178
-0.682250 0.678734 2.009000 185 166 179
-0.678515 0.678515 1.998000 194 166 181
-0.670704 0.674161 1.975000 191 169 183
-0.662894 0.669727 1.952000 189 170 183
-0.659158 0.669351 1.941000 190 171 184
-0.655762 0.669283 1.931000 191 175 187
-0.655762 0.672663 1.931000 192 176 191
-0.652026 0.672192 1.920000 193 177 190
-0.648291 0.671683 1.909000 194 177 190
-0.644895 0.671488 1.899000 195 178 190
-0.637763 0.667350 1.878000 194 177 191
-0.634367 0.667067 1.868000 194 179 191
-0.630971 0.666748 1.858000 197 179 191
-0.624179 0.662788 1.838000 199 179 191
-0.620783 0.662382 1.828000 197 179 192
-0.617727 0.662305 1.819000 195 180 192
-0.611275 0.658538 1.800000 195 182 193
-0.604822 0.654705 1.781000 196 184 193
-0.604822 0.657822 1.781000 197 183 194
-0.601766 0.657600 1.772000 198 182 194
-0.598710 0.657346 1.763000 197 182 194
-0.595653 0.657061 1.754000 196 184 193
-0.589540 0.653357 1.736000 198 187 192
-0.586824 0.653371 1.728000 200 188 194
-0.581051 0.649938 1.711000 198 186 197
-0.577994 0.649499 1.702000 197 184 195
-0.575277 0.649411 1.694000 200 183 194
-0.575277 0.652376 1.694000 203 182 197
-0.572561 0.652247 1.686000 204 184 201
-0.569504 0.651701 1.677000 205 177 201
-0.566787 0.651513 1.669000 203 193 202
-0.561354 0.648161 1.653000 201 201 203
-0.561354 0.651055 1.653000 204 196 204
-0.556260 0.648014 1.638000 207 194 205
-0.545732 0.638563 1.607000 206 195 207
-0.543355 0.638582 1.600000 205 194 204
-0.540639 0.638176 1.592000 205 189 202
-0.540639 0.640963 1.592000 205 180 203
-0.538261 0.640919 1.585000 207 190 204
-0.535884 0.640851 1.578000 210 194 205
-0.533507 0.640758 1.571000 211 195 207
-0.533507 0.643508 1.571000 213 196 208
-0.528413 0.640088 1.556000 211 194 209
-0.523659 0.637028 1.542000 208 195 212
-0.521621 0.637238 1.536000 208 194 215
-0.519244 0.637011 1.529000 208 193 210
-0.519244 0.639687 1.529000 208 194 206
-1.042932 -0.167518 3.087000 117 68 15
-1.042932 -0.162114 3.087000 151 118 67
-1.052392 -0.158131 3.115000 120 160 119
-1.052392 -0.152679 3.115000 90 91 71
-1.052392 -0.147226 3.115000 64 1 24
-1.052392 -0.141773 3.115000 39 6 19
-1.052392 -0.136320 3.115000 52 18 14
-1.061852 0.055018 3.143000 82 46 14
-1.061852 0.060520 3.143000 84 49 11
-1.061852 0.066022 3.143000 86 48 13
-1.061852 0.071524 3.143000 88 47 15
-1.061852 0.077026 3.143000 90 47 15
-1.061852 0.082527 3.143000 92 49 15
-1.061852 0.088029 3.143000 94 47 14
-1.061852 0.093531 3.143000 92 49 14
-1.061852 0.099033 3.143000 90 48 13
-1.061852 0.104535 3.143000 90 46 13
-1.052392 0.109056 3.115000 90 46 15
-1.061852 0.115538 3.143000 93 46 17
-1.061852 0.121040 3.143000 96 44 17
-1.061852 0.126542 3.143000 94 42 17
-1.061852 0.132044 3.143000 92 40 18
-1.052392 0.136320 3.115000 90 38 19
-1.061852 0.143047 3.143000 88 41 17
-1.071649 0.149920 3.172000 85 42 15
-1.071649 0.155472 3.172000 83 43 21
-1.071649 0.161025 3.172000 85 44 27
-1.071649 0.166578 3.172000 87 46 21
-1.081447 0.173704 3.201000 90 48 16
-1.081447 0.179307 3.201000 94 47 14
-1.081447 0.184911 3.201000 88 47 12
-1.081447 0.190514 3.201000 83 50 21
-1.081447 0.196117 3.201000 84 56 30
-1.081447 0.201721 3.201000 86 58 39
-1.091582 0.209267 3.231000 81 59 47
-1.091582 0.214923 3.231000 76 55 48
-1.102055 0.222695 3.262000 70 49 48
-1.102055 0.228405 3.262000 64 50 48
-1.123002 0.238565 3.324000 67 51 47
-1.134151 0.246810 3.357000 71 49 44
-1.134151 0.252686 3.357000 69 45 41
-1.145300 0.261105 3.390000 67 46 38
-1.145300 0.267039 3.390000 73 47 35
-1.145300 0.272973 3.390000 80 48 34
-1.145300 0.278907 3.390000 75 50 33
-1.145300 0.284841 3.390000 71 50 36
-1.145300 0.290776 3.390000 70 50 39
-1.134151 0.293821 3.357000 69 50 35
-1.134151 0.299698 3.357000 71 54 32
-1.134151 0.305574 3.357000 73 54 29
-1.134151 0.311451 3.357000 72 54 26
-1.134151 0.317327 3.357000 72 53 35
-1.134151 0.323204 3.357000 72 52 43
-1.134151 0.329080 3.357000 72 52 41
-1.134151 0.334957 3.357000 73 53 38
-1.134151 0.340833 3.357000 74 50 38
-1.134151 0.346709 3.357000 76 46 37
-1.134151 0.352586 3.357000 79 47 36
-1.134151 0.358462 3.357000 70 51 36
-1.134151 0.364339 3.357000 61 48 33
-1.134151 0.370215 3.357000 67 45 30
-1.145300 0.379789 3.390000 74 46 27
-1.145300 0.385723 3.390000 71 49 25
-1.145300 0.391657 3.390000 68 49 31
-1.145300 0.397591 3.390000 68 50 37
-1.145300 0.403525 3.390000 69 50 39
-1.156449 0.413445 3.423000 69 52 41
-1.156449 0.419437 3.423000 69 49 37
-1.145300 0.421328 3.390000 70 47 34
-1.145300 0.427262 3.390000 72 45 38
-1.145300 0.433196 3.390000 73 43 42
-1.145300 0.439131 3.390000 74 42 42
-1.145300 0.445065 3.390000 74 42 42
-1.134151 0.446609 3.357000 74 45 41
-1.134151 0.452485 3.357000 69 47 40
-1.145300 0.462867 3.390000 65 49 37
-1.156449 0.473365 3.423000 64 49 34
-1.145300 0.474736 3.390000 63 48 34
-1.145300 0.480670 3.390000 63 49 33
-1.156449 0.491341 3.423000 63 47 36
-1.145300 0.492538 3.390000 65 44 39
-1.156449 0.503325 3.423000 68 45 37
-1.145300 0.504407 3.390000 68 47 35
-1.134151 0.505373 3.357000 68 44 37
-1.145300 0.516275 3.390000 65 42 39
-1.145300 0.522209 3.390000 62 43 37
-1.145300 0.528144 3.390000 63 44 35
-1.145300 0.534078 3.390000 65 42 36
-1.145300 0.540012 3.390000 63 42 38
-1.134151 0.540632 3.357000 62 41 35
-1.134151 0.546508 3.357000 65 39 32
-1.134151 0.552384 3.357000 68 38 34
-1.134151 0.558261 3.357000 65 34 36
-1.134151 0.564137 3.357000 63 36 30
-1.134151 0.570014 3.357000 61 39 25
-1.134151 0.575890 3.357000 60 37 26
-1.134151 0.581766 3.357000 59 38 27
-1.134151 0.587643 3.357000 58 38 22
-1.134151 0.593519 3.357000 62 41 17
-1.145300 0.605288 3.390000 66 39 22
-1.145300 0.611222 3.390000 60 34 27
-1.123002 0.605141 3.324000 55 33 23
-1.134151 0.617025 3.357000 53 32 19
-1.134151 0.622901 3.357000 51 33 18
-1.134151 0.628778 3.357000 48 34 17
-1.134151 0.634654 3.357000 46 31 16
-1.134151 0.640531 3.357000 41 29 15
-1.134151 0.646407 3.357000 36 30 16
-1.134151 0.652284 3.357000 41 29 16
-1.134151 0.658160 3.357000 46 27 20
-1.134151 0.664037 3.357000 45 26 23
-1.134151 0.669913 3.357000 45 26 17
-1.134151 0.675789 3.357000 47 26 12
-1.134151 0.681666 3.357000 50 21 11
-1.134151 0.687542 3.357000 45 18 11
-1.134151 0.693419 3.357000 41 19 10
-1.134151 0.699295 3.357000 40 21 9
-1.134151 0.705172 3.357000 40 18 10
-1.123002 0.704058 3.324000 36 17 11
-1.123002 0.709877 3.324000 33 16 9
-1.123002 0.715696 3.324000 34 14 8
-1.123002 0.721514 3.324000 35 12 6
-1.123002 0.727333 3.324000 32 9 5
-1.123002 0.733152 3.324000 30 9 5
-1.123002 0.738970 3.324000 27 11 4
-1.134151 0.752183 3.357000 24 9 4
-1.168273 0.780867 3.458000 19 9 3
-1.168273 0.786920 3.458000 14 7 8
-1.168273 0.792973 3.458000 14 5 13
-1.168273 0.799026 3.458000 14 5 8
-1.168273 0.805080 3.458000 9 7 3
-1.168273 0.811133 3.458000 5 7 2
-1.168273 0.817186 3.458000 12 11 2
-0.711843 0.693401 2.107000 178 161 173
-0.707788 0.693119 2.095000 179 164 172
-0.686842 0.676166 2.033000 180 165 175
-0.678734 0.671700 2.009000 181 166 178
-0.678734 0.675217 2.009000 183 167 179
-0.678734 0.678734 2.009000 191 168 179
-0.675017 0.678515 1.998000 200 168 181
-0.667247 0.674161 1.975000 195 170 184
-0.663531 0.673845 1.964000 190 170 184
-0.655760 0.669351 1.941000 191 172 184
-0.652382 0.669283 1.931000 193 176 187
-0.652382 0.672663 1.931000 193 181 190
-0.652382 0.676043 1.931000 193 176 189
-0.648665 0.675553 1.920000 193 176 188
-0.641571 0.671488 1.899000 193 176 189
-0.637854 0.670904 1.888000 195 176 191
-0.634476 0.670638 1.878000 197 178 191
-0.627719 0.666748 1.858000 201 181 192
-0.620962 0.662788 1.838000 205 180 193
-0.617583 0.662382 1.828000 201 179 194
-0.614543 0.662305 1.819000 197 181 195
-0.608124 0.658538 1.800000 197 185 196
-0.601705 0.654705 1.781000 197 184 195
-0.598664 0.654498 1.772000 197 184 195
-0.598664 0.657600 1.772000 197 183 196
-0.595623 0.657346 1.763000 195 180 198
-0.589542 0.653689 1.745000 194 183 196
-0.586502 0.653357 1.736000 196 189 195
-0.580758 0.649968 1.719000 199 187 196
-0.578055 0.649938 1.711000 198 186 198
-0.575015 0.649499 1.702000 197 186 197
-0.572312 0.649411 1.694000 199 185 197
-0.572312 0.652376 1.694000 201 186 199
-0.569609 0.652247 1.686000 204 189 202
-0.566569 0.651701 1.677000 207 187 202
-0.563866 0.651513 1.669000 208 197 203
-0.558460 0.648161 1.653000 209 194 204
-0.555758 0.647904 1.645000 209 196 205
-0.550690 0.644849 1.630000 210 195 206
-0.542919 0.638563 1.607000 213 194 207
-0.540554 0.638582 1.600000 216 193 205
-0.537852 0.638176 1.592000 210 192 203
-0.537852 0.640963 1.592000 205 191 204
-0.535487 0.640919 1.585000 207 196 205
-0.533122 0.640851 1.578000 209 195 205
-0.530757 0.640758 1.571000 209 196 206
-0.528054 0.640232 1.563000 209 196 206
-0.525689 0.640088 1.556000 209 195 206
-0.520959 0.637028 1.542000 209 195 208
-0.516567 0.634334 1.529000 210 196 210
-0.514202 0.634094 1.522000 211 194 207
-0.511837 0.633830 1.515000 211 194 205
-1.037528 -0.167518 3.087000 111 57 18
-1.046939 -0.163584 3.115000 145 100 60
-1.046939 -0.158131 3.115000 124 133 103
-1.046939 -0.152679 3.115000 104 121 65
-1.056350 -0.148549 3.143000 68 38 28
-1.046939 -0.141773 3.115000 31 1 24
-1.056350 -0.137545 3.143000 45 10 21
-1.075843 0.061637 3.201000 91 48 14
-1.075843 0.067240 3.201000 90 49 15
-1.066097 0.072184 3.172000 90 47 17
-1.066097 0.077736 3.172000 90 48 17
-1.066097 0.083289 3.172000 91 47 17
-1.066097 0.088841 3.172000 92 46 17
-1.066097 0.094394 3.172000 89 48 17
-1.066097 0.099947 3.172000 87 47 17
-1.066097 0.105499 3.172000 88 47 17
-1.066097 0.111052 3.172000 90 47 17
-1.066097 0.116604 3.172000 91 46 17
-1.066097 0.122157 3.172000 93 47 17
-1.066097 0.127710 3.172000 92 44 17
-1.066097 0.133262 3.172000 91 42 19
-1.066097 0.138815 3.172000 89 42 21
-1.066097 0.144367 3.172000 87 42 19
-1.066097 0.149920 3.172000 86 43 17
-1.066097 0.155472 3.172000 85 45 20
-1.075843 0.162497 3.201000 85 44 24
-1.075843 0.168101 3.201000 86 47 20
-1.075843 0.173704 3.201000 88 48 17
-1.075843 0.179307 3.201000 91 50 15
-1.085926 0.186644 3.231000 86 48 14
-1.085926 0.192300 3.231000 82 50 20
-1.075843 0.196117 3.201000 81 55 27
-1.085926 0.203611 3.231000 81 59 34
-1.085926 0.209267 3.231000 78 57 42
-1.085926 0.214923 3.231000 76 56 43
-1.096345 0.222695 3.262000 74 52 44
-1.106764 0.230576 3.293000 73 51 41
-1.117183 0.238565 3.324000 71 50 39
-1.128274 0.246810 3.357000 70 50 40
-1.128274 0.252686 3.357000 67 47 42
-1.139366 0.261105 3.390000 65 47 40
-1.139366 0.267039 3.390000 64 47 38
-1.139366 0.272973 3.390000 64 50 34
-1.139366 0.278907 3.390000 66 50 30
-1.139366 0.284841 3.390000 67 53 31
-1.139366 0.290776 3.390000 66 50 32
-1.139366 0.296710 3.390000 65 48 31
-1.139366 0.302644 3.390000 67 51 31
-1.128274 0.305574 3.357000 70 53 25
-1.128274 0.311451 3.357000 70 52 20
-1.128274 0.317327 3.357000 70 52 34
-1.128274 0.323204 3.357000 71 51 48
-1.128274 0.329080 3.357000 72 51 43
-1.128274 0.334957 3.357000 70 51 38
-1.128274 0.340833 3.357000 68 52 36
-1.139366 0.350118 3.390000 72 48 34
-1.139366 0.356052 3.390000 75 46 34
-1.139366 0.361986 3.390000 69 47 34
-1.139366 0.367920 3.390000 64 47 30
-1.139366 0.373854 3.390000 67 44 26
-1.139366 0.379789 3.390000 71 44 21
-1.139366 0.385723 3.390000 66 47 17
-1.139366 0.391657 3.390000 61 49 24
-1.139366 0.397591 3.390000 64 48 32
-1.139366 0.403525 3.390000 68 49 32
-1.150457 0.413445 3.423000 68 49 33
-1.150457 0.419437 3.423000 68 49 35
-1.150457 0.425429 3.423000 65 45 38
-1.150457 0.431421 3.423000 62 42 39
-1.150457 0.437413 3.423000 66 42 41
-1.150457 0.443405 3.423000 71 42 37
-1.139366 0.445065 3.390000 69 42 34
-1.139366 0.450999 3.390000 68 44 36
-1.139366 0.456933 3.390000 66 46 39
-1.139366 0.462867 3.390000 65 49 35
-1.150457 0.473365 3.423000 64 46 32
-1.139366 0.474736 3.390000 63 46 32
-1.139366 0.480670 3.390000 62 48 33
-1.150457 0.491341 3.423000 60 50 33
-1.139366 0.492538 3.390000 63 45 33
-1.150457 0.503325 3.423000 67 43 32
-1.150457 0.509317 3.423000 66 44 31
-1.139366 0.510341 3.390000 65 45 32
-1.150457 0.521301 3.423000 63 43 34
-1.150457 0.527293 3.423000 61 42 32
-1.150457 0.533285 3.423000 61 42 31
-1.139366 0.534078 3.390000 62 41 31
-1.139366 0.540012 3.390000 61 41 31
-1.139366 0.545946 3.390000 60 41 32
-1.128274 0.546508 3.357000 61 38 33
-1.128274 0.552384 3.357000 63 38 37
-1.128274 0.558261 3.357000 60 34 42
-1.128274 0.564137 3.357000 57 32 33
-1.128274 0.570014 3.357000 57 32 25
-1.128274 0.575890 3.357000 58 31 23
-1.128274 0.581766 3.357000 58 35 21
-1.128274 0.587643 3.357000 58 37 17
-1.128274 0.593519 3.357000 59 39 14
-1.139366 0.605288 3.390000 61 41 23
-1.139366 0.611222 3.390000 57 34 32
-1.139366 0.617156 3.390000 54 31 25
-1.139366 0.623091 3.390000 52 32 18
-1.139366 0.629025 3.390000 50 34 11
-1.139366 0.634959 3.390000 48 31 5
-1.139366 0.640893 3.390000 46 30 9
-1.128274 0.640531 3.357000 43 29 14
-1.128274 0.646407 3.357000 41 30 15
-1.128274 0.652284 3.357000 43 26 17
-1.139366 0.664630 3.390000 46 26 21
-1.139366 0.670564 3.390000 43 26 26
-1.128274 0.669913 3.357000 40 28 18
-1.139366 0.682433 3.390000 43 23 11
-1.139366 0.688367 3.390000 45 21 11
-1.150457 0.701060 3.423000 44 19 12
