ply
format ascii 1.0
element vertex 1226
property float x
property float y
property float z
property uchar red
property uchar green
property uchar blue
end_header
0.220003 0.632508 1.571000 181 146 169
0.218883 0.632023 1.563000 180 151 169
0.216922 0.629074 1.549000 179 154 166
0.215942 0.628930 1.542000 179 156 163
0.215101 0.629172 1.536000 179 152 167
0.214121 0.628981 1.529000 178 152 171
0.212161 0.625874 1.515000 177 153 173
0.211320 0.626037 1.509000 177 153 175
0.210340 0.625762 1.502000 178 154 172
0.209500 0.625881 1.496000 178 155 169
0.362984 0.712524 2.560000 166 133 143
0.360431 0.711963 2.542000 167 132 143
0.355185 0.705986 2.505000 166 134 143
0.352633 0.705266 2.487000 166 137 145
0.350081 0.704484 2.469000 166 137 147
0.347529 0.703638 2.451000 167 137 148
0.345118 0.703018 2.434000 168 139 149
0.342708 0.702339 2.417000 169 140 153
0.340297 0.701601 2.400000 169 141 157
0.340297 0.705802 2.400000 169 141 156
0.335618 0.700240 2.367000 168 143 155
0.331081 0.694861 2.335000 168 142 153
0.328954 0.694459 2.320000 168 141 152
0.326685 0.693702 2.304000 169 141 151
0.322432 0.688650 2.274000 167 142 151
0.320305 0.688062 2.259000 166 140 151
0.318178 0.687422 2.244000 167 140 152
0.316193 0.687036 2.230000 169 141 153
0.314066 0.686292 2.215000 171 148 154
0.312081 0.685808 2.201000 174 148 154
0.310096 0.685274 2.187000 176 149 155
0.308253 0.685006 2.174000 179 146 155
0.308253 0.688811 2.174000 175 142 155
0.302439 0.679555 2.133000 172 142 155
0.300596 0.679124 2.120000 172 142 155
0.298753 0.678648 2.107000 173 141 156
0.293365 0.670030 2.069000 174 143 158
0.291663 0.669745 2.057000 175 142 160
0.289962 0.669418 2.045000 173 143 162
0.288260 0.669048 2.033000 172 145 159
0.286559 0.668637 2.021000 172 145 157
0.284857 0.668183 2.009000 173 144 156
0.284857 0.671700 2.009000 168 144 155
0.281596 0.667487 1.986000 163 145 158
0.280036 0.667247 1.975000 172 146 162
0.278477 0.666969 1.964000 182 147 164
0.276775 0.666310 1.952000 178 149 167
0.273797 0.662522 1.931000 174 152 164
0.272238 0.662109 1.920000 174 159 162
0.267701 0.654379 1.888000 174 153 162
0.266283 0.654201 1.878000 173 149 162
0.264865 0.653987 1.868000 173 150 161
0.263447 0.653738 1.858000 175 152 160
0.262029 0.653455 1.848000 177 150 163
0.260611 0.653136 1.838000 178 154 165
0.259193 0.652783 1.828000 180 152 167
0.257917 0.652753 1.819000 180 153 170
0.256499 0.652331 1.809000 181 153 167
0.253805 0.648613 1.790000 179 153 165
0.252529 0.648469 1.781000 177 154 165
0.252529 0.651587 1.781000 168 154 165
0.251253 0.651396 1.772000 160 153 165
0.247424 0.644525 1.745000 167 152 166
0.246148 0.644240 1.736000 174 153 169
0.245014 0.644296 1.728000 176 152 172
0.243738 0.643950 1.719000 179 151 168
0.242604 0.643948 1.711000 177 152 164
0.241327 0.643540 1.702000 175 151 160
0.240193 0.643480 1.694000 177 153 157
0.239059 0.643393 1.686000 179 153 159
0.237783 0.642894 1.677000 179 152 162
0.236648 0.642749 1.669000 180 154 165
0.235514 0.642576 1.661000 178 153 168
0.234380 0.642374 1.653000 177 153 168
0.232253 0.639412 1.638000 175 152 169
0.229984 0.636006 1.622000 174 152 170
0.227857 0.632937 1.607000 178 151 171
0.227857 0.635750 1.607000 182 150 169
0.226865 0.635782 1.600000 181 151 168
0.225731 0.635390 1.592000 181 151 168
0.223745 0.632564 1.578000 181 151 168
0.222753 0.632508 1.571000 181 152 168
0.221619 0.632023 1.563000 177 156 168
0.219634 0.629074 1.549000 173 157 167
0.217790 0.626483 1.536000 176 163 166
0.216798 0.626305 1.529000 180 155 170
0.216798 0.628981 1.529000 181 152 174
0.214813 0.625874 1.515000 182 152 177
0.213962 0.626037 1.509000 182 152 181
0.212969 0.625762 1.502000 182 152 172
0.212119 0.625881 1.496000 182 153 163
0.367465 0.717005 2.560000 167 130 142
0.362154 0.711058 2.523000 168 132 141
0.359570 0.710371 2.505000 170 136 145
0.354403 0.704484 2.469000 169 136 149
0.351819 0.703638 2.451000 168 137 149
0.349379 0.703018 2.434000 168 138 150
0.349379 0.707279 2.434000 169 140 155
0.346939 0.706570 2.417000 171 140 160
0.344498 0.705802 2.400000 174 140 157
0.335168 0.690774 2.335000 170 141 154
0.335168 0.694861 2.335000 166 142 153
0.333015 0.694459 2.320000 169 142 152
0.330718 0.693702 2.304000 172 143 151
0.326412 0.688650 2.274000 168 141 150
0.324259 0.688062 2.259000 165 142 151
0.322106 0.687422 2.244000 166 139 152
0.320096 0.687036 2.230000 168 135 152
0.317943 0.686292 2.215000 170 142 152
0.315934 0.685808 2.201000 172 148 152
0.313924 0.685274 2.187000 173 148 153
0.312058 0.685006 2.174000 174 148 154
0.312058 0.688811 2.174000 169 145 155
0.306173 0.679555 2.133000 165 143 154
0.304307 0.679124 2.120000 168 142 154
0.302441 0.678648 2.107000 170 142 156
0.296986 0.670030 2.069000 172 140 158
0.295264 0.669745 2.057000 174 139 158
0.293541 0.669418 2.045000 173 142 159
0.291819 0.669048 2.033000 173 145 158
0.290096 0.668637 2.021000 176 144 158
0.288374 0.668183 2.009000 179 145 158
0.288374 0.671700 2.009000 173 145 158
0.285072 0.667487 1.986000 168 147 161
0.283493 0.667247 1.975000 173 147 165
0.280192 0.662893 1.952000 178 148 168
0.278613 0.662556 1.941000 176 150 172
0.278613 0.665953 1.941000 175 152 168
0.275599 0.662109 1.920000 176 153 164
0.271005 0.654379 1.888000 178 155 163
0.268135 0.650717 1.868000 174 150 162
0.268135 0.653987 1.868000 170 148 159
0.266699 0.653738 1.858000 174 147 156
0.265264 0.653455 1.848000 177 140 160
0.263828 0.653136 1.838000 179 150 164
0.262393 0.652783 1.828000 181 156 168
0.261101 0.652753 1.819000 182 154 172
0.258374 0.649086 1.800000 183 154 169
0.256938 0.648613 1.790000 181 154 166
0.255646 0.648469 1.781000 178 155 166
0.254355 0.648294 1.772000 173 153 166
0.253063 0.648088 1.763000 168 154 166
0.250479 0.644525 1.745000 172 155 166
0.249187 0.644240 1.736000 176 155 168
0.248039 0.644296 1.728000 178 152 170
0.246747 0.643950 1.719000 181 151 168
0.245599 0.643948 1.711000 179 151 166
0.244307 0.643540 1.702000 176 152 164
0.242010 0.640442 1.686000 178 152 162
0.240718 0.639958 1.677000 179 154 162
0.239570 0.639827 1.669000 180 156 163
0.239570 0.642749 1.669000 182 158 166
0.238422 0.642576 1.661000 180 155 169
0.237273 0.642374 1.653000 179 154 169
0.235120 0.639412 1.638000 178 152 170
0.232823 0.636006 1.622000 177 153 170
0.230670 0.632937 1.607000 179 152 171
0.230670 0.635750 1.607000 181 153 169
0.229666 0.635782 1.600000 181 150 168
0.228517 0.635390 1.592000 181 149 167
0.227512 0.635370 1.585000 183 151 167
0.226508 0.635327 1.578000 185 155 167
0.224355 0.632023 1.563000 180 155 168
0.221340 0.626231 1.542000 176 155 169
0.220479 0.626483 1.536000 177 156 170
0.219474 0.626305 1.529000 179 154 173
0.218469 0.626101 1.522000 180 154 177
0.217465 0.625874 1.515000 180 154 182
0.216603 0.626037 1.509000 180 153 187
0.215599 0.625762 1.502000 180 152 172
0.214737 0.625881 1.496000 180 152 157
0.371946 0.717005 2.560000 168 130 143
0.363955 0.705986 2.505000 171 131 144
0.363955 0.710371 2.505000 174 134 147
0.361340 0.709620 2.487000 171 136 151
0.358725 0.708806 2.469000 169 136 150
0.356109 0.707929 2.451000 169 138 149
0.353639 0.707279 2.434000 170 140 152
0.351170 0.706570 2.417000 174 141 156
0.348700 0.705802 2.400000 179 140 154
0.339256 0.690774 2.335000 172 139 152
0.339256 0.694861 2.335000 165 141 151
0.334752 0.689669 2.304000 170 143 151
0.334752 0.693702 2.304000 176 141 149
0.330393 0.688650 2.274000 170 140 148
0.328214 0.688062 2.259000 164 141 149
0.326034 0.687422 2.244000 165 141 151
0.324000 0.687036 2.230000 167 139 151
0.321821 0.686292 2.215000 169 139 151
0.319787 0.685808 2.201000 171 145 152
0.317753 0.685274 2.187000 170 147 153
0.315864 0.685006 2.174000 169 147 153
0.315864 0.688811 2.174000 164 147 154
0.309907 0.679555 2.133000 159 144 153
0.308018 0.679124 2.120000 163 143 152
0.306129 0.678648 2.107000 168 141 157
0.300608 0.670030 2.069000 170 139 162
0.300608 0.673652 2.069000 173 141 160
0.298865 0.673346 2.057000 173 142 159
0.297121 0.672997 2.045000 174 142 157
0.293634 0.668637 2.021000 179 143 156
0.291891 0.668183 2.009000 185 144 157
0.290292 0.668023 1.998000 179 146 158
0.288549 0.667487 1.986000 173 147 159
0.286951 0.667247 1.975000 174 149 161
0.283609 0.662893 1.952000 175 149 165
0.283609 0.666310 1.952000 175 151 168
0.282011 0.665953 1.941000 176 150 166
0.280558 0.665903 1.931000 179 147 164
0.275909 0.658192 1.899000 182 150 162
0.272857 0.654201 1.878000 175 149 161
0.271405 0.653987 1.868000 168 148 160
0.269952 0.653738 1.858000 173 149 159
0.268499 0.653455 1.848000 178 148 162
0.267046 0.653136 1.838000 180 151 164
0.265593 0.652783 1.828000 182 152 167
0.264285 0.652753 1.819000 184 153 170
0.261525 0.649086 1.800000 186 153 168
0.260072 0.648613 1.790000 183 154 167
0.258764 0.648469 1.781000 180 154 167
0.257457 0.648294 1.772000 178 152 167
0.256149 0.648088 1.763000 176 153 167
0.253534 0.644525 1.745000 177 159 167
0.252226 0.644240 1.736000 178 154 168
0.251064 0.644296 1.728000 181 151 170
0.249756 0.643950 1.719000 184 152 169
0.248594 0.643948 1.711000 181 151 168
0.247286 0.643540 1.702000 178 152 167
0.246124 0.643480 1.694000 179 152 165
0.244961 0.643393 1.686000 180 154 166
0.243654 0.642894 1.677000 182 161 167
0.242492 0.642749 1.669000 184 156 170
0.241329 0.642576 1.661000 182 156 173
0.240167 0.642374 1.653000 181 154 169
0.237987 0.639412 1.638000 181 152 165
0.235663 0.636006 1.622000 181 152 167
0.234646 0.636088 1.615000 180 152 170
0.233483 0.635750 1.607000 180 150 168
0.232466 0.635782 1.600000 180 147 167
0.231304 0.635390 1.592000 181 149 166
0.230287 0.635370 1.585000 185 152 164
0.228253 0.632508 1.571000 189 154 166
0.226074 0.629193 1.556000 184 156 168
0.224039 0.626231 1.542000 179 154 168
0.223168 0.626483 1.536000 179 152 169
0.223168 0.629172 1.536000 179 154 170
0.222151 0.628981 1.529000 179 156 171
0.220117 0.625874 1.515000 179 155 175
0.219245 0.626037 1.509000 179 154 179
0.218228 0.625762 1.502000 179 152 171
0.217356 0.625881 1.496000 179 151 162
0.370987 0.706642 2.523000 167 130 145
0.370987 0.711058 2.523000 169 132 147
0.368340 0.710371 2.505000 171 136 150
0.365693 0.709620 2.487000 169 134 154
0.365693 0.713973 2.487000 168 135 151
0.363047 0.713128 2.469000 168 138 148
0.357900 0.707279 2.434000 168 141 150
0.355401 0.706570 2.417000 171 140 152
0.350548 0.701096 2.384000 174 140 151
0.343343 0.690774 2.335000 170 139 151
0.343343 0.694861 2.335000 166 141 150
0.336579 0.685179 2.289000 169 141 150
0.336579 0.689186 2.289000 172 140 148
0.334374 0.688650 2.274000 166 141 146
0.334374 0.692631 2.274000 161 143 148
0.329962 0.687422 2.244000 164 142 151
0.327904 0.687036 2.230000 167 142 151
0.323639 0.681955 2.201000 169 143 151
0.321581 0.681445 2.187000 171 146 152
0.321581 0.685274 2.187000 170 145 154
0.319669 0.685006 2.174000 170 147 153
0.319669 0.688811 2.174000 166 146 153
0.313641 0.679555 2.133000 163 146 152
0.311729 0.679124 2.120000 166 143 151
0.309817 0.678648 2.107000 169 142 158
0.304230 0.670030 2.069000 170 142 166
0.302465 0.669745 2.057000 172 145 162
0.302465 0.673346 2.057000 172 142 159
0.298936 0.669048 2.033000 172 140 156
0.297172 0.668637 2.021000 176 141 154
0.295407 0.668183 2.009000 179 143 156
0.293790 0.668023 1.998000 176 145 158
0.292025 0.667487 1.986000 172 147 158
0.290408 0.667247 1.975000 173 147 158
0.288790 0.666969 1.964000 174 148 161
0.287026 0.666310 1.952000 175 150 165
0.285409 0.665953 1.941000 176 151 164
0.282321 0.662109 1.920000 177 150 164
0.276145 0.650913 1.878000 179 150 162
0.274674 0.650717 1.868000 175 148 160
0.273204 0.650486 1.858000 171 147 161
0.273204 0.653738 1.858000 174 149 163
0.271734 0.653455 1.848000 178 153 164
0.271734 0.656690 1.848000 179 151 165
0.268793 0.652783 1.828000 180 150 167
0.267469 0.652753 1.819000 182 150 169
0.264676 0.649086 1.800000 183 153 168
0.263205 0.648613 1.790000 181 154 168
0.261882 0.648469 1.781000 179 156 168
0.260558 0.648294 1.772000 177 153 168
0.260558 0.651396 1.772000 176 150 168
0.256588 0.644525 1.745000 176 154 168
0.255265 0.644240 1.736000 176 154 169
0.254089 0.644296 1.728000 179 154 170
0.252765 0.643950 1.719000 182 156 170
0.251589 0.643948 1.711000 180 155 171
0.250265 0.643540 1.702000 178 153 170
0.249089 0.643480 1.694000 177 150 169
0.247913 0.643393 1.686000 177 151 170
0.245413 0.639827 1.669000 179 153 171
0.244237 0.639668 1.661000 180 151 174
0.243060 0.639481 1.653000 179 153 178
0.241884 0.639265 1.645000 178 155 169
0.239678 0.636289 1.630000 179 153 161
0.238502 0.636006 1.622000 180 153 165
0.237473 0.636088 1.615000 179 152 169
0.236297 0.635750 1.607000 178 150 168
0.235267 0.635782 1.600000 178 149 167
0.234091 0.635390 1.592000 179 150 164
0.232032 0.632564 1.578000 182 151 162
0.231003 0.632508 1.571000 184 155 165
0.228797 0.629193 1.556000 181 155 168
0.227768 0.629074 1.549000 178 153 168
0.226739 0.628930 1.542000 176 153 169
0.225857 0.629172 1.536000 174 155 167
0.224827 0.628981 1.529000 176 155 166
0.223798 0.628766 1.522000 178 157 169
0.221886 0.626037 1.509000 178 155 172
0.220857 0.625762 1.502000 179 154 170
0.218946 0.622952 1.489000 179 152 168
0.372725 0.705986 2.505000 167 132 146
0.372725 0.710371 2.505000 168 131 148
0.370047 0.709620 2.487000 167 132 150
0.370047 0.713973 2.487000 167 136 146
0.367369 0.713128 2.469000 166 140 142
0.364690 0.712219 2.451000 166 140 146
0.362161 0.711540 2.434000 168 141 150
0.354721 0.701096 2.384000 170 139 150
0.349811 0.695507 2.351000 168 139 151
0.347431 0.694861 2.335000 167 140 150
0.347431 0.698949 2.335000 167 141 150
0.345199 0.698520 2.320000 168 141 149
0.338354 0.688650 2.274000 163 142 149
0.336122 0.688062 2.259000 158 142 150
0.333890 0.687422 2.244000 162 143 151
0.331807 0.687036 2.230000 167 143 151
0.327492 0.681955 2.201000 169 145 150
0.325409 0.681445 2.187000 172 145 151
0.325409 0.685274 2.187000 171 143 153
0.325409 0.689102 2.187000 171 144 154
0.323475 0.688811 2.174000 169 146 155
0.319458 0.684015 2.147000 168 144 154
0.315440 0.679124 2.120000 169 142 153
0.313506 0.678648 2.107000 170 141 157
0.307852 0.670030 2.069000 170 142 162
0.306066 0.669745 2.057000 171 142 159
0.306066 0.673346 2.057000 171 142 157
0.302495 0.669048 2.033000 171 140 156
0.300710 0.668637 2.021000 172 140 155
0.298924 0.668183 2.009000 174 142 156
0.297287 0.668023 1.998000 173 146 158
0.295502 0.667487 1.986000 172 146 158
0.293865 0.667247 1.975000 173 146 158
0.292228 0.666969 1.964000 174 148 160
0.290443 0.666310 1.952000 175 150 162
0.288806 0.665953 1.941000 176 150 162
0.285682 0.662109 1.920000 176 155 162
0.280920 0.654379 1.888000 177 150 160
0.277944 0.650717 1.868000 176 147 159
0.276456 0.650486 1.858000 175 148 160
0.276456 0.653738 1.858000 176 150 162
0.274969 0.653455 1.848000 178 151 163
0.274969 0.656690 1.848000 178 151 164
0.271993 0.652783 1.828000 179 148 166
0.269166 0.649164 1.809000 180 145 168
0.267826 0.649086 1.800000 181 149 167
0.266339 0.648613 1.790000 179 156 167
0.264999 0.648469 1.781000 178 155 168
0.263660 0.648294 1.772000 177 154 170
0.262321 0.648088 1.763000 177 153 170
0.259643 0.644525 1.745000 175 154 171
0.258304 0.644240 1.736000 174 155 173
0.257113 0.644296 1.728000 177 157 175
0.255774 0.643950 1.719000 181 156 172
0.254584 0.643948 1.711000 179 162 170
0.254584 0.646943 1.711000 178 154 170
0.253245 0.646519 1.702000 176 146 170
0.252055 0.646446 1.694000 175 148 170
0.249525 0.642894 1.677000 176 149 171
0.247144 0.639668 1.661000 177 151 173
0.245954 0.639481 1.653000 176 153 176
0.244764 0.639265 1.645000 176 153 170
0.242532 0.636289 1.630000 177 152 164
0.241341 0.636006 1.622000 179 153 167
0.240300 0.636088 1.615000 177 153 169
0.239110 0.635750 1.607000 176 151 170
0.239110 0.638563 1.607000 177 149 171
0.236878 0.635390 1.592000 178 147 168
0.234795 0.632564 1.578000 179 150 165
0.233753 0.632508 1.571000 180 153 167
0.231521 0.629193 1.556000 179 156 169
0.230480 0.629074 1.549000 178 154 170
0.229438 0.628930 1.542000 173 153 171
0.228545 0.629172 1.536000 169 154 169
0.227504 0.628981 1.529000 173 154 168
0.226462 0.628766 1.522000 177 155 169
0.224528 0.626037 1.509000 178 157 170
0.223486 0.625762 1.502000 179 156 169
0.221552 0.622952 1.489000 179 150 168
0.377110 0.705986 2.505000 165 130 146
0.377110 0.710371 2.505000 165 127 146
0.377110 0.714756 2.505000 165 133 146
0.374400 0.713973 2.487000 165 138 141
0.371691 0.713128 2.469000 164 138 137
0.371691 0.717450 2.469000 164 140 142
0.363862 0.706570 2.417000 168 138 148
0.358895 0.701096 2.384000 173 137 149
0.356335 0.700240 2.367000 171 138 151
0.353927 0.699623 2.351000 168 141 150
0.351518 0.698949 2.335000 169 140 150
0.349260 0.698520 2.320000 171 141 151
0.342335 0.688650 2.274000 166 141 152
0.337819 0.683493 2.244000 161 142 152
0.337819 0.687422 2.244000 164 141 152
0.335711 0.687036 2.230000 167 142 151
0.331345 0.681955 2.201000 170 144 150
0.329238 0.681445 2.187000 174 146 151
0.329238 0.685274 2.187000 172 143 152
0.327280 0.685006 2.174000 171 142 154
0.325173 0.684376 2.160000 170 143 157
0.321108 0.679555 2.133000 168 143 156
0.319151 0.679124 2.120000 171 141 155
0.315388 0.674783 2.095000 173 140 156
0.313431 0.674240 2.082000 170 140 158
0.311473 0.673652 2.069000 168 141 157
0.309667 0.673346 2.057000 169 141 156
0.307860 0.672997 2.045000 170 140 156
0.306054 0.672607 2.033000 171 139 157
0.302441 0.668183 2.009000 172 140 157
0.301538 0.669694 2.003000 171 143 158
0.300785 0.671520 1.998000 171 145 158
0.297322 0.667247 1.975000 173 146 159
0.293860 0.662893 1.952000 175 150 159
0.292204 0.662556 1.941000 177 148 160
0.290699 0.662522 1.931000 180 146 160
0.289043 0.662109 1.920000 176 150 161
0.284225 0.654379 1.888000 172 151 159
0.282720 0.654201 1.878000 173 148 158
0.281214 0.653987 1.868000 174 149 160
0.279709 0.653738 1.858000 175 149 162
0.278204 0.653455 1.848000 176 150 163
0.278204 0.656690 1.848000 175 149 164
0.276698 0.656354 1.838000 175 148 166
0.272332 0.649164 1.809000 177 144 168
0.270977 0.649086 1.800000 179 143 167
0.269472 0.648613 1.790000 178 155 166
0.268117 0.648469 1.781000 177 157 169
0.266762 0.648294 1.772000 177 154 173
0.266762 0.651396 1.772000 177 155 173
0.262698 0.644525 1.745000 176 154 174
0.261343 0.644240 1.736000 176 155 177
0.260138 0.644296 1.728000 179 153 180
0.258783 0.643950 1.719000 182 151 175
0.257579 0.643948 1.711000 183 156 170
0.256224 0.643540 1.702000 184 155 170
0.256224 0.646519 1.702000 180 150 171
0.253816 0.643393 1.686000 177 149 171
0.252461 0.642894 1.677000 178 150 171
0.250052 0.639668 1.661000 179 152 172
0.248848 0.639481 1.653000 174 152 174
0.247643 0.639265 1.645000 168 153 171
0.245385 0.636289 1.630000 172 153 168
0.245385 0.639143 1.630000 176 154 169
0.243127 0.636088 1.615000 176 153 170
0.241923 0.635750 1.607000 177 152 173
0.240869 0.635782 1.600000 178 147 176
0.239664 0.635390 1.592000 179 142 172
0.237557 0.632564 1.578000 178 149 169
0.235299 0.629287 1.563000 177 154 169
0.233191 0.626362 1.549000 178 154 170
0.233191 0.629074 1.549000 179 154 171
0.232137 0.628930 1.542000 176 154 173
0.231234 0.629172 1.536000 173 156 172
0.230180 0.628981 1.529000 176 154 171
0.229126 0.628766 1.522000 178 154 170
0.227169 0.626037 1.509000 178 157 169
0.225212 0.623262 1.496000 179 164 169
0.224159 0.622952 1.489000 179 157 169
0.381495 0.705986 2.505000 163 133 146
0.381495 0.710371 2.505000 163 133 146
0.378754 0.709620 2.487000 163 137 146
0.378754 0.713973 2.487000 164 138 143
0.376013 0.713128 2.469000 163 137 140
0.373271 0.712219 2.451000 162 138 144
0.365504 0.701601 2.400000 169 136 147
0.360479 0.696097 2.367000 177 136 150
0.358042 0.695507 2.351000 173 135 152
0.358042 0.699623 2.351000 170 138 149
0.355605 0.698949 2.335000 172 139 147
0.353321 0.698520 2.320000 174 140 150
0.346315 0.688650 2.274000 169 139 154
0.346315 0.692631 2.274000 165 140 153
0.341747 0.687422 2.244000 166 140 152
0.339614 0.687036 2.230000 168 141 151
0.335198 0.681955 2.201000 172 143 150
0.333066 0.681445 2.187000 176 143 149
0.333066 0.685274 2.187000 174 141 148
0.331086 0.685006 2.174000 172 142 154
0.326974 0.680257 2.147000 170 143 160
0.324842 0.679555 2.133000 169 143 158
0.322862 0.679124 2.120000 173 142 155
0.319055 0.674783 2.095000 177 140 156
0.317075 0.674240 2.082000 171 140 157
0.315095 0.673652 2.069000 165 141 155
0.313268 0.673346 2.057000 167 142 154
0.311440 0.672997 2.045000 169 141 155
0.309613 0.672607 2.033000 170 138 156
0.307785 0.672175 2.021000 171 141 155
0.305958 0.671700 2.009000 170 144 154
0.304282 0.671520 1.998000 170 145 155
0.300780 0.667247 1.975000 173 146 157
0.299104 0.666969 1.964000 176 148 158
0.297277 0.666310 1.952000 180 149 159
0.294079 0.662522 1.931000 184 148 158
0.290728 0.658316 1.909000 175 149 158
0.287530 0.654379 1.888000 167 149 156
0.286007 0.654201 1.878000 170 148 154
0.284484 0.653987 1.868000 173 148 157
0.284484 0.657257 1.868000 173 149 161
0.282961 0.656991 1.858000 174 148 162
0.281438 0.656690 1.848000 173 149 164
0.279915 0.656354 1.838000 172 147 166
0.277022 0.652753 1.819000 174 143 167
0.274128 0.649086 1.800000 177 148 167
0.272605 0.648613 1.790000 177 166 166
0.271235 0.648469 1.781000 177 158 169
0.269864 0.648294 1.772000 177 153 171
0.268493 0.648088 1.763000 177 153 171
0.265752 0.644525 1.745000 177 154 171
0.264381 0.644240 1.736000 178 153 172
0.263163 0.644296 1.728000 180 152 174
0.261793 0.643950 1.719000 183 154 171
0.260574 0.643948 1.711000 187 157 169
0.259204 0.643540 1.702000 191 154 170
0.259204 0.646519 1.702000 185 150 170
0.257985 0.646446 1.694000 179 150 170
0.255396 0.642894 1.677000 180 151 170
0.252959 0.639668 1.661000 182 152 170
0.251741 0.639481 1.653000 171 153 170
0.250523 0.639265 1.645000 161 153 169
0.249457 0.639412 1.638000 167 153 168
0.248238 0.639143 1.630000 174 153 169
0.245954 0.636088 1.615000 176 153 169
0.244736 0.635750 1.607000 178 150 171
0.243670 0.635782 1.600000 179 147 173
0.241385 0.632596 1.585000 180 148 172
0.239253 0.629758 1.571000 177 151 171
0.238035 0.629287 1.563000 174 152 171
0.236360 0.627575 1.552000 177 154 171
0.235903 0.629074 1.549000 180 154 171
0.234837 0.628930 1.542000 179 153 172
0.233923 0.629172 1.536000 178 155 172
0.232857 0.628981 1.529000 179 155 173
0.231791 0.628766 1.522000 180 154 169
0.229811 0.626037 1.509000 179 155 166
0.227831 0.623262 1.496000 179 156 167
0.226765 0.622952 1.489000 179 152 168
0.385880 0.705986 2.505000 162 134 146
0.385880 0.710371 2.505000 164 138 146
0.385880 0.714756 2.505000 164 138 146
0.383107 0.713973 2.487000 164 140 145
0.380335 0.713128 2.469000 164 138 144
0.377562 0.712219 2.451000 164 139 145
0.374943 0.711540 2.434000 168 138 147
0.367241 0.701096 2.384000 172 136 150
0.364622 0.700240 2.367000 170 135 154
0.362157 0.699623 2.351000 168 137 149
0.359693 0.698949 2.335000 167 140 144
0.357382 0.698520 2.320000 166 143 150
0.350296 0.688650 2.274000 165 140 156
0.350296 0.692631 2.274000 165 139 154
0.345675 0.687422 2.244000 166 139 152
0.343518 0.687036 2.230000 166 141 151
0.339051 0.681955 2.201000 169 143 150
0.336894 0.681445 2.187000 171 145 147
0.334892 0.681200 2.174000 170 143 145
0.332735 0.680595 2.160000 169 144 154
0.330732 0.680257 2.147000 168 145 164
0.328576 0.679555 2.133000 168 146 160
0.326573 0.679124 2.120000 171 143 156
0.322722 0.674783 2.095000 174 141 156
0.320720 0.674240 2.082000 170 140 157
0.318717 0.673652 2.069000 167 141 154
0.316869 0.673346 2.057000 167 142 152
0.315020 0.672997 2.045000 168 144 153
0.313171 0.672607 2.033000 171 142 155
0.311323 0.672175 2.021000 173 142 153
0.307780 0.668023 1.998000 170 143 151
0.305931 0.667487 1.986000 168 146 153
0.305931 0.670963 1.986000 171 148 155
0.304237 0.670704 1.975000 175 150 156
0.300694 0.666310 1.952000 176 149 158
0.297459 0.662522 1.931000 178 148 157
0.294070 0.658316 1.909000 174 150 156
0.290835 0.654379 1.888000 169 151 153
0.289295 0.654201 1.878000 170 149 151
0.287754 0.653987 1.868000 172 149 155
0.287754 0.657257 1.868000 173 147 160
0.286214 0.656991 1.858000 175 147 162
0.284673 0.656690 1.848000 175 149 165
0.283133 0.656354 1.838000 175 151 166
0.280206 0.652753 1.819000 175 146 167
0.277279 0.649086 1.800000 176 143 167
0.275739 0.648613 1.790000 176 155 167
0.274352 0.648469 1.781000 176 156 168
0.272966 0.648294 1.772000 176 153 170
0.271580 0.648088 1.763000 176 153 169
0.270193 0.647850 1.754000 175 152 169
0.267420 0.644240 1.736000 175 152 168
0.266188 0.644296 1.728000 178 153 168
0.264802 0.643950 1.719000 181 156 168
0.263569 0.643948 1.711000 183 154 169
0.262183 0.643540 1.702000 186 154 169
0.262183 0.646519 1.702000 182 155 170
0.259718 0.643393 1.686000 179 152 170
0.258332 0.642894 1.677000 179 151 170
0.255867 0.639668 1.661000 180 155 168
0.254635 0.639481 1.653000 173 154 166
0.253402 0.639265 1.645000 166 155 167
0.251092 0.636289 1.630000 170 153 169
0.249859 0.636006 1.622000 174 154 169
0.248781 0.636088 1.615000 177 151 169
0.247549 0.635750 1.607000 179 150 170
0.246470 0.635782 1.600000 180 151 171
0.244160 0.632596 1.585000 181 154 172
0.242003 0.629758 1.571000 181 152 173
0.240771 0.629287 1.563000 182 152 173
0.239692 0.629193 1.556000 181 153 173
0.238614 0.629074 1.549000 180 156 172
0.238614 0.631785 1.549000 177 155 171
0.237536 0.631630 1.542000 175 156 173
0.235533 0.628981 1.529000 177 154 176
0.234455 0.628766 1.522000 180 154 169
0.232452 0.626037 1.509000 178 154 163
0.231374 0.625762 1.502000 177 155 165
0.230450 0.625881 1.496000 177 154 167
0.393070 0.706642 2.523000 160 133 144
0.390265 0.705986 2.505000 162 134 144
0.387461 0.705266 2.487000 165 136 144
0.387461 0.709620 2.487000 165 137 145
0.387461 0.713973 2.487000 165 138 146
0.379204 0.703018 2.434000 166 139 147
0.376555 0.702339 2.417000 167 139 146
0.373907 0.701601 2.400000 167 143 145
0.371414 0.701096 2.384000 168 137 148
0.368766 0.700240 2.367000 167 133 151
0.366273 0.699623 2.351000 167 136 149
0.363780 0.698949 2.335000 162 143 146
0.361443 0.698520 2.320000 158 141 150
0.354277 0.688650 2.274000 162 141 154
0.351940 0.688062 2.259000 166 139 153
0.349603 0.687422 2.244000 165 137 152
0.347422 0.687036 2.230000 165 141 151
0.345085 0.686292 2.215000 166 144 150
0.342904 0.685808 2.201000 167 143 149
0.340723 0.685274 2.187000 167 142 148
0.338697 0.685006 2.174000 167 144 154
0.334491 0.680257 2.147000 167 150 160
0.332310 0.679555 2.133000 167 145 158
0.330284 0.679124 2.120000 169 143 156
0.326389 0.674783 2.095000 172 141 157
0.322339 0.670030 2.069000 170 140 159
0.322339 0.673652 2.069000 169 140 156
0.320469 0.673346 2.057000 168 141 154
0.318600 0.672997 2.045000 168 144 154
0.316730 0.672607 2.033000 172 147 155
0.312991 0.668183 2.009000 176 143 154
0.311277 0.668023 1.998000 171 143 153
0.309408 0.667487 1.986000 166 146 154
0.309408 0.670963 1.986000 170 151 155
0.307694 0.670704 1.975000 174 150 156
0.305980 0.670407 1.964000 173 149 157
0.300839 0.662522 1.931000 173 149 157
0.297412 0.658316 1.909000 172 153 158
0.294140 0.654379 1.888000 172 151 158
0.292582 0.654201 1.878000 171 148 159
0.291024 0.653987 1.868000 171 146 160
0.291024 0.657257 1.868000 173 146 161
0.289466 0.656991 1.858000 176 148 164
0.287908 0.656690 1.848000 177 150 166
0.286350 0.656354 1.838000 178 148 166
0.283390 0.652753 1.819000 177 150 166
0.280430 0.649086 1.800000 176 149 167
0.278872 0.648613 1.790000 175 155 167
0.277470 0.648469 1.781000 175 152 168
0.276068 0.648294 1.772000 175 151 169
0.276068 0.651396 1.772000 176 151 168
0.273264 0.647850 1.754000 174 150 168
0.270459 0.644240 1.736000 172 151 167
0.269213 0.644296 1.728000 175 153 166
0.267811 0.643950 1.719000 179 152 165
0.266564 0.643948 1.711000 180 150 164
0.265162 0.643540 1.702000 181 154 166
0.265162 0.646519 1.702000 180 166 169
0.263916 0.646446 1.694000 179 154 167
0.262670 0.646344 1.686000 178 149 166
0.260021 0.642749 1.669000 178 152 165
0.257528 0.639481 1.653000 175 155 163
0.256282 0.639265 1.645000 172 153 165
0.253945 0.636289 1.630000 173 153 168
0.253945 0.639143 1.630000 175 152 168
0.251608 0.636088 1.615000 178 148 169
0.249271 0.632981 1.600000 181 151 170
0.248025 0.632603 1.592000 182 153 172
0.245844 0.629802 1.578000 183 152 174
0.244753 0.629758 1.571000 186 151 176
0.242416 0.626469 1.556000 190 151 174
0.242416 0.629193 1.556000 185 152 173
0.241326 0.629074 1.549000 180 154 171
0.241326 0.631785 1.549000 176 156 169
0.240235 0.631630 1.542000 173 155 171
0.239300 0.631861 1.536000 176 154 172
0.238210 0.631658 1.529000 180 154 168
0.235094 0.626037 1.509000 177 154 165
0.234003 0.625762 1.502000 175 155 166
0.233069 0.625881 1.496000 175 156 167
0.397486 0.706642 2.523000 161 134 143
0.394650 0.705986 2.505000 165 133 143
0.391814 0.705266 2.487000 170 135 143
0.391814 0.709620 2.487000 167 135 144
0.391814 0.713973 2.487000 165 137 147
0.383465 0.703018 2.434000 165 137 150
0.380786 0.702339 2.417000 165 137 147
0.378108 0.701601 2.400000 166 137 144
0.372909 0.696097 2.367000 167 136 146
0.372909 0.700240 2.367000 168 134 149
0.370388 0.699623 2.351000 169 131 149
0.367868 0.698949 2.335000 165 136 149
0.362984 0.693702 2.304000 162 137 150
0.358257 0.688650 2.274000 164 138 152
0.355894 0.688062 2.259000 166 139 152
0.353531 0.687422 2.244000 165 139 152
0.351325 0.687036 2.230000 165 143 151
0.346757 0.681955 2.201000 165 143 151
0.346757 0.685808 2.201000 166 144 151
0.344551 0.685274 2.187000 165 143 152
0.340297 0.680595 2.160000 164 143 154
0.338249 0.680257 2.147000 166 145 156
0.336044 0.679555 2.133000 168 144 156
0.331947 0.674960 2.107000 172 142 157
0.330057 0.674783 2.095000 176 142 159
0.325961 0.670030 2.069000 173 139 161
0.325961 0.673652 2.069000 169 141 158
0.322180 0.669418 2.045000 168 142 156
0.320289 0.669048 2.033000 167 147 155
0.318398 0.668637 2.021000 170 146 155
0.316508 0.668183 2.009000 173 143 155
0.314775 0.668023 1.998000 172 143 156
0.312884 0.667487 1.986000 170 145 155
0.312884 0.670963 1.986000 175 148 155
0.311151 0.670704 1.975000 180 151 156
0.309418 0.670407 1.964000 176 148 157
0.304219 0.662522 1.931000 173 148 158
0.300753 0.658316 1.909000 172 150 160
0.297445 0.654379 1.888000 171 153 163
0.295870 0.654201 1.878000 171 147 167
0.295870 0.657488 1.878000 172 141 165
0.294294 0.657257 1.868000 173 146 163
0.292719 0.656991 1.858000 174 149 165
0.291143 0.656690 1.848000 175 147 168
0.289568 0.656354 1.838000 176 144 167
0.287992 0.655982 1.828000 175 149 166
0.283581 0.649086 1.800000 175 150 167
0.282006 0.648613 1.790000 174 151 168
0.280588 0.648469 1.781000 174 149 168
0.279170 0.648294 1.772000 176 153 169
0.279170 0.651396 1.772000 177 153 168
0.276334 0.647850 1.754000 176 149 167
0.273498 0.644240 1.736000 176 149 165
0.272238 0.644296 1.728000 179 151 164
0.269560 0.640953 1.711000 183 150 162
0.269560 0.643948 1.711000 181 149 160
0.268142 0.643540 1.702000 180 147 164
0.268142 0.646519 1.702000 179 153 168
0.266881 0.646446 1.694000 178 151 165
0.265621 0.646344 1.686000 177 150 163
0.262943 0.642749 1.669000 177 151 162
0.260422 0.639481 1.653000 177 151 161
0.259162 0.639265 1.645000 176 150 164
0.256798 0.636289 1.630000 175 151 167
0.256798 0.639143 1.630000 174 153 168
0.253175 0.632937 1.607000 177 152 169
0.252072 0.632981 1.600000 180 153 171
0.250812 0.632603 1.592000 179 152 173
0.249709 0.632596 1.585000 179 151 176
0.247503 0.629758 1.571000 182 151 179
0.246243 0.629287 1.563000 185 151 176
0.245140 0.629193 1.556000 183 151 173
0.244037 0.629074 1.549000 180 153 170
0.244037 0.631785 1.549000 178 154 168
0.242934 0.631630 1.542000 176 155 168
0.241989 0.631861 1.536000 178 154 169
0.239784 0.628766 1.522000 181 156 168
0.238681 0.628526 1.515000 180 155 167
0.236633 0.625762 1.502000 179 155 167
0.235687 0.625881 1.496000 179 155 167
0.399035 0.701601 2.505000 163 132 142
0.399035 0.705986 2.505000 169 131 141
0.396168 0.705266 2.487000 175 131 141
0.396168 0.709620 2.487000 170 134 141
0.393301 0.708806 2.469000 165 136 144
0.387725 0.703018 2.434000 164 138 147
0.385017 0.702339 2.417000 163 136 147
0.385017 0.706570 2.417000 164 135 147
0.379761 0.701096 2.384000 166 135 150
0.377052 0.700240 2.367000 168 136 154
0.374504 0.699623 2.351000 171 134 152
0.371955 0.698949 2.335000 168 134 149
0.369566 0.698520 2.320000 166 136 150
0.362238 0.688650 2.274000 166 137 151
0.359849 0.688062 2.259000 166 137 150
0.357459 0.687422 2.244000 165 139 150
0.355229 0.687036 2.230000 165 140 151
0.352840 0.686292 2.215000 165 141 151
0.348379 0.681445 2.187000 165 142 151
0.348379 0.685274 2.187000 163 144 152
0.346308 0.685006 2.174000 161 143 153
0.342007 0.680257 2.147000 165 143 155
0.339777 0.679555 2.133000 169 141 155
0.335636 0.674960 2.107000 175 139 156
0.335636 0.678648 2.107000 181 139 156
0.331653 0.674240 2.082000 175 136 157
0.329582 0.673652 2.069000 170 139 154
0.327671 0.673346 2.057000 168 142 152
0.323848 0.669048 2.033000 166 144 153
0.321936 0.668637 2.021000 168 148 155
0.318272 0.664525 1.998000 171 143 158
0.316361 0.664010 1.986000 173 142 161
0.316361 0.667487 1.986000 175 144 158
0.314609 0.667247 1.975000 181 146 155
0.314609 0.670704 1.975000 187 147 155
0.310945 0.666310 1.952000 180 146 156
0.307600 0.662522 1.931000 173 146 158
0.304095 0.658316 1.909000 172 148 160
0.300750 0.654379 1.888000 171 148 161
0.300750 0.657684 1.888000 172 146 163
0.299157 0.657488 1.878000 173 144 163
0.297564 0.657257 1.868000 173 151 162
0.295971 0.656991 1.858000 173 149 163
0.294378 0.656690 1.848000 173 147 165
0.292785 0.656354 1.838000 174 148 164
0.291192 0.655982 1.828000 174 152 164
0.288166 0.652331 1.809000 174 151 167
0.285139 0.648613 1.790000 174 151 171
0.283705 0.648469 1.781000 174 152 169
0.282272 0.648294 1.772000 176 160 168
0.280838 0.648088 1.763000 179 152 167
0.279404 0.647850 1.754000 179 145 166
0.276537 0.644240 1.736000 180 147 165
0.275263 0.644296 1.728000 184 153 164
0.273829 0.643950 1.719000 188 151 165
0.271121 0.640561 1.702000 183 149 167
0.271121 0.643540 1.702000 179 148 167
0.269847 0.643480 1.694000 178 148 167
0.268572 0.643393 1.686000 177 150 166
0.267139 0.642894 1.677000 177 151 165
0.265864 0.642749 1.669000 177 150 166
0.264590 0.642576 1.661000 179 150 167
0.262041 0.639265 1.645000 181 149 167
0.259652 0.636289 1.630000 177 151 167
0.259652 0.639143 1.630000 173 153 167
0.257262 0.636088 1.615000 176 154 167
0.254873 0.632981 1.600000 180 153 169
0.253598 0.632603 1.592000 177 152 171
0.252483 0.632596 1.585000 175 151 172
0.250253 0.629758 1.571000 178 153 173
0.248979 0.629287 1.563000 181 152 172
0.247864 0.629193 1.556000 181 151 170
0.246749 0.629074 1.549000 181 152 169
0.246749 0.631785 1.549000 180 153 168
0.244678 0.629172 1.536000 180 154 168
0.243563 0.628981 1.529000 181 153 168
0.242448 0.628766 1.522000 182 155 168
0.241333 0.628526 1.515000 183 157 167
0.239262 0.625762 1.502000 184 155 169
0.238306 0.625881 1.496000 184 156 170
0.406319 0.706642 2.523000 162 132 141
0.403420 0.705986 2.505000 166 129 140
0.400521 0.705266 2.487000 171 127 139
0.400521 0.709620 2.487000 167 133 138
0.397623 0.708806 2.469000 164 137 141
0.391986 0.703018 2.434000 164 136 145
0.389248 0.702339 2.417000 163 136 147
0.386510 0.701601 2.400000 164 134 150
0.381196 0.696097 2.367000 165 134 155
0.378619 0.695507 2.351000 166 134 160
0.376042 0.694861 2.335000 168 137 155
0.373627 0.694459 2.320000 167 135 150
0.371050 0.693702 2.304000 166 136 150
0.366219 0.688650 2.274000 165 135 150
0.363803 0.688062 2.259000 165 136 149
0.361387 0.687422 2.244000 164 138 149
0.359133 0.687036 2.230000 164 137 150
0.356717 0.686292 2.215000 164 139 152
0.354462 0.685808 2.201000 164 142 152
0.350114 0.681200 2.174000 164 143 152
0.347859 0.680595 2.160000 163 144 153
0.345766 0.680257 2.147000 166 142 155
0.341418 0.675413 2.120000 168 139 155
0.339324 0.674960 2.107000 172 140 155
0.339324 0.678648 2.107000 176 141 154
0.335298 0.674240 2.082000 172 139 154
0.333204 0.673652 2.069000 169 140 151
0.331272 0.673346 2.057000 165 140 148
0.327406 0.669048 2.033000 162 142 152
0.325474 0.668637 2.021000 167 142 156
0.321770 0.664525 1.998000 171 140 161
0.319837 0.664010 1.986000 172 141 167
0.319837 0.667487 1.986000 173 143 161
0.318066 0.667247 1.975000 176 144 156
0.318066 0.670704 1.975000 179 147 155
0.314362 0.666310 1.952000 175 146 155
0.310980 0.662522 1.931000 171 145 157
0.307437 0.658316 1.909000 169 146 160
0.304055 0.654379 1.888000 168 147 160
0.302444 0.654201 1.878000 170 144 160
0.300834 0.653987 1.868000 172 140 161
0.299223 0.653738 1.858000 172 146 162
0.299223 0.656991 1.858000 172 149 162
0.297613 0.656690 1.848000 172 148 162
0.296003 0.656354 1.838000 172 151 162
0.294392 0.655982 1.828000 172 152 163
0.291332 0.652331 1.809000 173 154 168
0.289883 0.652236 1.800000 172 151 174
0.286823 0.648469 1.781000 172 150 171
0.285374 0.648294 1.772000 173 152 168
0.285374 0.651396 1.772000 174 153 166
0.282475 0.647850 1.754000 176 147 165
0.279576 0.644240 1.736000 178 144 165
0.278287 0.644296 1.728000 180 151 165
0.275550 0.640953 1.711000 183 154 169
0.274100 0.640561 1.702000 180 150 174
0.272812 0.640515 1.694000 178 149 170
0.272812 0.643480 1.694000 177 150 167
0.271524 0.643393 1.686000 176 153 167
0.270074 0.642894 1.677000 176 151 167
0.268786 0.642749 1.669000 176 149 170
0.267497 0.642576 1.661000 176 148 173
0.264921 0.639265 1.645000 177 148 170
0.262505 0.636289 1.630000 176 151 167
0.261217 0.636006 1.622000 175 155 166
0.258801 0.632937 1.607000 178 154 165
0.257674 0.632981 1.600000 181 153 167
0.256385 0.632603 1.592000 179 151 170
0.255258 0.632596 1.585000 177 150 169
0.254131 0.632564 1.578000 178 151 168
0.251715 0.629287 1.563000 180 154 168
0.250588 0.629193 1.556000 181 151 168
0.249460 0.629074 1.549000 182 152 168
0.248333 0.628930 1.542000 181 153 168
0.247367 0.629172 1.536000 180 156 168
0.246239 0.628981 1.529000 180 154 168
0.245112 0.628766 1.522000 180 155 168
0.243985 0.628526 1.515000 181 156 168
0.241891 0.625762 1.502000 181 155 171
0.241891 0.628391 1.502000 181 154 174
0.416759 0.712524 2.560000 161 134 147
0.413829 0.711963 2.542000 162 132 142
0.407805 0.705986 2.505000 164 128 137
0.401945 0.700162 2.469000 167 129 138
0.401945 0.704484 2.469000 165 136 140
0.399014 0.703638 2.451000 164 135 144
0.396247 0.703018 2.434000 164 135 148
0.393479 0.702339 2.417000 164 134 148
0.393479 0.706570 2.417000 164 133 148
0.388107 0.701096 2.384000 164 133 151
0.382735 0.695507 2.351000 164 131 154
0.380130 0.694861 2.335000 165 134 150
0.377688 0.694459 2.320000 165 135 147
0.375083 0.693702 2.304000 166 135 149
0.370199 0.688650 2.274000 165 134 150
0.367757 0.688062 2.259000 164 137 149
0.365315 0.687422 2.244000 164 141 148
0.363036 0.687036 2.230000 164 139 149
0.360594 0.686292 2.215000 164 138 149
0.358315 0.685808 2.201000 164 140 148
0.353920 0.681200 2.174000 165 144 147
0.353920 0.685006 2.174000 166 143 150
0.351640 0.684376 2.160000 167 142 152
0.345129 0.675413 2.120000 168 141 152
0.343012 0.674960 2.107000 169 143 152
0.343012 0.678648 2.107000 171 139 153
0.338942 0.674240 2.082000 169 139 153
0.336826 0.673652 2.069000 168 139 154
0.334872 0.673346 2.057000 163 139 155
0.330965 0.669048 2.033000 159 140 155
0.327058 0.664667 2.009000 165 140 155
0.325267 0.664525 1.998000 172 140 158
0.323314 0.664010 1.986000 172 140 161
0.323314 0.667487 1.986000 172 141 156
0.321523 0.667247 1.975000 171 142 151
0.321523 0.670704 1.975000 171 144 152
0.319732 0.670407 1.964000 170 148 154
0.315988 0.665953 1.941000 169 145 156
0.310778 0.658316 1.909000 167 144 158
0.307360 0.654379 1.888000 165 144 159
0.305732 0.654201 1.878000 168 143 160
0.304104 0.653987 1.868000 171 142 162
0.302476 0.653738 1.858000 171 144 164
0.302476 0.656991 1.858000 171 146 162
0.300848 0.656690 1.848000 170 148 161
0.297592 0.652783 1.828000 170 149 159
0.296127 0.652753 1.819000 171 151 158
0.294499 0.652331 1.809000 173 151 163
0.293034 0.652236 1.800000 171 149 168
0.289941 0.648469 1.781000 170 147 167
0.288475 0.648294 1.772000 169 148 166
0.288475 0.651396 1.772000 169 147 165
0.285545 0.647850 1.754000 172 146 165
0.282615 0.644240 1.736000 176 147 164
0.281312 0.644296 1.728000 177 154 163
0.279847 0.643950 1.719000 179 151 166
0.278545 0.643948 1.711000 178 148 169
0.277080 0.643540 1.702000 177 149 168
0.275777 0.643480 1.694000 176 151 167
0.274475 0.643393 1.686000 176 152 166
0.273010 0.642894 1.677000 175 152 165
0.271707 0.642749 1.669000 175 149 166
0.270405 0.642576 1.661000 174 146 168
0.267800 0.639265 1.645000 174 147 164
0.265358 0.636289 1.630000 175 152 161
0.264056 0.636006 1.622000 177 154 163
0.261614 0.632937 1.607000 179 155 165
0.260474 0.632981 1.600000 182 152 167
0.259172 0.632603 1.592000 180 149 169
0.258032 0.632596 1.585000 179 149 168
0.256893 0.632564 1.578000 179 150 167
0.255753 0.632508 1.571000 180 150 166
0.253311 0.629193 1.556000 182 149 166
0.252660 0.630292 1.552000 184 151 167
0.252172 0.631785 1.549000 182 153 168
0.250055 0.629172 1.536000 180 153 169
0.248916 0.628981 1.529000 179 153 170
0.247776 0.628766 1.522000 179 154 168
0.246637 0.628526 1.515000 179 157 166
0.245660 0.628678 1.509000 179 154 167
0.244520 0.628391 1.502000 179 153 169
0.421240 0.712524 2.560000 162 132 152
0.418278 0.711963 2.542000 168 134 143
0.412190 0.705986 2.505000 167 129 134
0.406267 0.700162 2.469000 166 126 138
0.406267 0.704484 2.469000 163 131 143
0.403305 0.703638 2.451000 161 132 147
0.400507 0.703018 2.434000 162 133 152
0.397710 0.702339 2.417000 164 132 149
0.397710 0.706570 2.417000 164 134 147
0.389483 0.696097 2.367000 164 135 147
0.386850 0.695507 2.351000 163 133 148
0.381749 0.690397 2.320000 162 133 146
0.379116 0.689669 2.304000 164 137 145
0.376648 0.689186 2.289000 166 138 148
0.374180 0.688650 2.274000 165 137 151
0.374180 0.692631 2.274000 164 139 149
0.369244 0.687422 2.244000 163 140 148
0.366940 0.687036 2.230000 163 142 147
0.364472 0.686292 2.215000 161 139 147
0.362168 0.685808 2.201000 160 139 145
0.359864 0.685274 2.187000 163 141 143
0.357725 0.685006 2.174000 166 143 146
0.355422 0.684376 2.160000 167 141 150
0.348840 0.675413 2.120000 167 140 150
0.346701 0.674960 2.107000 170 138 150
0.346701 0.678648 2.107000 173 136 151
0.342587 0.674240 2.082000 170 137 153
0.340448 0.673652 2.069000 168 140 157
0.338473 0.673346 2.057000 165 140 162
0.334524 0.669048 2.033000 163 141 158
0.330575 0.664667 2.009000 167 140 155
0.328765 0.664525 1.998000 171 141 155
0.326790 0.664010 1.986000 170 140 155
0.326790 0.667487 1.986000 170 141 150
0.324980 0.667247 1.975000 169 141 146
0.324980 0.670704 1.975000 168 141 149
0.323170 0.670407 1.964000 169 143 153
0.319386 0.665953 1.941000 170 144 155
0.315930 0.662109 1.920000 169 144 157
0.310665 0.654379 1.888000 168 144 158
0.309019 0.654201 1.878000 172 143 160
0.307374 0.653987 1.868000 176 144 163
0.305728 0.653738 1.858000 175 145 167
0.305728 0.656991 1.858000 174 146 163
0.304083 0.656690 1.848000 175 147 160
0.300792 0.652783 1.828000 176 148 156
0.299311 0.652753 1.819000 174 149 153
0.297666 0.652331 1.809000 173 151 158
0.296185 0.652236 1.800000 172 149 163
0.293058 0.648469 1.781000 170 144 163
0.293058 0.651587 1.781000 171 145 164
0.291577 0.651396 1.772000 171 142 164
0.288615 0.647850 1.754000 172 145 165
0.285654 0.644240 1.736000 174 145 163
0.284337 0.644296 1.728000 175 148 162
0.282856 0.643950 1.719000 176 149 163
0.280059 0.640561 1.702000 176 149 165
0.278743 0.640515 1.694000 176 149 166
0.277426 0.640442 1.686000 175 150 167
0.277426 0.643393 1.686000 175 152 165
0.275945 0.642894 1.677000 174 151 164
0.274629 0.642749 1.669000 173 149 163
0.271996 0.639481 1.653000 174 146 163
0.269528 0.636545 1.638000 174 145 159
0.266895 0.633166 1.622000 175 150 156
0.266895 0.636006 1.622000 176 154 161
0.264427 0.632937 1.607000 177 153 166
0.263275 0.632981 1.600000 179 152 167
0.261959 0.632603 1.592000 178 150 169
0.260807 0.632596 1.585000 177 149 168
0.259655 0.632564 1.578000 176 149 167
0.257187 0.629287 1.563000 175 149 165
0.256035 0.629193 1.556000 178 149 164
0.256035 0.631917 1.556000 181 152 166
0.254883 0.631785 1.549000 179 152 169
0.253731 0.631630 1.542000 177 153 170
0.251592 0.628981 1.529000 176 151 172
0.250441 0.628766 1.522000 174 152 168
0.249289 0.628526 1.515000 176 153 165
0.248301 0.628678 1.509000 177 153 164
0.247150 0.628391 1.502000 177 153 164
0.452662 0.733789 2.722000 159 127 138
0.449170 0.732856 2.701000 159 129 144
0.425722 0.712524 2.560000 164 132 146
0.425722 0.717005 2.560000 174 131 141
0.416575 0.705986 2.505000 169 129 137
0.410589 0.700162 2.469000 165 128 140
0.413582 0.709620 2.487000 161 130 144
0.410589 0.708806 2.469000 158 132 147
0.407595 0.707929 2.451000 161 133 150
0.404768 0.707279 2.434000 164 134 148
0.401941 0.706570 2.417000 164 139 146
0.399114 0.705802 2.400000 165 135 145
0.388305 0.690774 2.335000 162 134 145
0.385810 0.690397 2.320000 160 136 145
0.383150 0.689669 2.304000 163 143 146
0.383150 0.693702 2.304000 166 138 147
0.378161 0.688650 2.274000 165 138 149
0.375666 0.688062 2.259000 165 138 145
0.373172 0.687422 2.244000 163 140 142
0.370843 0.687036 2.230000 162 140 145
0.368349 0.686292 2.215000 159 140 148
0.366021 0.685808 2.201000 157 139 148
0.363693 0.685274 2.187000 162 139 149
0.363693 0.689102 2.187000 167 140 148
0.361531 0.688811 2.174000 167 142 148
0.359203 0.688157 2.160000 167 137 145
0.350389 0.674960 2.107000 171 135 143
0.350389 0.678648 2.107000 175 135 146
0.346231 0.674240 2.082000 171 136 150
0.344070 0.673652 2.069000 168 138 155
0.342074 0.673346 2.057000 168 141 159
0.338083 0.669048 2.033000 168 142 157
0.336087 0.668637 2.021000 169 140 154
0.332262 0.664525 1.998000 170 142 155
0.330267 0.664010 1.986000 169 141 156
0.330267 0.667487 1.986000 169 141 153
0.328438 0.667247 1.975000 167 142 150
0.328438 0.670704 1.975000 165 141 151
0.326608 0.670407 1.964000 168 142 152
0.322783 0.665953 1.941000 171 144 154
0.317462 0.658316 1.909000 171 146 156
0.313970 0.654379 1.888000 172 143 158
0.312307 0.654201 1.878000 177 142 160
0.310644 0.653987 1.868000 182 143 162
0.308981 0.653738 1.858000 179 147 165
0.307318 0.653455 1.848000 177 147 162
0.305655 0.653136 1.838000 179 147 160
0.303992 0.652783 1.828000 182 147 159
0.302495 0.652753 1.819000 178 147 158
0.299336 0.649086 1.800000 174 149 161
0.297673 0.648613 1.790000 172 153 165
0.296176 0.648469 1.781000 171 149 161
0.296176 0.651587 1.781000 172 149 158
0.294679 0.651396 1.772000 174 147 161
0.291686 0.647850 1.754000 173 150 165
0.288692 0.644240 1.736000 172 147 162
0.285865 0.640940 1.719000 173 146 158
0.284535 0.640953 1.711000 174 148 161
0.283038 0.640561 1.702000 174 150 165
0.281708 0.640515 1.694000 175 149 167
0.280378 0.640442 1.686000 174 150 169
0.280378 0.643393 1.686000 174 152 166
0.278881 0.642894 1.677000 173 152 163
0.277551 0.642749 1.669000 172 148 163
0.276220 0.642576 1.661000 173 147 163
0.273559 0.639265 1.645000 175 147 161
0.271065 0.636289 1.630000 175 150 160
0.269735 0.636006 1.622000 175 150 164
0.267240 0.632937 1.607000 176 152 167
0.266076 0.632981 1.600000 177 152 168
0.264746 0.632603 1.592000 176 153 170
0.263582 0.632596 1.585000 176 150 171
0.262417 0.632564 1.578000 173 148 173
0.261253 0.632508 1.571000 171 148 165
0.259923 0.632023 1.563000 175 149 158
0.258759 0.631917 1.556000 179 152 163
0.257595 0.631785 1.549000 177 153 169
0.255433 0.629172 1.536000 175 151 169
0.254269 0.628981 1.529000 172 149 170
0.253105 0.628766 1.522000 170 150 168
0.250943 0.626037 1.509000 173 150 165
0.249779 0.625762 1.502000 176 152 163
0.249779 0.628391 1.502000 176 153 161
0.457427 0.733789 2.722000 159 127 139
0.457427 0.738554 2.722000 161 127 148
0.430203 0.712524 2.560000 162 130 140
0.430203 0.717005 2.560000 167 131 140
0.420960 0.705986 2.505000 165 129 140
0.417935 0.705266 2.487000 163 130 142
0.417935 0.709620 2.487000 161 131 145
0.417935 0.713973 2.487000 160 133 146
0.414911 0.713128 2.469000 163 134 148
0.411886 0.712219 2.451000 167 134 146
0.409029 0.711540 2.434000 166 135 145
0.397770 0.696097 2.367000 164 134 144
0.395081 0.695507 2.351000 162 134 143
0.389871 0.690397 2.320000 160 135 145
