ply
format ascii 1.0
element vertex 1270
property float x
property float y
property float z
property uchar red
property uchar green
property uchar blue
end_header
-1.158428 -0.030033 2.451000 99 47 34
-1.158428 -0.025743 2.451000 99 49 39
-1.150394 -0.021304 2.434000 101 44 45
-1.150394 -0.017043 2.434000 104 42 28
-1.150394 -0.012782 2.434000 100 47 12
-1.150394 -0.008521 2.434000 97 50 26
-1.150394 -0.004261 2.434000 95 48 41
-1.150394 -0.000000 2.434000 94 47 35
-1.150394 0.004261 2.434000 96 48 30
-1.150394 0.008522 2.434000 99 50 34
-1.158428 0.012871 2.451000 98 47 39
-1.150394 0.017043 2.434000 98 44 33
-1.150394 0.021304 2.434000 98 42 27
-1.150394 0.025564 2.434000 97 42 30
-1.150394 0.029825 2.434000 94 43 33
-1.150394 0.034086 2.434000 91 46 29
-1.150394 0.038346 2.434000 93 45 26
-1.150394 0.042607 2.434000 96 46 26
-1.142359 0.046541 2.417000 96 46 27
-1.150394 0.051129 2.434000 96 46 34
-1.150394 0.055389 2.434000 95 47 41
-1.150394 0.059650 2.434000 94 49 35
-1.158428 0.064357 2.451000 94 45 30
-1.158428 0.068648 2.451000 94 44 25
-1.158428 0.072938 2.451000 99 48 21
-1.158428 0.077229 2.451000 104 49 25
-1.158428 0.081519 2.451000 101 49 30
-1.150394 0.085214 2.434000 99 52 24
-1.150394 0.089475 2.434000 95 51 19
-1.142359 0.093081 2.417000 91 53 15
-1.142359 0.097312 2.417000 93 52 12
-1.142359 0.101543 2.417000 94 49 19
-1.150394 0.106518 2.434000 97 47 26
-1.150394 0.110779 2.434000 101 46 28
-1.158428 0.115843 2.451000 96 45 30
-1.158428 0.120133 2.451000 91 47 35
-1.166936 0.125338 2.469000 84 51 41
-1.166936 0.129660 2.469000 78 50 48
-1.175443 0.134958 2.487000 82 50 55
-1.192458 0.141328 2.523000 86 57 59
-1.201438 0.146843 2.542000 85 58 63
-1.219398 0.153554 2.580000 84 59 60
-1.228379 0.159234 2.599000 85 60 58
-1.237831 0.165044 2.619000 87 63 47
-1.237831 0.169629 2.619000 88 59 36
-1.247284 0.175544 2.639000 88 55 54
-1.247284 0.180163 2.639000 83 57 72
-1.237831 0.183382 2.619000 78 60 54
-1.237831 0.187967 2.619000 79 61 36
-1.237831 0.192552 2.619000 80 60 45
-1.237831 0.197136 2.619000 80 60 55
-1.237831 0.201721 2.619000 79 59 56
-1.237831 0.206305 2.619000 80 55 58
-1.237831 0.210890 2.619000 82 57 54
-1.237831 0.215474 2.619000 79 63 50
-1.237831 0.220059 2.619000 77 69 51
-1.237831 0.224644 2.619000 80 63 52
-1.237831 0.229228 2.619000 82 61 52
-1.237831 0.233813 2.619000 85 63 52
-1.237831 0.238397 2.619000 88 64 53
-1.237831 0.242982 2.619000 91 61 55
-1.237831 0.247566 2.619000 95 59 59
-1.237831 0.252151 2.619000 92 61 64
-1.237831 0.256735 2.619000 89 66 63
-1.237831 0.261320 2.619000 88 62 62
-1.237831 0.265905 2.619000 86 60 67
-1.237831 0.270489 2.619000 91 62 73
-1.237831 0.275074 2.619000 96 63 64
-1.237831 0.279658 2.619000 91 63 56
-1.237831 0.284243 2.619000 86 71 52
-1.237831 0.288827 2.619000 86 69 49
-1.237831 0.293412 2.619000 87 66 53
-1.237831 0.297996 2.619000 85 63 57
-1.237831 0.302581 2.619000 84 62 66
-1.237831 0.307166 2.619000 83 63 75
-1.237831 0.311750 2.619000 82 64 68
-1.237831 0.316335 2.619000 86 59 62
-1.237831 0.320919 2.619000 90 55 57
-1.237831 0.325504 2.619000 87 56 52
-1.247284 0.332609 2.639000 83 57 47
-1.247284 0.337229 2.639000 86 58 42
-1.247284 0.341848 2.639000 88 56 47
-1.247284 0.346468 2.639000 84 56 52
-1.247284 0.351087 2.639000 81 59 54
-1.237831 0.353011 2.619000 82 57 56
-1.237831 0.357596 2.619000 83 55 62
-1.237831 0.362180 2.619000 83 57 69
-1.237831 0.366765 2.619000 83 60 64
-1.237831 0.371349 2.619000 84 53 59
-1.237831 0.375934 2.619000 85 50 58
-1.237831 0.380519 2.619000 88 58 57
-1.228379 0.382162 2.599000 91 61 63
-1.228379 0.386712 2.599000 89 56 69
-1.228379 0.391261 2.599000 88 53 66
-1.228379 0.395811 2.599000 87 55 63
-1.228379 0.400361 2.599000 87 58 68
-1.228379 0.404910 2.599000 81 57 74
-1.237831 0.412611 2.619000 76 55 65
-1.237831 0.417195 2.619000 85 55 57
-1.237831 0.421780 2.619000 94 56 60
-1.237831 0.426364 2.619000 90 50 63
-1.237831 0.430949 2.619000 85 49 56
-1.247284 0.438859 2.639000 88 52 49
-1.237831 0.440118 2.619000 91 54 46
-1.237831 0.444702 2.619000 87 54 43
-1.237831 0.449287 2.619000 83 57 48
-1.237831 0.453871 2.619000 81 52 53
-1.237831 0.458456 2.619000 79 51 49
-1.237831 0.463041 2.619000 80 49 46
-1.237831 0.467625 2.619000 81 47 45
-1.237831 0.472210 2.619000 78 46 45
-1.237831 0.476794 2.619000 75 50 49
-1.237831 0.481379 2.619000 75 53 53
-1.247284 0.489674 2.639000 75 56 46
-1.247284 0.494294 2.639000 75 49 39
-1.247284 0.498914 2.639000 75 45 41
-1.247284 0.503533 2.639000 73 44 44
-1.247284 0.508153 2.639000 71 43 41
-1.247284 0.512772 2.639000 70 42 38
-1.247284 0.517392 2.639000 70 42 38
-1.247284 0.522012 2.639000 66 43 39
-1.237831 0.522640 2.619000 62 46 34
-1.237831 0.527224 2.619000 64 42 30
-1.237831 0.531809 2.619000 66 39 25
-1.237831 0.536394 2.619000 67 38 20
-1.237831 0.540978 2.619000 68 39 23
-1.237831 0.545563 2.619000 64 36 26
-1.237831 0.550147 2.619000 60 32 24
-1.247284 0.558968 2.639000 57 35 22
-1.237831 0.559316 2.619000 54 39 23
-1.237831 0.563901 2.619000 56 33 25
-1.237831 0.568486 2.619000 58 31 26
-1.247284 0.577446 2.639000 56 30 27
-1.247284 0.582066 2.639000 55 28 33
-1.237831 0.582239 2.619000 56 28 40
-1.237831 0.586824 2.619000 57 33 24
-1.237831 0.591408 2.619000 61 31 8
-1.237831 0.595993 2.619000 65 29 13
-1.237831 0.600578 2.619000 59 28 19
-1.237831 0.605162 2.619000 53 31 20
-1.237831 0.609747 2.619000 50 26 21
-1.237831 0.614331 2.619000 48 24 17
-1.247284 0.623642 2.639000 50 24 14
-1.247284 0.628262 2.639000 52 24 18
-1.247284 0.632881 2.639000 48 21 22
-1.247284 0.637501 2.639000 45 24 22
-1.247284 0.642120 2.639000 44 20 22
-1.237831 0.641838 2.619000 43 17 25
-1.237831 0.646423 2.619000 42 17 29
-1.237831 0.651008 2.619000 42 22 21
-1.247284 0.660599 2.639000 42 17 14
-1.247284 0.665218 2.639000 42 13 12
-1.247284 0.669838 2.639000 42 15 11
-1.247284 0.674457 2.639000 42 18 10
-1.247284 0.679077 2.639000 36 12 9
-1.247284 0.683696 2.639000 30 9 7
-1.247284 0.688316 2.639000 29 11 5
-1.237831 0.687684 2.619000 29 9 6
-1.237831 0.692269 2.619000 28 7 7
-1.237831 0.696853 2.619000 27 5 8
-1.237831 0.701438 2.619000 24 5 9
-1.237831 0.706022 2.619000 22 7 8
-1.228379 0.705180 2.599000 20 6 8
-1.219398 0.704541 2.580000 19 5 8
-1.201438 0.698614 2.542000 27 9 8
-1.198130 0.701128 2.535000 35 12 10
-0.912658 0.645621 1.931000 140 124 134
-0.917385 0.652362 1.941000 149 126 138
-0.912658 0.652382 1.931000 148 132 142
-0.912658 0.655762 1.931000 147 132 142
-0.907459 0.655387 1.920000 150 131 143
-0.902260 0.654974 1.909000 154 131 148
-0.892335 0.651074 1.888000 154 132 154
-0.892335 0.654379 1.888000 155 136 154
-0.887609 0.654201 1.878000 157 138 154
-0.887609 0.657488 1.878000 159 142 156
-0.882882 0.657257 1.868000 162 143 158
-0.882882 0.660527 1.868000 165 143 160
-0.873430 0.656690 1.848000 167 142 163
-0.854997 0.645998 1.809000 169 140 164
-0.841763 0.639116 1.781000 170 141 166
-0.837509 0.638989 1.772000 172 142 166
-0.837509 0.642090 1.772000 172 145 166
-0.837509 0.645192 1.772000 172 150 168
-0.833256 0.645002 1.763000 175 155 170
-0.829002 0.644779 1.754000 178 155 173
-0.826639 0.646003 1.749000 182 153 177
-0.824748 0.647580 1.745000 186 153 178
-0.816713 0.644296 1.728000 184 161 179
-0.808679 0.640953 1.711000 183 170 181
-0.800644 0.637550 1.694000 184 170 184
-0.792609 0.634087 1.677000 185 170 187
-0.792609 0.637023 1.677000 186 171 190
-0.788828 0.636906 1.669000 186 175 191
-0.785047 0.636760 1.661000 187 176 192
-0.777485 0.633506 1.645000 189 177 191
-0.770395 0.630583 1.630000 191 175 190
-0.766614 0.630327 1.622000 194 177 182
-0.763306 0.630434 1.615000 195 174 175
-0.759525 0.630124 1.607000 196 175 190
-0.756216 0.630180 1.600000 197 180 205
-0.756216 0.632981 1.600000 199 184 204
-0.749127 0.629821 1.585000 196 184 203
-0.749127 0.632596 1.585000 194 186 203
-0.745818 0.632564 1.578000 195 187 203
-0.742510 0.632508 1.571000 197 187 202
-0.735420 0.629193 1.556000 199 180 202
-0.733530 0.630292 1.552000 200 169 204
-0.732112 0.631785 1.549000 201 174 206
-0.725967 0.629172 1.536000 202 172 206
-0.722659 0.628981 1.529000 203 180 206
-0.719351 0.628766 1.522000 205 185 207
-0.716042 0.628526 1.515000 204 186 209
-0.713206 0.628678 1.509000 204 190 206
-0.707062 0.625881 1.496000 204 189 204
-1.130123 -0.235267 2.400000 94 31 17
-1.130123 -0.231066 2.400000 89 20 11
-1.130123 -0.226865 2.400000 84 31 10
-1.130123 -0.222664 2.400000 129 81 10
-1.130123 -0.218462 2.400000 175 115 72
-1.138128 -0.215779 2.417000 177 173 135
-1.138128 -0.211548 2.417000 179 158 146
-1.146133 -0.208775 2.434000 99 104 157
-1.146133 -0.204514 2.434000 19 44 88
-1.154138 -0.201652 2.451000 43 1 19
-1.171090 -0.039181 2.487000 95 47 39
-1.162614 -0.034576 2.469000 95 45 35
-1.162614 -0.030254 2.469000 97 46 31
-1.154138 -0.025743 2.451000 100 45 34
-1.154138 -0.021452 2.451000 103 40 38
-1.146133 -0.017043 2.434000 107 43 28
-1.154138 -0.012871 2.451000 102 46 18
-1.154138 -0.008581 2.451000 98 48 25
-1.146133 -0.004261 2.434000 98 47 33
-1.154138 -0.000000 2.451000 99 46 29
-1.154138 0.004291 2.451000 101 46 25
-1.154138 0.008581 2.451000 103 47 27
-1.154138 0.012871 2.451000 101 47 30
-1.154138 0.017162 2.451000 99 46 22
-1.146133 0.021304 2.434000 98 44 14
-1.146133 0.025564 2.434000 97 42 21
-1.146133 0.029825 2.434000 92 42 28
-1.146133 0.034086 2.434000 88 44 24
-1.146133 0.038346 2.434000 91 47 20
-1.146133 0.042607 2.434000 95 46 23
-1.146133 0.046868 2.434000 96 46 26
-1.154138 0.051486 2.451000 97 47 29
-1.154138 0.055776 2.451000 94 50 33
-1.154138 0.060067 2.451000 91 48 29
-1.154138 0.064357 2.451000 93 43 25
-1.154138 0.068648 2.451000 96 45 22
-1.154138 0.072938 2.451000 103 49 20
-1.154138 0.077229 2.451000 110 47 23
-1.154138 0.081519 2.451000 105 47 26
-1.154138 0.085810 2.451000 100 49 23
-1.154138 0.090100 2.451000 96 54 20
-1.146133 0.093736 2.434000 92 50 19
-1.154138 0.098681 2.451000 92 46 19
-1.154138 0.102971 2.451000 92 49 22
-1.154138 0.107262 2.451000 93 51 25
-1.154138 0.111552 2.451000 95 48 23
-1.154138 0.115843 2.451000 92 46 21
-1.162614 0.121016 2.469000 90 49 29
-1.162614 0.125338 2.469000 86 53 37
-1.162614 0.129660 2.469000 82 50 45
-1.171090 0.134958 2.487000 83 46 52
-1.179566 0.140320 2.505000 85 56 57
-1.196989 0.146843 2.542000 82 59 62
-1.223829 0.154685 2.599000 80 59 61
-1.233247 0.160460 2.619000 83 59 60
-1.242664 0.166305 2.639000 86 64 53
-1.242664 0.170924 2.639000 87 65 46
-1.242664 0.175544 2.639000 89 61 56
-1.242664 0.180163 2.639000 87 60 66
-1.242664 0.184783 2.639000 85 61 55
-1.242664 0.189402 2.639000 84 63 45
-1.233247 0.192552 2.619000 84 61 49
-1.233247 0.197136 2.619000 85 60 53
-1.233247 0.201721 2.619000 86 58 55
-1.233247 0.206305 2.619000 85 54 57
-1.233247 0.210890 2.619000 85 58 54
-1.233247 0.215474 2.619000 82 63 52
-1.223829 0.218378 2.599000 79 65 52
-1.223829 0.222928 2.599000 81 64 53
-1.223829 0.227478 2.599000 83 61 54
-1.223829 0.232027 2.599000 86 60 55
-1.233247 0.238397 2.619000 90 61 55
-1.233247 0.242982 2.619000 93 60 55
-1.233247 0.247566 2.619000 97 60 55
-1.233247 0.252151 2.619000 93 61 56
-1.233247 0.256735 2.619000 89 60 58
-1.233247 0.261320 2.619000 85 59 60
-1.233247 0.265905 2.619000 81 60 62
-1.233247 0.270489 2.619000 85 62 65
-1.233247 0.275074 2.619000 89 61 54
-1.233247 0.279658 2.619000 84 60 43
-1.233247 0.284243 2.619000 80 64 46
-1.242664 0.291033 2.639000 83 70 49
-1.233247 0.293412 2.619000 87 65 52
-1.233247 0.297996 2.619000 85 62 56
-1.233247 0.302581 2.619000 83 60 58
-1.233247 0.307166 2.619000 80 63 61
-1.233247 0.311750 2.619000 77 60 61
-1.242664 0.318750 2.639000 85 57 62
-1.242664 0.323370 2.639000 94 54 59
-1.242664 0.327989 2.639000 86 54 57
-1.242664 0.332609 2.639000 79 58 54
-1.242664 0.337229 2.639000 85 60 52
-1.242664 0.341848 2.639000 92 56 53
-1.242664 0.346468 2.639000 86 50 54
-1.242664 0.351087 2.639000 81 55 54
-1.242664 0.355707 2.639000 81 56 54
-1.233247 0.357596 2.619000 82 55 58
-1.242664 0.364946 2.639000 82 56 63
-1.242664 0.369566 2.639000 83 54 60
-1.233247 0.371349 2.619000 84 47 57
-1.233247 0.375934 2.619000 85 52 56
-1.233247 0.380519 2.619000 83 61 56
-1.233247 0.385103 2.619000 82 60 57
-1.233247 0.389688 2.619000 85 56 58
-1.223829 0.391261 2.599000 88 55 58
-1.223829 0.395811 2.599000 86 55 58
-1.223829 0.400361 2.599000 84 59 60
-1.233247 0.408026 2.619000 74 62 63
-1.233247 0.412611 2.619000 65 57 60
-1.233247 0.417195 2.619000 82 55 56
-1.233247 0.421780 2.619000 99 54 56
-1.233247 0.426364 2.619000 92 49 56
-1.242664 0.434240 2.639000 86 52 48
-1.242664 0.438859 2.639000 86 51 41
-1.242664 0.443479 2.639000 87 53 42
-1.233247 0.444702 2.619000 85 55 43
-1.233247 0.449287 2.619000 83 53 52
-1.233247 0.453871 2.619000 82 50 60
-1.233247 0.458456 2.619000 82 50 53
-1.233247 0.463041 2.619000 83 51 46
-1.233247 0.467625 2.619000 85 48 44
-1.233247 0.472210 2.619000 81 44 42
-1.233247 0.476794 2.619000 77 48 44
-1.233247 0.481379 2.619000 76 54 47
-1.242664 0.489674 2.639000 75 52 44
-1.242664 0.494294 2.639000 77 51 41
-1.242664 0.498914 2.639000 79 47 44
-1.242664 0.503533 2.639000 77 44 46
-1.242664 0.508153 2.639000 75 42 43
-1.242664 0.512772 2.639000 73 41 39
-1.242664 0.517392 2.639000 71 39 38
-1.242664 0.522012 2.639000 67 40 36
-1.233247 0.522640 2.619000 64 41 32
-1.233247 0.527224 2.619000 64 41 29
-1.233247 0.531809 2.619000 65 40 26
-1.242664 0.540490 2.639000 64 38 23
-1.242664 0.545109 2.639000 63 35 23
-1.242664 0.549729 2.639000 60 35 24
-1.252082 0.558550 2.659000 58 33 19
-1.252082 0.563204 2.659000 54 33 15
-1.252082 0.567859 2.659000 50 34 17
-1.252082 0.572513 2.659000 53 35 20
-1.242664 0.572827 2.639000 56 34 22
-1.242664 0.577446 2.639000 51 34 25
-1.242664 0.582066 2.639000 46 30 29
-1.242664 0.586685 2.639000 52 26 34
-1.233247 0.586824 2.619000 59 28 23
-1.233247 0.591408 2.619000 66 30 13
-1.233247 0.595993 2.619000 74 29 16
-1.242664 0.605164 2.639000 63 29 20
-1.242664 0.609783 2.639000 53 29 26
-1.242664 0.614403 2.639000 50 26 32
-1.242664 0.619022 2.639000 47 24 24
-1.242664 0.623642 2.639000 50 25 16
-1.242664 0.628262 2.639000 54 21 17
-1.242664 0.632881 2.639000 50 18 18
-1.242664 0.637501 2.639000 47 20 19
-1.242664 0.642120 2.639000 46 19 21
-1.242664 0.646740 2.639000 46 18 21
-1.233247 0.646423 2.619000 44 20 21
-1.242664 0.655979 2.639000 42 18 14
-1.242664 0.660599 2.639000 41 19 7
-1.242664 0.665218 2.639000 40 15 11
-1.242664 0.669838 2.639000 40 16 16
-1.242664 0.674457 2.639000 40 16 12
-1.242664 0.679077 2.639000 35 14 9
-1.242664 0.683696 2.639000 30 12 6
-1.242664 0.688316 2.639000 29 14 4
-1.233247 0.687684 2.619000 28 10 4
-1.233247 0.692269 2.619000 26 8 4
-1.233247 0.696853 2.619000 24 7 6
-1.233247 0.701438 2.619000 21 6 9
-1.233247 0.706022 2.619000 19 7 10
-1.223829 0.705180 2.599000 22 7 11
-1.214882 0.704541 2.580000 26 6 9
-1.196989 0.698614 2.542000 36 9 8
-1.188042 0.697809 2.523000 47 10 9
-0.913987 0.652362 1.941000 155 129 139
-0.913987 0.655760 1.941000 152 138 142
-0.909278 0.655762 1.931000 150 133 143
-0.904098 0.655387 1.920000 152 132 144
-0.898919 0.654974 1.909000 155 132 149
-0.894210 0.654867 1.899000 155 135 155
-0.889030 0.654379 1.888000 155 136 155
-0.884321 0.654201 1.878000 156 138 155
-0.879612 0.653987 1.868000 158 141 157
-0.874904 0.653738 1.858000 161 143 158
-0.874904 0.656991 1.858000 164 143 161
-0.860777 0.649583 1.828000 166 143 164
-0.851830 0.645998 1.809000 169 142 166
-0.838645 0.639116 1.781000 171 143 168
-0.834407 0.638989 1.772000 174 144 167
-0.834407 0.642090 1.772000 172 146 167
-0.834407 0.645192 1.772000 171 150 169
-0.830169 0.645002 1.763000 174 157 172
-0.830169 0.648088 1.763000 178 155 175
-0.825931 0.647850 1.754000 184 152 178
-0.821694 0.647580 1.745000 190 157 180
-0.817456 0.647279 1.736000 187 164 181
-0.813689 0.647321 1.728000 185 166 183
-0.805683 0.643948 1.711000 185 169 185
-0.793911 0.637490 1.686000 185 169 187
-0.789673 0.637023 1.677000 186 169 190
-0.789673 0.639958 1.677000 188 172 191
-0.785906 0.639827 1.669000 188 179 193
-0.778372 0.636587 1.653000 188 179 192
-0.774605 0.636386 1.645000 191 181 192
-0.763775 0.630327 1.622000 195 177 190
-0.756711 0.627311 1.607000 197 172 188
-0.753415 0.627379 1.600000 199 176 195
-0.753415 0.630180 1.600000 199 183 203
-0.746352 0.627047 1.585000 200 183 203
-0.746352 0.629821 1.585000 199 181 203
-0.743056 0.629802 1.578000 199 185 203
-0.743056 0.632564 1.578000 199 192 203
-0.739760 0.632508 1.571000 199 188 202
-0.735993 0.632023 1.563000 201 186 201
-0.732696 0.631917 1.556000 203 174 201
-0.729400 0.631785 1.549000 203 169 201
-0.723279 0.629172 1.536000 203 176 202
-0.719982 0.628981 1.529000 202 177 204
-0.716686 0.628766 1.522000 202 182 206
-0.713390 0.628526 1.515000 201 186 208
-0.704443 0.623262 1.496000 201 188 206
-0.701147 0.622952 1.489000 201 188 205
-1.125922 -0.235267 2.400000 92 37 22
-1.125922 -0.231066 2.400000 85 28 21
-1.125922 -0.226865 2.400000 79 17 19
-1.125922 -0.222664 2.400000 117 49 17
-1.125922 -0.218462 2.400000 156 79 65
-1.133897 -0.215779 2.417000 169 152 114
-1.133897 -0.211548 2.417000 183 183 138
-1.141872 -0.208775 2.434000 119 131 163
-1.141872 -0.204514 2.434000 56 71 95
-1.149848 -0.201652 2.451000 56 19 28
-1.166736 -0.039181 2.487000 93 47 45
-1.166736 -0.034828 2.487000 95 46 36
-1.166736 -0.030474 2.487000 96 47 28
-1.158292 -0.025932 2.469000 98 47 30
-1.158292 -0.021610 2.469000 99 44 32
-1.149848 -0.017162 2.451000 101 44 28
-1.158292 -0.012966 2.469000 99 46 24
-1.149848 -0.008581 2.451000 98 50 25
-1.149848 -0.004290 2.451000 98 48 26
-1.149848 -0.000000 2.451000 98 47 23
-1.149848 0.004291 2.451000 96 46 21
-1.149848 0.008581 2.451000 95 46 21
-1.149848 0.012871 2.451000 95 48 21
-1.141872 0.017043 2.434000 96 49 11
-1.141872 0.021304 2.434000 96 45 2
-1.141872 0.025564 2.434000 97 43 13
-1.149848 0.030033 2.451000 98 41 24
-1.149848 0.034324 2.451000 99 41 19
-1.141872 0.038346 2.434000 97 43 14
-1.141872 0.042607 2.434000 96 45 20
-1.149848 0.047195 2.451000 97 45 26
-1.149848 0.051486 2.451000 97 47 25
-1.158292 0.056186 2.469000 94 49 25
-1.149848 0.060067 2.451000 91 50 22
-1.158292 0.064830 2.469000 91 47 20
-1.149848 0.068648 2.451000 91 46 19
-1.158292 0.073474 2.469000 97 46 19
-1.158292 0.077796 2.469000 103 46 21
-1.149848 0.081519 2.451000 101 46 23
-1.158292 0.086440 2.469000 98 46 22
-1.149848 0.090100 2.451000 95 49 21
-1.158292 0.095084 2.469000 93 47 23
-1.158292 0.099406 2.469000 91 48 26
-1.158292 0.103728 2.469000 89 52 25
-1.158292 0.108050 2.469000 92 52 25
-1.158292 0.112372 2.469000 95 51 19
-1.158292 0.116694 2.469000 93 49 13
-1.158292 0.121016 2.469000 92 52 23
-1.158292 0.125338 2.469000 87 52 34
-1.158292 0.129660 2.469000 82 52 42
-1.158292 0.133982 2.469000 83 56 50
-1.166736 0.139312 2.487000 84 63 55
-1.192539 0.146843 2.542000 83 61 61
-1.219279 0.154685 2.599000 83 59 61
-1.238045 0.161685 2.639000 86 62 62
-1.238045 0.166305 2.639000 89 69 59
-1.247427 0.172219 2.659000 90 66 56
-1.247427 0.176874 2.659000 91 65 58
-1.238045 0.180163 2.639000 89 62 61
-1.238045 0.184783 2.639000 88 62 57
-1.238045 0.189402 2.639000 87 60 54
-1.238045 0.194022 2.639000 87 63 53
-1.238045 0.198642 2.639000 87 62 52
-1.228662 0.201721 2.619000 88 60 54
-1.228662 0.206305 2.619000 90 59 56
-1.228662 0.210890 2.619000 92 60 55
-1.228662 0.215474 2.619000 87 64 54
-1.228662 0.220059 2.619000 83 66 54
-1.228662 0.224644 2.619000 83 63 55
-1.228662 0.229228 2.619000 84 61 56
-1.228662 0.233813 2.619000 86 61 58
-1.238045 0.240218 2.639000 89 61 56
-1.238045 0.244837 2.639000 90 59 55
-1.228662 0.247566 2.619000 92 60 51
-1.228662 0.252151 2.619000 90 57 48
-1.228662 0.256735 2.619000 87 55 53
-1.238045 0.263316 2.639000 85 57 58
-1.228662 0.265905 2.619000 84 60 58
-1.238045 0.272555 2.639000 85 60 58
-1.238045 0.277174 2.639000 87 60 44
-1.228662 0.279658 2.619000 85 59 31
-1.228662 0.284243 2.619000 82 58 40
-1.238045 0.291033 2.639000 84 62 49
-1.228662 0.293412 2.619000 85 63 52
-1.228662 0.297996 2.619000 85 59 56
-1.228662 0.302581 2.619000 85 56 51
-1.228662 0.307166 2.619000 83 58 47
-1.228662 0.311750 2.619000 80 58 54
-1.238045 0.318750 2.639000 85 55 62
-1.238045 0.323370 2.639000 90 51 62
-1.238045 0.327989 2.639000 86 54 62
-1.247427 0.335130 2.659000 83 61 62
-1.238045 0.337229 2.639000 86 61 63
-1.247427 0.344439 2.659000 90 60 59
-1.247427 0.349094 2.659000 85 56 56
-1.238045 0.351087 2.639000 80 56 54
-1.238045 0.355707 2.639000 80 57 53
-1.238045 0.360326 2.639000 81 56 55
-1.247427 0.367712 2.659000 82 55 57
-1.247427 0.372366 2.659000 84 56 56
-1.247427 0.377021 2.659000 84 51 56
-1.238045 0.378805 2.639000 84 51 55
-1.238045 0.383424 2.639000 82 57 55
-1.228662 0.385103 2.619000 79 62 51
-1.238045 0.392664 2.639000 82 57 47
-1.228662 0.394272 2.619000 85 57 50
-1.228662 0.398857 2.619000 84 57 53
-1.219279 0.400361 2.599000 83 61 53
-1.228662 0.408026 2.619000 77 60 53
-1.228662 0.412611 2.619000 71 58 54
-1.228662 0.417195 2.619000 81 56 56
-1.238045 0.425001 2.639000 91 58 52
-1.238045 0.429620 2.639000 87 55 49
-1.238045 0.434240 2.639000 83 59 41
-1.238045 0.438859 2.639000 83 54 34
-1.238045 0.443479 2.639000 84 53 39
-1.238045 0.448098 2.639000 82 53 44
-1.238045 0.452718 2.639000 81 53 56
-1.238045 0.457337 2.639000 80 51 68
-1.238045 0.461957 2.639000 80 49 57
-1.228662 0.463041 2.619000 80 49 47
-1.228662 0.467625 2.619000 80 51 43
-1.228662 0.472210 2.619000 76 47 39
-1.228662 0.476794 2.619000 72 46 40
-1.228662 0.481379 2.619000 70 47 42
-1.238045 0.489674 2.639000 69 47 43
-1.238045 0.494294 2.639000 73 47 44
-1.238045 0.498914 2.639000 77 48 46
-1.238045 0.503533 2.639000 74 44 49
-1.238045 0.508153 2.639000 72 42 45
-1.238045 0.512772 2.639000 70 40 41
-1.238045 0.517392 2.639000 67 36 37
-1.238045 0.522012 2.639000 63 37 34
-1.228662 0.522640 2.619000 59 39 31
-1.228662 0.527224 2.619000 61 39 28
-1.238045 0.535870 2.639000 63 44 27
-1.238045 0.540490 2.639000 66 36 26
-1.238045 0.545109 2.639000 68 31 24
-1.238045 0.549729 2.639000 63 31 22
-1.247427 0.558550 2.659000 58 33 15
-1.247427 0.563204 2.659000 55 33 8
-1.247427 0.567859 2.659000 53 32 12
-1.247427 0.572513 2.659000 55 35 16
-1.238045 0.572827 2.639000 57 36 19
-1.247427 0.581823 2.659000 54 35 23
-1.238045 0.582066 2.639000 51 34 25
-1.238045 0.586685 2.639000 53 28 28
-1.238045 0.591305 2.639000 56 23 23
-1.238045 0.595925 2.639000 60 25 19
-1.238045 0.600544 2.639000 63 30 20
-1.238045 0.605164 2.639000 56 30 21
-1.247427 0.614405 2.659000 49 30 32
-1.238045 0.614403 2.639000 44 25 44
-1.238045 0.619022 2.639000 38 24 31
-1.238045 0.623642 2.639000 50 22 19
-1.238045 0.628262 2.639000 61 19 16
-1.238045 0.632881 2.639000 53 17 14
-1.238045 0.637501 2.639000 46 19 17
-1.238045 0.642120 2.639000 49 17 20
-1.238045 0.646740 2.639000 52 17 16
-1.238045 0.651359 2.639000 47 16 13
-1.238045 0.655979 2.639000 42 13 7
-1.247427 0.665605 2.659000 41 15 1
-1.247427 0.670260 2.659000 41 14 11
-1.247427 0.674914 2.659000 38 14 21
-1.247427 0.679569 2.659000 35 16 15
-1.247427 0.684223 2.659000 32 14 9
-1.247427 0.688878 2.659000 28 13 6
-1.238045 0.688316 2.639000 25 12 4
-1.247427 0.698187 2.659000 22 12 2
-1.247427 0.702842 2.659000 19 9 1
-1.238045 0.702175 2.639000 17 9 5
-1.238045 0.706794 2.639000 20 8 10
-1.228662 0.706022 2.619000 24 8 12
-1.210366 0.700025 2.580000 24 7 14
-1.210366 0.704541 2.580000 24 6 11
-1.183625 0.693392 2.523000 31 7 8
-1.183625 0.697809 2.523000 38 7 8
-0.910589 0.652362 1.941000 155 130 141
-0.905898 0.652382 1.931000 154 133 143
-0.905898 0.655762 1.931000 154 132 144
-0.900737 0.655387 1.920000 154 132 146
-0.895577 0.654974 1.909000 154 133 151
-0.885725 0.651074 1.888000 155 136 156
-0.885725 0.654379 1.888000 156 138 156
-0.881034 0.654201 1.878000 158 139 157
-0.876342 0.653987 1.868000 159 143 158
-0.871651 0.653738 1.858000 161 144 159
-0.862268 0.649919 1.838000 162 143 162
-0.857577 0.649583 1.828000 165 144 166
-0.848663 0.645998 1.809000 168 144 168
-0.839750 0.642346 1.790000 170 143 170
-0.835528 0.642234 1.781000 172 145 169
-0.835528 0.645352 1.781000 169 149 169
-0.831305 0.645192 1.772000 167 150 171
-0.827083 0.645002 1.763000 172 155 174
-0.827083 0.648088 1.763000 178 157 177
-0.827083 0.651174 1.763000 182 157 180
-0.818639 0.647580 1.745000 186 162 182
-0.814417 0.647279 1.736000 185 163 184
-0.810664 0.647321 1.728000 185 164 185
-0.802688 0.643948 1.711000 185 168 186
-0.790960 0.637490 1.686000 185 171 188
-0.786738 0.637023 1.677000 185 170 190
-0.786738 0.639958 1.677000 186 167 192
-0.779232 0.636760 1.661000 188 176 194
-0.775479 0.636587 1.653000 191 182 194
-0.768442 0.633678 1.638000 193 181 194
-0.764688 0.633436 1.630000 196 178 197
-0.753898 0.627311 1.607000 199 175 201
-0.757651 0.633261 1.615000 202 174 201
-0.753898 0.632937 1.607000 201 180 201
-0.740294 0.624277 1.578000 201 184 202
-0.740294 0.627040 1.578000 200 182 204
-0.740294 0.629802 1.578000 200 182 203
-0.740294 0.632564 1.578000 199 185 203
-0.737010 0.632508 1.571000 199 188 202
-0.733256 0.632023 1.563000 205 184 201
-0.733256 0.634759 1.563000 211 173 198
-0.726689 0.631785 1.549000 208 175 196
-0.720590 0.629172 1.536000 204 186 199
-0.717306 0.628981 1.529000 202 182 203
-0.714022 0.628766 1.522000 201 183 205
-0.707923 0.626037 1.509000 201 186 207
-0.701824 0.623262 1.496000 201 188 206
-0.701824 0.625881 1.496000 201 189 206
-1.129666 -0.232703 2.417000 82 41 21
-1.129666 -0.228472 2.417000 74 28 15
-1.129666 -0.224241 2.417000 106 22 10
-1.129666 -0.220010 2.417000 138 70 47
-1.137612 -0.217297 2.434000 162 175 84
-1.137612 -0.213036 2.434000 187 170 126
-1.137612 -0.208775 2.434000 140 166 168
-1.137612 -0.204514 2.434000 93 96 113
-1.153970 -0.203133 2.469000 69 1 59
-1.162383 -0.200261 2.487000 45 7 31
-1.170796 -0.039465 2.505000 92 47 39
-1.162383 -0.034828 2.487000 95 48 33
-1.162383 -0.030474 2.487000 95 49 27
-1.153970 -0.025932 2.469000 96 48 27
-1.153970 -0.021610 2.469000 96 48 28
-1.153970 -0.017288 2.469000 96 47 22
-1.153970 -0.012966 2.469000 97 45 17
-1.153970 -0.008644 2.469000 98 47 20
-1.145557 -0.004290 2.451000 98 51 23
-1.145557 -0.000000 2.451000 98 48 19
-1.145557 0.004291 2.451000 92 46 16
-1.145557 0.008581 2.451000 87 48 17
-1.145557 0.012871 2.451000 90 50 19
-1.145557 0.017162 2.451000 93 49 17
-1.145557 0.021452 2.451000 95 47 16
-1.145557 0.025743 2.451000 98 43 27
-1.145557 0.030033 2.451000 104 39 38
-1.145557 0.034324 2.451000 110 40 28
-1.145557 0.038614 2.451000 104 39 19
-1.137612 0.042607 2.434000 98 43 22
-1.145557 0.047195 2.451000 98 44 26
-1.153970 0.051864 2.469000 98 46 25
-1.153970 0.056186 2.469000 94 49 24
-1.153970 0.060508 2.469000 91 49 19
-1.153970 0.064830 2.469000 89 50 14
-1.153970 0.069152 2.469000 87 48 17
-1.162383 0.074010 2.487000 92 46 20
-1.153970 0.077796 2.469000 97 47 21
-1.153970 0.082118 2.469000 97 47 23
-1.153970 0.086440 2.469000 97 47 23
-1.153970 0.090762 2.469000 95 49 23
-1.153970 0.095084 2.469000 94 47 25
-1.153970 0.099406 2.469000 90 48 27
-1.153970 0.103728 2.469000 86 51 26
-1.162383 0.108837 2.487000 90 54 25
-1.153970 0.112372 2.469000 95 50 19
-1.153970 0.116694 2.469000 94 47 13
-1.153970 0.121016 2.469000 94 50 24
-1.153970 0.125338 2.469000 88 51 36
-1.153970 0.129660 2.469000 83 54 43
-1.153970 0.133982 2.469000 83 64 50
-1.170796 0.140320 2.505000 84 65 56
-1.188089 0.146843 2.542000 85 65 62
-1.214730 0.154685 2.599000 86 61 61
-1.233425 0.161685 2.639000 89 62 61
-1.242773 0.167565 2.659000 92 65 59
-1.242773 0.172219 2.659000 92 65 58
-1.242773 0.176874 2.659000 93 64 58
-1.242773 0.181529 2.659000 92 64 58
-1.242773 0.186183 2.659000 91 60 58
-1.233425 0.189402 2.639000 90 55 57
-1.233425 0.194022 2.639000 90 59 52
-1.233425 0.198642 2.639000 90 65 46
-1.233425 0.203261 2.639000 91 63 51
-1.233425 0.207881 2.639000 95 62 55
-1.233425 0.212500 2.639000 99 63 59
-1.233425 0.217120 2.639000 93 68 62
-1.233425 0.221739 2.639000 87 65 59
-1.242773 0.228075 2.659000 86 62 57
-1.252588 0.234567 2.680000 86 61 59
-1.242773 0.237384 2.659000 87 63 61
-1.242773 0.242038 2.659000 88 60 59
-1.242773 0.246693 2.659000 88 58 57
-1.233425 0.249457 2.639000 88 57 58
-1.233425 0.254076 2.639000 87 55 59
-1.233425 0.258696 2.639000 86 56 58
-1.233425 0.263316 2.639000 86 57 58
-1.233425 0.267935 2.639000 87 60 58
-1.233425 0.272555 2.639000 86 61 59
-1.233425 0.277174 2.639000 86 60 56
-1.233425 0.281794 2.639000 85 58 53
-1.233425 0.286413 2.639000 85 57 53
-1.233425 0.291033 2.639000 84 58 52
-1.224078 0.293412 2.619000 84 58 58
-1.224078 0.297996 2.619000 86 55 63
-1.233425 0.304892 2.639000 88 56 56
-1.233425 0.309511 2.639000 86 58 48
-1.233425 0.314131 2.639000 84 57 55
-1.233425 0.318750 2.639000 85 56 62
-1.233425 0.323370 2.639000 86 52 61
-1.242773 0.330475 2.659000 87 53 61
-1.242773 0.335130 2.659000 88 58 59
-1.242773 0.339784 2.659000 88 64 57
-1.252588 0.347159 2.680000 88 61 55
-1.252588 0.351851 2.680000 83 59 54
-1.242773 0.353748 2.659000 79 58 51
-1.242773 0.358403 2.659000 79 60 49
-1.242773 0.363057 2.659000 80 56 52
-1.252588 0.370616 2.680000 82 54 55
-1.252588 0.375307 2.680000 85 53 55
-1.242773 0.377021 2.659000 84 51 55
-1.242773 0.381676 2.659000 84 52 56
-1.233425 0.383424 2.639000 80 55 56
-1.233425 0.388044 2.639000 77 57 53
-1.233425 0.392664 2.639000 80 56 50
-1.233425 0.397283 2.639000 83 56 54
-1.224078 0.398857 2.619000 82 58 58
-1.224078 0.403441 2.619000 82 59 56
-1.233425 0.411142 2.639000 80 59 53
-1.233425 0.415761 2.639000 78 56 57
-1.233425 0.420381 2.639000 80 55 61
-1.233425 0.425001 2.639000 83 55 56
-1.233425 0.429620 2.639000 81 54 52
-1.242773 0.437531 2.659000 80 54 46
-1.233425 0.438859 2.639000 80 53 40
-1.242773 0.446840 2.659000 81 53 42
-1.242773 0.451494 2.659000 80 53 44
-1.233425 0.452718 2.639000 80 53 54
-1.233425 0.457337 2.639000 79 53 63
-1.233425 0.461957 2.639000 78 49 55
-1.233425 0.466577 2.639000 77 45 46
-1.233425 0.471196 2.639000 76 47 44
-1.233425 0.475816 2.639000 71 50 41
-1.233425 0.480435 2.639000 67 46 42
-1.233425 0.485055 2.639000 65 42 43
-1.233425 0.489674 2.639000 64 44 42
-1.242773 0.498040 2.659000 69 45 41
-1.242773 0.502695 2.659000 75 44 44
-1.242773 0.507349 2.659000 72 42 47
-1.242773 0.512004 2.659000 70 42 42
-1.242773 0.516658 2.659000 67 42 37
-1.242773 0.521313 2.659000 64 36 30
-1.242773 0.525968 2.659000 59 36 23
-1.224078 0.522640 2.619000 54 38 25
-1.224078 0.527224 2.619000 58 35 26
-1.224078 0.531809 2.619000 62 37 26
-1.233425 0.540490 2.639000 68 33 26
-1.233425 0.545109 2.639000 74 30 27
-1.233425 0.549729 2.639000 66 26 28
-1.242773 0.558550 2.659000 59 31 21
-1.242773 0.563204 2.659000 57 36 14
-1.242773 0.567859 2.659000 56 35 16
-1.242773 0.572513 2.659000 57 39 18
-1.242773 0.577168 2.659000 58 36 20
-1.242773 0.581823 2.659000 57 36 23
-1.242773 0.586477 2.659000 56 33 26
-1.242773 0.591132 2.659000 55 30 29
-1.242773 0.595786 2.659000 54 24 24
-1.242773 0.600441 2.659000 53 19 20
-1.242773 0.605095 2.659000 53 27 20
-1.242773 0.609750 2.659000 49 34 20
-1.242773 0.614405 2.659000 46 28 25
-1.242773 0.619059 2.659000 38 21 30
-1.242773 0.623714 2.659000 30 21 24
-1.233425 0.623642 2.639000 49 21 17
-1.233425 0.628262 2.639000 69 18 13
-1.233425 0.632881 2.639000 57 14 8
-1.233425 0.637501 2.639000 45 16 14
-1.233425 0.642120 2.639000 51 16 20
-1.233425 0.646740 2.639000 58 16 19
-1.233425 0.651359 2.639000 50 17 17
-1.242773 0.660950 2.659000 43 14 11
-1.242773 0.665605 2.659000 42 14 5
-1.242773 0.670260 2.659000 42 13 11
-1.252588 0.680244 2.680000 36 13 17
-1.242773 0.679569 2.659000 31 13 12
-1.242773 0.684223 2.659000 29 14 7
-1.242773 0.688878 2.659000 27 13 7
-1.242773 0.693532 2.659000 22 10 6
-1.252588 0.703701 2.680000 17 10 4
-1.252588 0.708392 2.680000 13 10 2
-1.252588 0.713084 2.680000 10 9 4
-1.242773 0.712151 2.659000 20 9 7
-1.262403 0.728128 2.701000 30 8 10
-1.205850 0.700025 2.580000 26 10 13
-1.179209 0.688976 2.523000 23 8 11
-1.179209 0.693392 2.523000 26 9 10
-1.179209 0.697809 2.523000 29 7 11
-1.179209 0.702226 2.523000 26 3 11
-1.179209 0.706642 2.523000 23 6 11
-0.907192 0.652362 1.941000 155 131 143
-0.902518 0.652382 1.931000 157 132 143
-0.902518 0.655762 1.931000 159 131 145
-0.897376 0.655387 1.920000 156 132 147
-0.887561 0.651543 1.899000 153 136 151
-0.882420 0.651074 1.888000 155 139 156
-0.877746 0.650913 1.878000 158 138 158
-0.877746 0.654201 1.878000 159 138 160
-0.873072 0.653987 1.868000 161 141 160
-0.863725 0.650220 1.848000 161 147 160
-0.854377 0.646383 1.828000 161 146 163
-0.850171 0.646384 1.819000 164 148 166
-0.845497 0.645998 1.809000 168 146 170
-0.836617 0.642346 1.790000 169 142 174
-0.832410 0.642234 1.781000 170 146 172
-0.828204 0.642090 1.772000 167 155 171
-0.828204 0.645192 1.772000 164 153 173
-0.823997 0.645002 1.763000 171 159 175
-0.819791 0.644779 1.754000 178 158 179
-0.819791 0.647850 1.754000 180 157 183
-0.815584 0.647580 1.745000 182 162 186
-0.811378 0.647279 1.736000 183 163 190
-0.807639 0.647321 1.728000 185 164 188
-0.798291 0.642819 1.708000 185 168 186
-0.783802 0.634087 1.677000 185 171 188
-0.783802 0.637023 1.677000 185 174 191
-0.783802 0.639958 1.677000 185 174 192
-0.776324 0.636760 1.661000 189 179 193
-0.772585 0.636587 1.653000 194 180 192
-0.768846 0.636386 1.645000 196 184 192
-0.761835 0.633436 1.630000 198 179 196
-0.761835 0.636289 1.630000 201 176 200
-0.758096 0.636006 1.622000 205 178 201
-0.751085 0.632937 1.607000 203 181 202
-0.737531 0.624277 1.578000 202 182 204
-0.737531 0.627040 1.578000 201 181 207
-0.737531 0.629802 1.578000 201 180 206
-0.734260 0.629758 1.571000 200 180 205
-0.734260 0.632508 1.571000 200 183 204
-0.730520 0.632023 1.563000 210 191 203
-0.727249 0.631917 1.556000 220 180 201
-0.720705 0.628930 1.542000 213 174 200
-0.717901 0.629172 1.536000 206 183 202
-0.711358 0.626101 1.522000 203 185 205
-0.708086 0.625874 1.515000 200 184 205
-0.702010 0.623133 1.502000 201 188 206
-0.699206 0.623262 1.496000 202 189 203
-0.695934 0.622952 1.489000 202 192 201
-1.125435 -0.232703 2.417000 83 39 21
-1.133351 -0.230079 2.434000 78 35 12
-1.133351 -0.225818 2.434000 101 18 3
-1.133351 -0.221557 2.434000 125 5 29
-1.133351 -0.217297 2.434000 156 111 55
-1.141267 -0.214524 2.451000 186 158 114
-1.141267 -0.210233 2.451000 150 164 173
-1.133351 -0.204514 2.434000 114 146 132
-1.149648 -0.203133 2.469000 78 37 91
-1.158030 -0.200261 2.487000 42 1 47
-1.158030 -0.195907 2.487000 49 20 3
-1.166411 -0.039465 2.505000 91 48 33
-1.166411 -0.035080 2.505000 93 52 29
-1.158030 -0.030474 2.487000 94 51 26
-1.158030 -0.026121 2.487000 96 51 25
-1.149648 -0.021610 2.469000 95 50 24
-1.149648 -0.017288 2.469000 94 51 17
-1.149648 -0.012966 2.469000 94 46 10
-1.149648 -0.008644 2.469000 94 42 15
-1.141267 -0.004290 2.451000 98 47 20
-1.141267 -0.000000 2.451000 103 50 15
-1.149648 0.004322 2.469000 97 48 11
-1.149648 0.008644 2.469000 91 53 14
-1.149648 0.012966 2.469000 91 51 18
-1.141267 0.017162 2.451000 92 51 24
-1.149648 0.021610 2.469000 95 48 30
-1.149648 0.025932 2.469000 97 45 41
-1.149648 0.030254 2.469000 101 43 53
-1.141267 0.034324 2.451000 105 41 38
-1.141267 0.038614 2.451000 101 41 24
-1.141267 0.042905 2.451000 98 44 25
-1.141267 0.047195 2.451000 98 44 27
-1.149648 0.051864 2.469000 98 46 25
-1.149648 0.056186 2.469000 97 48 23
-1.149648 0.060508 2.469000 96 47 15
-1.158030 0.065302 2.487000 93 48 8
-1.149648 0.069152 2.469000 90 50 14
-1.158030 0.074010 2.487000 93 49 21
-1.158030 0.078363 2.487000 96 49 22
-1.158030 0.082716 2.487000 97 47 24
-1.158030 0.087070 2.487000 97 46 25
-1.158030 0.091423 2.487000 96 45 26
-1.158030 0.095777 2.487000 95 46 27
-1.158030 0.100130 2.487000 94 48 28
-1.158030 0.104484 2.487000 94 51 27
-1.158030 0.108837 2.487000 99 50 26
-1.158030 0.113191 2.487000 104 48 19
-1.158030 0.117544 2.487000 99 48 13
-1.158030 0.121898 2.487000 94 50 26
-1.149648 0.125338 2.469000 87 50 39
-1.158030 0.130605 2.487000 80 51 45
-1.166411 0.135935 2.505000 82 61 51
-1.174792 0.141328 2.523000 84 68 57
-1.210180 0.150135 2.599000 86 64 63
-1.219493 0.155875 2.619000 89 61 62
-1.228806 0.161685 2.639000 93 63 61
-1.238118 0.167565 2.659000 98 66 60
-1.238118 0.172219 2.659000 96 64 60
-1.238118 0.176874 2.659000 94 64 58
-1.238118 0.181529 2.659000 93 61 56
-1.238118 0.186183 2.659000 92 59 58
-1.238118 0.190838 2.659000 89 55 61
-1.238118 0.195492 2.659000 87 56 51
-1.228806 0.198642 2.639000 88 61 41
-1.228806 0.203261 2.639000 89 68 48
-1.228806 0.207881 2.639000 91 63 55
-1.238118 0.214111 2.659000 94 64 63
-1.247897 0.220493 2.680000 90 64 71
-1.247897 0.225184 2.680000 86 64 65
-1.247897 0.229876 2.680000 86 61 59
-1.247897 0.234567 2.680000 86 61 62
-1.247897 0.239258 2.680000 86 60 65
-1.247897 0.243950 2.680000 87 60 62
-1.247897 0.248641 2.680000 85 58 59
-1.247897 0.253332 2.680000 84 57 64
-1.247897 0.258024 2.680000 80 58 70
-1.238118 0.260656 2.659000 77 60 64
-1.228806 0.263316 2.639000 81 59 58
-1.228806 0.267935 2.639000 86 62 59
-1.228806 0.272555 2.639000 86 62 60
-1.238118 0.279275 2.659000 86 63 68
-1.228806 0.281794 2.639000 85 58 76
-1.228806 0.286413 2.639000 85 55 66
-1.228806 0.291033 2.639000 82 56 56
-1.228806 0.295653 2.639000 80 59 63
-1.228806 0.300272 2.639000 83 58 71
-1.228806 0.304892 2.639000 87 57 60
-1.228806 0.309511 2.639000 86 56 50
-1.228806 0.314131 2.639000 85 58 56
-1.238118 0.321166 2.659000 85 54 62
-1.238118 0.325821 2.659000 85 50 61
-1.247897 0.333085 2.680000 85 53 60
-1.247897 0.337777 2.680000 86 56 56
-1.247897 0.342468 2.680000 85 59 52
-1.247897 0.347159 2.680000 85 63 52
-1.247897 0.351851 2.680000 79 59 52
-1.247897 0.356542 2.680000 73 57 49
-1.247897 0.361233 2.680000 78 56 46
-1.247897 0.365925 2.680000 82 56 50
-1.247897 0.370616 2.680000 85 56 54
-1.247897 0.375307 2.680000 88 54 54
-1.247897 0.379999 2.680000 86 52 55
-1.247897 0.384690 2.680000 85 52 56
-1.247897 0.389381 2.680000 81 54 58
-1.238118 0.390985 2.659000 78 57 56
-1.247897 0.398764 2.680000 80 55 54
-1.247897 0.403455 2.680000 82 54 59
-1.238118 0.404949 2.659000 81 57 64
-1.238118 0.409603 2.659000 80 59 59
-1.238118 0.414258 2.659000 79 57 54
-1.238118 0.418912 2.659000 79 54 60
-1.238118 0.423567 2.659000 81 55 66
-1.238118 0.428221 2.659000 82 55 61
-1.238118 0.432876 2.659000 81 53 56
-1.238118 0.437531 2.659000 81 53 51
-1.238118 0.442185 2.659000 80 52 47
-1.238118 0.446840 2.659000 79 55 46
-1.238118 0.451494 2.659000 79 54 45
-1.238118 0.456149 2.659000 79 53 52
-1.238118 0.460803 2.659000 78 50 59
-1.238118 0.465458 2.659000 78 49 52
-1.238118 0.470113 2.659000 75 47 46
-1.228806 0.471196 2.639000 73 45 45
-1.228806 0.475816 2.639000 71 47 44
-1.228806 0.480435 2.639000 69 47 44
-1.228806 0.485055 2.639000 70 45 45
-1.228806 0.489674 2.639000 72 44 42
-1.228806 0.494294 2.639000 72 43 39
-1.228806 0.498914 2.639000 73 41 42
-1.228806 0.503533 2.639000 71 41 45
-1.228806 0.508153 2.639000 68 42 39
-1.238118 0.516658 2.659000 65 38 34
-1.238118 0.521313 2.659000 62 32 23
-1.238118 0.525968 2.659000 59 38 13
-1.228806 0.526631 2.639000 56 44 19
-1.228806 0.531251 2.639000 59 37 25
-1.228806 0.535870 2.639000 62 37 25
-1.228806 0.540490 2.639000 64 34 26
-1.238118 0.549241 2.659000 67 30 30
-1.238118 0.553895 2.659000 62 29 35
-1.247897 0.562961 2.680000 57 30 27
-1.247897 0.567652 2.680000 56 33 20
-1.247897 0.572344 2.680000 55 34 20
-1.257675 0.581556 2.701000 57 35 21
-1.247897 0.581726 2.680000 60 33 22
-1.247897 0.586418 2.680000 58 33 23
-1.247897 0.591109 2.680000 55 34 26
-1.247897 0.595800 2.680000 54 29 30
-1.238118 0.595786 2.659000 53 26 25
-1.247897 0.605183 2.680000 52 25 21
-1.238118 0.605095 2.659000 51 25 20
-1.247897 0.614566 2.680000 49 27 19
-1.247897 0.619257 2.680000 47 29 18
-1.257675 0.628838 2.701000 42 23 17
-1.247897 0.628640 2.680000 38 19 16
-1.238118 0.628368 2.659000 50 19 16
-1.238118 0.633023 2.659000 62 19 9
-1.238118 0.637678 2.659000 55 17 3
-1.228806 0.637501 2.639000 47 17 12
-1.228806 0.642120 2.639000 50 15 21
-1.228806 0.646740 2.639000 54 17 21
-1.228806 0.651359 2.639000 49 16 22
-1.238118 0.660950 2.659000 44 14 16
-1.238118 0.665605 2.659000 42 14 10
-1.247897 0.675553 2.680000 39 14 12
-1.247897 0.680244 2.680000 33 13 14
-1.247897 0.684936 2.680000 28 12 10
-1.247897 0.689627 2.680000 26 14 6
-1.247897 0.694319 2.680000 24 17 7
-1.247897 0.699010 2.680000 21 12 9
-1.247897 0.703701 2.680000 19 9 6
-1.257675 0.713943 2.701000 15 9 3
-1.257675 0.718672 2.701000 12 10 4
-1.247897 0.717775 2.680000 17 8 5
-1.247897 0.722467 2.680000 23 8 8
-1.257675 0.732856 2.701000 22 7 12
-1.174792 0.688976 2.523000 21 8 12
-1.174792 0.693392 2.523000 21 8 13
-1.174792 0.697809 2.523000 22 9 13
-1.174792 0.702226 2.523000 22 5 14
-1.174792 0.706642 2.523000 23 4 14
-1.174792 0.711058 2.523000 19 10 14
-0.899137 0.649001 1.931000 154 138 145
-0.899137 0.652382 1.931000 156 133 144
-0.894015 0.652026 1.920000 157 130 146
-0.894015 0.655387 1.920000 156 136 148
-0.888894 0.654974 1.909000 155 142 152
-0.884237 0.654867 1.899000 156 139 156
-0.884237 0.658192 1.899000 158 139 159
-0.874459 0.654201 1.878000 159 138 163
-0.869803 0.653987 1.868000 161 136 162
-0.860490 0.650220 1.848000 157 145 162
-0.851177 0.646383 1.828000 154 148 164
-0.846987 0.646384 1.819000 160 150 166
-0.842330 0.645998 1.809000 166 153 172
-0.838140 0.645935 1.800000 167 147 178
-0.833483 0.645480 1.790000 168 143 175
-0.829293 0.645352 1.781000 170 148 173
-0.825102 0.645192 1.772000 173 151 175
-0.820911 0.645002 1.763000 176 159 177
-0.816720 0.644779 1.754000 180 162 181
-0.816720 0.647850 1.754000 182 161 186
-0.812530 0.647580 1.745000 185 166 191
-0.812530 0.650635 1.745000 186 163 197
-0.804614 0.647321 1.728000 188 161 192
-0.793904 0.641690 1.705000 187 169 187
-0.780867 0.634087 1.677000 186 174 189
-0.780867 0.637023 1.677000 183 174 192
-0.780867 0.639958 1.677000 180 177 192
-0.777142 0.639827 1.669000 188 177 192
-0.773417 0.639668 1.661000 196 178 191
-0.769692 0.639481 1.653000 196 180 190
-0.762707 0.636545 1.638000 197 181 194
-0.758982 0.636289 1.630000 200 180 199
-0.755257 0.636006 1.622000 204 181 201
-0.748272 0.632937 1.607000 203 182 203
-0.738028 0.627047 1.585000 202 184 206
-0.734769 0.627040 1.578000 203 182 210
-0.731510 0.627008 1.571000 203 178 208
-0.731510 0.629758 1.571000 203 181 207
-0.727785 0.629287 1.563000 203 174 206
-0.724525 0.629193 1.556000 207 181 205
-0.724525 0.631917 1.556000 212 183 204
-0.721266 0.631785 1.549000 209 184 204
-0.718006 0.631630 1.542000 207 189 205
-0.711953 0.628981 1.529000 207 185 207
-0.708694 0.628766 1.522000 208 183 206
-0.702640 0.626037 1.509000 206 186 206
-0.696587 0.623262 1.496000 203 189 201
-0.696587 0.625881 1.496000 203 189 196
-1.129090 -0.234339 2.434000 85 41 33
-1.136976 -0.231686 2.451000 82 32 25
-1.136976 -0.227395 2.451000 97 12 18
-1.136976 -0.223105 2.451000 113 41 23
-1.136976 -0.218814 2.451000 149 108 28
-1.136976 -0.214524 2.451000 186 144 96
-1.136976 -0.210233 2.451000 160 186 165
-1.145326 -0.207455 2.469000 135 129 144
-1.153676 -0.204614 2.487000 87 1 123
-1.153676 -0.200261 2.487000 39 7 62
-1.153676 -0.195907 2.487000 52 26 2
-1.153676 -0.191554 2.487000 65 25 4
-1.162026 -0.188555 2.505000 64 22 7
-1.170376 -0.039749 2.523000 90 49 33
-1.162026 -0.035080 2.505000 91 51 29
-1.162026 -0.030695 2.505000 93 54 24
-1.162026 -0.026310 2.505000 96 52 24
-1.153676 -0.021767 2.487000 94 53 24
-1.153676 -0.017414 2.487000 93 50 21
-1.153676 -0.013060 2.487000 91 49 19
-1.153676 -0.008707 2.487000 90 46 25
-1.145326 -0.004322 2.469000 99 46 32
-1.145326 -0.000000 2.469000 109 46 26
-1.145326 0.004322 2.469000 102 46 19
-1.145326 0.008644 2.469000 95 49 21
-1.145326 0.012966 2.469000 93 51 24
-1.145326 0.017288 2.469000 92 50 25
-1.145326 0.021610 2.469000 94 49 27
-1.153676 0.026121 2.487000 97 47 31
-1.145326 0.030254 2.469000 98 47 35
-1.145326 0.034576 2.469000 100 44 29
-1.145326 0.038898 2.469000 99 41 24
-1.136976 0.042905 2.451000 98 43 30
-1.145326 0.047542 2.469000 98 45 37
-1.145326 0.051864 2.469000 98 48 30
-1.145326 0.056186 2.469000 100 51 24
-1.145326 0.060508 2.469000 102 47 19
-1.153676 0.065302 2.487000 98 47 13
-1.153676 0.069656 2.487000 94 51 18
-1.153676 0.074010 2.487000 95 51 22
-1.153676 0.078363 2.487000 96 48 25
-1.153676 0.082716 2.487000 97 49 29
-1.153676 0.087070 2.487000 98 45 23
-1.153676 0.091423 2.487000 97 41 18
-1.153676 0.095777 2.487000 96 45 25
-1.153676 0.100130 2.487000 99 47 32
-1.153676 0.104484 2.487000 102 48 26
-1.153676 0.108837 2.487000 108 47 20
-1.153676 0.113191 2.487000 114 48 14
-1.153676 0.117544 2.487000 104 50 8
-1.162026 0.122780 2.505000 95 50 22
-1.162026 0.127165 2.505000 86 49 37
-1.162026 0.131550 2.505000 77 55 45
-1.162026 0.135935 2.505000 81 64 53
-1.170376 0.141328 2.523000 85 65 64
-1.179189 0.146843 2.542000 88 62 75
-1.214908 0.155875 2.619000 92 62 68
-1.224186 0.161685 2.639000 98 63 62
-1.243205 0.168888 2.680000 104 63 59
-1.243205 0.173580 2.680000 100 64 56
-1.243205 0.178271 2.680000 96 62 58
-1.233464 0.181529 2.659000 94 57 61
-1.243205 0.187654 2.680000 93 57 65
-1.243205 0.192345 2.680000 89 51 70
-1.233464 0.195492 2.659000 85 55 60
-1.233464 0.200147 2.659000 86 57 50
-1.233464 0.204802 2.659000 87 61 53
-1.233464 0.209456 2.659000 88 61 56
-1.243205 0.215802 2.680000 90 61 59
-1.243205 0.220493 2.680000 87 61 62
-1.243205 0.225184 2.680000 85 61 59
-1.243205 0.229876 2.680000 86 60 56
-1.252947 0.236405 2.701000 87 58 59
-1.252947 0.241133 2.701000 86 58 62
-1.243205 0.243950 2.680000 86 58 59
-1.243205 0.248641 2.680000 83 60 56
-1.233464 0.251347 2.659000 81 60 61
-1.233464 0.256002 2.659000 74 60 65
-1.233464 0.260656 2.659000 68 58 60
-1.224186 0.263316 2.639000 76 57 56
-1.233464 0.269966 2.659000 85 61 52
-1.233464 0.274620 2.659000 85 65 49
-1.233464 0.279275 2.659000 86 62 56
-1.233464 0.283929 2.659000 85 58 63
-1.233464 0.288584 2.659000 85 55 57
-1.233464 0.293239 2.659000 81 54 50
-1.233464 0.297893 2.659000 77 60 55
-1.233464 0.302548 2.659000 81 62 60
-1.224186 0.304892 2.639000 86 57 50
-1.224186 0.309511 2.639000 86 54 40
-1.224186 0.314131 2.639000 87 54 52
-1.233464 0.321166 2.659000 85 53 64
-1.233464 0.325821 2.659000 84 51 60
-1.243205 0.333085 2.680000 84 54 57
-1.243205 0.337777 2.680000 84 55 54
-1.243205 0.342468 2.680000 83 56 51
-1.243205 0.347159 2.680000 83 58 52
-1.252947 0.354608 2.701000 75 57 52
-1.243205 0.356542 2.680000 68 55 50
-1.243205 0.361233 2.680000 76 54 48
-1.243205 0.365925 2.680000 85 56 53
-1.243205 0.370616 2.680000 88 60 58
-1.252947 0.378248 2.701000 91 55 55
-1.252947 0.382976 2.701000 88 52 52
-1.252947 0.387704 2.701000 86 52 52
-1.252947 0.392432 2.701000 82 52 51
-1.252947 0.397161 2.701000 79 53 51
-1.252947 0.401889 2.701000 80 54 50
-1.252947 0.406617 2.701000 81 56 53
-1.243205 0.408147 2.680000 79 60 55
-1.243205 0.412838 2.680000 78 59 53
-1.243205 0.417529 2.680000 79 56 51
-1.243205 0.422221 2.680000 81 55 52
-1.243205 0.426912 2.680000 81 57 53
-1.243205 0.431603 2.680000 82 56 53
-1.243205 0.436295 2.680000 82 52 53
-1.243205 0.440986 2.680000 82 51 49
-1.243205 0.445677 2.680000 80 48 46
-1.243205 0.450369 2.680000 78 51 46
-1.243205 0.455060 2.680000 78 57 46
-1.243205 0.459751 2.680000 78 50 50
-1.243205 0.464443 2.680000 78 46 55
-1.243205 0.469134 2.680000 78 48 51
-1.243205 0.473825 2.680000 74 51 48
-1.233464 0.474767 2.659000 71 48 48
-1.233464 0.479422 2.659000 71 46 49
-1.224186 0.480435 2.639000 72 46 47
-1.224186 0.485055 2.639000 76 47 45
-1.224186 0.489674 2.639000 80 45 42
-1.233464 0.498040 2.659000 76 44 39
-1.233464 0.502695 2.659000 72 41 43
-1.233464 0.507349 2.659000 69 41 47
-1.233464 0.512004 2.659000 67 39 42
-1.233464 0.516658 2.659000 64 37 38
-1.233464 0.521313 2.659000 61 36 35
-1.243205 0.530122 2.680000 59 40 32
-1.233464 0.530622 2.659000 58 40 29
-1.233464 0.535277 2.659000 60 35 26
-1.233464 0.539931 2.659000 62 35 25
-1.233464 0.544586 2.659000 61 36 23
-1.233464 0.549241 2.659000 61 33 24
-1.243205 0.558270 2.680000 58 32 24
-1.252947 0.567372 2.701000 55 33 21
-1.252947 0.572100 2.701000 54 33 19
-1.252947 0.576828 2.701000 54 33 20
