ply
format ascii 1.0
element vertex 1195
property float x
property float y
property float z
property uchar red
property uchar green
property uchar blue
end_header
-0.246637 0.631178 1.515000 226 214 231
-0.245660 0.631320 1.509000 226 213 230
-0.520340 0.769198 3.231000 185 163 184
-0.515508 0.767659 3.201000 186 164 191
-0.510838 0.766257 3.172000 187 165 190
-0.506168 0.764753 3.143000 187 168 190
-0.501658 0.763393 3.115000 187 169 191
-0.501658 0.768846 3.115000 186 171 192
-0.497149 0.767339 3.087000 185 175 192
-0.492640 0.765734 3.059000 192 177 193
-0.488453 0.764535 3.033000 199 178 194
-0.484104 0.762991 3.006000 195 178 196
-0.471865 0.748829 2.930000 192 180 196
-0.460109 0.735173 2.857000 195 178 197
-0.456404 0.734216 2.834000 197 172 199
-0.452539 0.732917 2.810000 197 181 201
-0.452539 0.737836 2.810000 198 178 202
-0.448996 0.736940 2.788000 200 182 204
-0.441749 0.729847 2.743000 202 184 210
-0.438367 0.729024 2.722000 201 184 216
-0.434985 0.728128 2.701000 201 183 212
-0.425000 0.716033 2.639000 204 184 209
-0.425000 0.720653 2.639000 206 191 211
-0.421780 0.719776 2.619000 208 190 213
-0.421780 0.724361 2.619000 210 190 212
-0.412278 0.712524 2.560000 211 196 212
-0.409379 0.711963 2.542000 212 197 215
-0.406319 0.711058 2.523000 209 193 218
-0.403420 0.710371 2.505000 206 186 217
-0.397623 0.704484 2.469000 208 197 216
-0.397623 0.708806 2.469000 210 194 216
-0.394724 0.707929 2.451000 211 195 216
-0.391986 0.707279 2.434000 212 194 215
-0.386510 0.701601 2.400000 213 198 215
-0.381196 0.696097 2.367000 213 197 214
-0.378619 0.695507 2.351000 214 197 213
-0.376042 0.694861 2.335000 215 201 214
-0.373627 0.694459 2.320000 214 202 215
-0.368634 0.689186 2.289000 214 202 214
-0.368634 0.693193 2.289000 211 201 214
-0.368634 0.697200 2.289000 208 203 215
-0.366219 0.696612 2.274000 210 202 217
-0.363803 0.695971 2.259000 212 202 218
-0.356717 0.686292 2.215000 212 203 220
-0.350114 0.677395 2.174000 213 205 221
-0.350114 0.681200 2.174000 214 203 223
-0.347859 0.680595 2.160000 216 200 223
-0.345766 0.680257 2.147000 217 209 223
-0.343511 0.679555 2.133000 219 205 223
-0.343511 0.683289 2.133000 221 209 223
-0.341418 0.682835 2.120000 223 211 225
-0.339324 0.682336 2.107000 222 211 227
-0.337391 0.682117 2.095000 221 212 228
-0.333204 0.677274 2.069000 222 214 230
-0.329339 0.672997 2.045000 223 216 224
-0.325474 0.668637 2.021000 223 211 219
-0.323541 0.668183 2.009000 223 208 223
-0.321770 0.668023 1.998000 225 213 228
-0.319837 0.667487 1.986000 227 216 230
-0.318066 0.667247 1.975000 224 214 232
-0.316294 0.666969 1.964000 221 216 230
-0.312590 0.662556 1.941000 222 215 229
-0.312590 0.665953 1.941000 222 215 227
-0.310980 0.665903 1.931000 224 215 226
-0.309208 0.665470 1.920000 225 216 227
-0.307437 0.664999 1.909000 226 216 229
-0.305826 0.664840 1.899000 226 205 227
-0.302444 0.660775 1.878000 225 214 225
-0.297613 0.653455 1.848000 224 218 226
-0.296003 0.653136 1.838000 223 211 227
-0.294392 0.652783 1.828000 223 198 225
-0.294392 0.655982 1.828000 220 210 223
-0.289883 0.649086 1.800000 218 213 227
-0.288272 0.648613 1.790000 221 214 232
-0.286823 0.648469 1.781000 225 218 230
-0.285374 0.648294 1.772000 226 218 229
-0.282475 0.644779 1.754000 227 215 229
-0.281025 0.644525 1.745000 228 217 230
-0.281025 0.647580 1.745000 230 218 232
-0.279576 0.647279 1.736000 229 218 235
-0.279576 0.650318 1.736000 228 219 235
-0.276838 0.646959 1.719000 230 217 235
-0.274100 0.643540 1.702000 231 218 233
-0.274100 0.646519 1.702000 230 213 232
-0.271524 0.643393 1.686000 229 202 229
-0.268786 0.639827 1.669000 230 214 226
-0.267497 0.639668 1.661000 231 213 230
-0.264921 0.636386 1.645000 230 218 234
-0.264921 0.639265 1.645000 229 215 235
-0.264921 0.642145 1.645000 229 216 236
-0.262505 0.639143 1.630000 230 217 236
-0.262505 0.641996 1.630000 228 216 237
-0.261217 0.641684 1.622000 227 215 234
-0.258801 0.638563 1.607000 225 217 232
-0.257674 0.638582 1.600000 224 220 232
-0.257674 0.641383 1.600000 229 219 233
-0.253003 0.632508 1.571000 235 220 233
-0.251715 0.632023 1.563000 230 220 233
-0.251715 0.634759 1.563000 226 217 230
-0.249943 0.633009 1.552000 226 216 227
-0.248333 0.631630 1.542000 227 219 233
-0.245112 0.626101 1.522000 225 216 239
-0.245112 0.628766 1.522000 224 209 235
-0.245112 0.631430 1.522000 224 211 232
-0.243985 0.631178 1.515000 225 214 231
-0.243018 0.631320 1.509000 225 213 230
-0.514684 0.774854 3.231000 187 162 188
-0.505286 0.766257 3.172000 189 164 189
-0.500666 0.764753 3.143000 188 164 190
-0.496206 0.763393 3.115000 188 172 191
-0.496206 0.768846 3.115000 190 173 193
-0.491745 0.767339 3.087000 192 174 193
-0.487285 0.765734 3.059000 200 177 193
-0.478842 0.757729 3.006000 208 178 197
-0.474701 0.756391 2.980000 202 179 201
-0.470718 0.755218 2.955000 196 178 199
-0.458930 0.741349 2.881000 197 173 197
-0.455107 0.740175 2.857000 198 177 198
-0.451444 0.739177 2.834000 197 183 200
-0.447621 0.737836 2.810000 197 183 201
-0.444116 0.736940 2.788000 199 184 202
-0.436948 0.729847 2.743000 202 184 205
-0.433602 0.729024 2.722000 204 186 209
-0.426912 0.722467 2.680000 206 185 204
-0.423567 0.721460 2.659000 207 182 200
-0.420381 0.720653 2.639000 208 189 207
-0.417195 0.719776 2.619000 209 192 213
-0.417195 0.724361 2.619000 211 189 212
-0.407797 0.712524 2.560000 212 199 210
-0.404929 0.711963 2.542000 214 196 212
-0.399035 0.705986 2.505000 209 193 214
-0.399035 0.710371 2.505000 204 195 214
-0.393301 0.704484 2.469000 206 205 214
-0.390433 0.703638 2.451000 209 194 214
-0.390433 0.707929 2.451000 211 193 215
-0.387725 0.707279 2.434000 214 196 213
-0.385017 0.706570 2.417000 213 200 212
-0.377053 0.696097 2.367000 213 198 213
-0.374504 0.695507 2.351000 215 196 214
-0.371955 0.694861 2.335000 218 198 215
-0.369566 0.694459 2.320000 216 204 215
-0.367017 0.693702 2.304000 214 202 215
-0.364628 0.693193 2.289000 209 202 215
-0.362238 0.692631 2.274000 204 201 216
-0.359849 0.692017 2.259000 207 201 218
-0.357459 0.691350 2.244000 211 202 219
-0.352840 0.686292 2.215000 211 204 220
-0.348379 0.681445 2.187000 211 204 220
-0.346308 0.681200 2.174000 213 204 221
-0.344078 0.680595 2.160000 216 208 222
-0.342008 0.680257 2.147000 218 219 224
-0.339777 0.679555 2.133000 221 210 224
-0.337707 0.679124 2.120000 222 212 224
-0.337707 0.682835 2.120000 223 209 225
-0.335636 0.682336 2.107000 222 208 226
-0.333724 0.682117 2.095000 221 210 227
-0.329583 0.677274 2.069000 221 216 228
-0.325759 0.672997 2.045000 222 213 225
-0.321936 0.668637 2.021000 222 211 222
-0.320025 0.668183 2.009000 223 209 224
-0.318273 0.668023 1.998000 226 211 227
-0.314609 0.663790 1.975000 230 213 228
-0.312856 0.663531 1.964000 226 212 229
-0.310945 0.662893 1.952000 223 213 228
-0.309193 0.662556 1.941000 223 218 228
-0.307600 0.662522 1.931000 224 214 227
-0.307600 0.665903 1.931000 224 215 226
-0.305847 0.665470 1.920000 224 215 226
-0.304095 0.664999 1.909000 225 217 227
-0.302502 0.664840 1.899000 226 214 225
-0.295971 0.653738 1.858000 224 216 223
-0.294378 0.653455 1.848000 223 217 227
-0.292785 0.653136 1.838000 223 220 231
-0.292785 0.656354 1.838000 223 210 228
-0.291192 0.655982 1.828000 223 212 225
-0.288166 0.652331 1.809000 223 212 228
-0.286732 0.652236 1.800000 224 213 231
-0.283705 0.648469 1.781000 226 216 231
-0.282272 0.648294 1.772000 226 226 230
-0.280838 0.648088 1.763000 227 219 230
-0.277971 0.644525 1.745000 227 217 230
-0.277971 0.647580 1.745000 228 218 231
-0.276537 0.647279 1.736000 228 219 233
-0.276537 0.650318 1.736000 229 218 234
-0.273829 0.646959 1.719000 231 216 235
-0.271121 0.643540 1.702000 234 217 235
-0.271121 0.646519 1.702000 231 216 235
-0.268572 0.643393 1.686000 228 210 232
-0.265864 0.639827 1.669000 228 208 230
-0.264590 0.639668 1.661000 229 212 232
-0.264590 0.642576 1.661000 230 219 235
-0.262041 0.639265 1.645000 232 218 235
-0.260926 0.639412 1.638000 235 220 235
-0.259652 0.639143 1.630000 239 218 235
-0.259652 0.641996 1.630000 233 214 235
-0.258377 0.641684 1.622000 227 215 231
-0.257262 0.641742 1.615000 224 214 228
-0.254873 0.638582 1.600000 221 217 232
-0.253599 0.638176 1.592000 230 219 236
-0.250253 0.632508 1.571000 240 221 235
-0.250253 0.635258 1.571000 234 226 234
-0.250253 0.638008 1.571000 229 219 231
-0.247864 0.634640 1.556000 228 216 229
-0.242448 0.623437 1.522000 227 219 232
-0.241333 0.623222 1.515000 226 224 236
-0.242448 0.628766 1.522000 225 213 233
-0.241333 0.628526 1.515000 224 209 231
-0.241333 0.631178 1.515000 224 212 231
-0.241333 0.633830 1.515000 224 213 231
-0.495164 0.764753 3.143000 190 170 190
-0.490753 0.763393 3.115000 190 182 192
-0.490753 0.768846 3.115000 191 175 195
-0.481930 0.760379 3.059000 192 173 194
-0.477834 0.759225 3.033000 197 176 194
-0.473580 0.757729 3.006000 202 178 200
-0.473580 0.762991 3.006000 199 178 206
-0.465546 0.755218 2.955000 196 180 202
-0.457668 0.747525 2.905000 197 178 198
-0.453887 0.746392 2.881000 198 180 198
-0.453887 0.751436 2.881000 197 183 199
-0.446483 0.744138 2.834000 197 188 200
-0.439236 0.736940 2.788000 199 185 201
-0.435612 0.735700 2.765000 200 183 201
-0.428838 0.729024 2.722000 205 187 202
-0.418912 0.716805 2.659000 211 189 197
-0.415761 0.716033 2.639000 210 189 192
-0.412610 0.715191 2.619000 209 192 203
-0.409459 0.714279 2.599000 209 188 214
-0.412610 0.724361 2.619000 210 178 211
-0.403315 0.712524 2.560000 211 191 209
-0.397486 0.706642 2.523000 213 196 209
-0.394650 0.705986 2.505000 210 195 210
-0.394650 0.710371 2.505000 207 197 211
-0.388979 0.704484 2.469000 208 195 212
-0.386143 0.703638 2.451000 210 186 213
-0.386143 0.707929 2.451000 211 194 214
-0.386143 0.712219 2.451000 213 200 211
-0.380786 0.706570 2.417000 211 199 209
-0.370388 0.691392 2.351000 208 200 212
-0.370388 0.695507 2.351000 214 196 216
-0.367868 0.694861 2.335000 220 193 216
-0.365504 0.694459 2.320000 219 200 216
-0.360621 0.689186 2.289000 217 203 216
-0.360621 0.693193 2.289000 216 201 216
-0.358257 0.692631 2.274000 216 200 217
-0.353531 0.687422 2.244000 215 202 219
-0.351325 0.687036 2.230000 214 202 219
-0.348962 0.686292 2.215000 213 204 220
-0.344551 0.681445 2.187000 213 206 219
-0.342503 0.681200 2.174000 214 206 219
-0.340297 0.680595 2.160000 216 210 222
-0.338249 0.680257 2.147000 221 210 225
-0.336044 0.679555 2.133000 226 206 225
-0.336044 0.683289 2.133000 224 208 225
-0.333995 0.682835 2.120000 223 208 225
-0.331947 0.682336 2.107000 222 207 226
-0.328009 0.677885 2.082000 222 206 226
-0.325961 0.677274 2.069000 219 210 227
-0.322180 0.672997 2.045000 217 210 226
-0.318398 0.668637 2.021000 219 209 226
-0.316508 0.668183 2.009000 220 209 226
-0.314775 0.668023 1.998000 223 211 226
-0.312884 0.667487 1.986000 226 213 226
-0.309418 0.663531 1.964000 225 210 227
-0.307528 0.662893 1.952000 224 208 227
-0.305795 0.662556 1.941000 223 214 227
-0.304219 0.662522 1.931000 223 210 226
-0.304219 0.665903 1.931000 221 213 226
-0.302486 0.665470 1.920000 220 215 226
-0.300753 0.664999 1.909000 222 216 226
-0.299178 0.664840 1.899000 224 219 224
-0.292719 0.653738 1.858000 221 217 222
-0.291143 0.653455 1.848000 218 216 228
-0.289568 0.653136 1.838000 220 214 235
-0.289568 0.656354 1.838000 221 211 231
-0.287992 0.655982 1.828000 220 211 228
-0.284999 0.652331 1.809000 220 213 229
-0.283581 0.652236 1.800000 224 210 231
-0.282006 0.651746 1.790000 229 208 231
-0.279170 0.648294 1.772000 228 218 232
-0.277752 0.648088 1.763000 226 220 231
-0.275546 0.646003 1.749000 226 217 230
-0.274916 0.647580 1.745000 226 219 231
-0.273498 0.647279 1.736000 227 218 232
-0.272238 0.647321 1.728000 229 219 233
-0.269560 0.643948 1.711000 230 218 235
-0.268142 0.643540 1.702000 232 219 236
-0.268142 0.646519 1.702000 229 217 238
-0.265621 0.643393 1.686000 227 216 236
-0.262943 0.639827 1.669000 228 214 234
-0.262943 0.642749 1.669000 229 210 235
-0.261682 0.642576 1.661000 230 218 236
-0.259162 0.639265 1.645000 231 220 235
-0.258059 0.639412 1.638000 232 223 235
-0.256798 0.639143 1.630000 234 224 234
-0.256798 0.641996 1.630000 230 219 233
-0.255538 0.641684 1.622000 226 220 228
-0.253175 0.638563 1.607000 225 218 224
-0.252072 0.638582 1.600000 224 215 232
-0.250812 0.638176 1.592000 229 217 240
-0.247503 0.632508 1.571000 235 220 237
-0.247503 0.635258 1.571000 231 221 235
-0.246243 0.634759 1.563000 228 218 233
-0.245140 0.634640 1.556000 227 217 232
-0.244037 0.634497 1.549000 226 218 232
-0.241989 0.631861 1.536000 226 217 233
-0.239784 0.628766 1.522000 225 211 232
-0.238681 0.628526 1.515000 226 210 231
-0.238681 0.631178 1.515000 227 212 231
-0.237735 0.631320 1.509000 227 214 232
-0.489662 0.764753 3.143000 193 169 186
-0.485300 0.763393 3.115000 193 172 186
-0.485300 0.768846 3.115000 192 173 187
-0.476576 0.760379 3.059000 192 173 189
-0.472525 0.759225 3.033000 194 176 191
-0.468318 0.757729 3.006000 196 177 196
-0.464268 0.756391 2.980000 196 177 200
-0.460373 0.755218 2.955000 196 177 197
-0.452583 0.747525 2.905000 197 181 194
-0.448844 0.746392 2.881000 198 181 196
-0.448844 0.751436 2.881000 198 184 198
-0.441522 0.744138 2.834000 198 186 199
-0.434355 0.736940 2.788000 198 186 200
-0.430772 0.735700 2.765000 199 187 201
-0.427344 0.734648 2.743000 207 190 203
-0.414258 0.716805 2.659000 216 189 200
-0.408026 0.710607 2.619000 213 194 198
-0.408026 0.715191 2.619000 210 193 205
-0.404910 0.714279 2.599000 209 192 212
-0.401950 0.713574 2.580000 209 189 209
-0.398834 0.712524 2.560000 210 194 206
-0.396030 0.711963 2.542000 212 195 204
-0.393070 0.711058 2.523000 211 196 203
-0.390265 0.710371 2.505000 210 196 207
-0.384657 0.704484 2.469000 210 193 211
-0.384657 0.708806 2.469000 211 195 214
-0.381852 0.707929 2.451000 212 200 216
-0.381852 0.712219 2.451000 213 200 216
-0.368766 0.691954 2.367000 208 198 216
-0.366273 0.691392 2.351000 204 199 216
-0.366273 0.695507 2.351000 213 198 215
-0.363780 0.694861 2.335000 223 197 216
-0.361443 0.694459 2.320000 222 201 217
-0.358951 0.693702 2.304000 221 202 217
-0.356614 0.693193 2.289000 224 201 217
-0.354277 0.692631 2.274000 228 203 218
-0.349603 0.687422 2.244000 223 208 219
-0.347422 0.687036 2.230000 218 205 219
-0.342904 0.681955 2.201000 216 205 218
-0.340723 0.681445 2.187000 215 204 216
-0.338697 0.681200 2.174000 215 204 214
-0.336516 0.680595 2.160000 216 204 219
-0.336516 0.684376 2.160000 224 206 225
-0.332310 0.679555 2.133000 232 204 226
-0.332310 0.683289 2.133000 227 206 227
-0.330284 0.682835 2.120000 223 207 227
-0.328259 0.682336 2.107000 223 209 227
-0.324364 0.677885 2.082000 223 209 227
-0.322339 0.677274 2.069000 218 208 227
-0.316730 0.669048 2.033000 213 208 227
-0.314861 0.668637 2.021000 215 207 227
-0.312991 0.668183 2.009000 218 209 227
-0.311277 0.668023 1.998000 220 212 227
-0.307694 0.663790 1.975000 223 212 226
-0.305980 0.663531 1.964000 224 208 226
-0.304111 0.662893 1.952000 225 210 224
-0.302397 0.662556 1.941000 224 220 222
-0.300839 0.662522 1.931000 223 214 224
-0.300839 0.665903 1.931000 219 212 227
-0.299125 0.665470 1.920000 216 214 228
-0.297412 0.664999 1.909000 219 215 230
-0.294140 0.660989 1.888000 222 214 227
-0.289466 0.653738 1.858000 218 217 224
-0.287908 0.653455 1.848000 214 213 228
-0.286350 0.653136 1.838000 217 212 232
-0.286350 0.656354 1.838000 220 212 231
-0.284792 0.655982 1.828000 218 211 229
-0.283390 0.655937 1.819000 217 211 232
-0.281832 0.655498 1.809000 225 208 234
-0.280430 0.655387 1.800000 233 210 233
-0.278872 0.654880 1.790000 229 218 231
-0.276068 0.651396 1.772000 226 215 229
-0.273264 0.647850 1.754000 225 214 226
-0.271861 0.647580 1.745000 224 216 229
-0.270459 0.647279 1.736000 227 218 232
-0.270459 0.650318 1.736000 230 218 232
-0.266564 0.643948 1.711000 230 219 233
-0.265162 0.643540 1.702000 230 219 233
-0.265162 0.646519 1.702000 228 217 233
-0.262670 0.643393 1.686000 227 219 233
-0.260021 0.639827 1.669000 228 223 234
-0.258775 0.639668 1.661000 230 220 236
-0.258775 0.642576 1.661000 230 225 238
-0.256282 0.639265 1.645000 230 223 237
-0.255191 0.639412 1.638000 229 228 235
-0.253945 0.639143 1.630000 229 223 234
-0.253945 0.641996 1.630000 227 221 232
-0.252699 0.641684 1.622000 225 218 230
-0.250362 0.638563 1.607000 226 225 227
-0.249271 0.638582 1.600000 227 217 231
-0.248025 0.638176 1.592000 228 217 236
-0.245844 0.635327 1.578000 230 217 233
-0.244753 0.635258 1.571000 229 220 231
-0.243507 0.634759 1.563000 228 218 231
-0.242416 0.634640 1.556000 227 216 231
-0.241326 0.634497 1.549000 226 214 231
-0.240235 0.634329 1.542000 226 218 232
-0.238210 0.631658 1.529000 226 211 230
-0.237119 0.631430 1.522000 228 211 229
-0.236029 0.631178 1.515000 230 215 231
-0.233069 0.625881 1.496000 230 221 232
-0.484160 0.764753 3.143000 195 169 183
-0.479847 0.763393 3.115000 196 166 181
-0.479847 0.768846 3.115000 192 169 179
-0.471221 0.760379 3.059000 189 173 184
-0.467215 0.759225 3.033000 194 176 189
-0.463056 0.757729 3.006000 199 177 192
-0.459051 0.756391 2.980000 198 175 195
-0.451349 0.748829 2.930000 197 171 192
-0.447498 0.747525 2.905000 198 178 190
-0.443801 0.746392 2.881000 199 181 194
-0.443801 0.751436 2.881000 199 186 198
-0.436561 0.744138 2.834000 200 188 199
-0.429475 0.736940 2.788000 200 187 200
-0.425932 0.735700 2.765000 200 189 202
-0.422543 0.734648 2.743000 204 188 204
-0.409603 0.716805 2.659000 208 186 204
-0.403441 0.710607 2.619000 208 192 205
-0.403441 0.715191 2.619000 209 195 208
-0.406522 0.725272 2.639000 209 194 211
-0.403441 0.724361 2.619000 210 193 207
-0.397434 0.718090 2.580000 212 194 204
-0.391580 0.711963 2.542000 215 197 200
-0.388653 0.711058 2.523000 213 199 196
-0.385880 0.710371 2.505000 211 199 203
-0.380335 0.704484 2.469000 213 197 211
-0.377562 0.703638 2.451000 216 201 215
-0.372324 0.698108 2.417000 215 204 219
-0.367241 0.692750 2.384000 215 202 221
-0.364622 0.691954 2.367000 212 201 224
-0.362157 0.691392 2.351000 209 202 219
-0.362157 0.695507 2.351000 215 199 215
-0.359693 0.694861 2.335000 222 198 217
-0.357382 0.694459 2.320000 221 200 219
-0.354917 0.693702 2.304000 221 203 218
-0.350296 0.688650 2.274000 222 204 218
-0.347985 0.688062 2.259000 223 206 219
-0.343518 0.683133 2.230000 220 206 220
-0.341207 0.682415 2.215000 217 207 218
-0.339051 0.681955 2.201000 217 205 217
-0.336894 0.681445 2.187000 218 204 213
-0.334892 0.681200 2.174000 215 202 209
-0.334892 0.685006 2.174000 212 199 217
-0.332735 0.684376 2.160000 219 201 225
-0.330732 0.684015 2.147000 227 200 227
-0.328576 0.683289 2.133000 224 207 230
-0.326573 0.682835 2.120000 222 208 229
-0.324571 0.682336 2.107000 225 209 228
-0.320720 0.677885 2.082000 227 213 227
-0.318717 0.677274 2.069000 223 210 227
-0.313171 0.669048 2.033000 219 210 227
-0.311323 0.668637 2.021000 221 210 228
-0.309474 0.668183 2.009000 224 210 228
-0.307780 0.668023 1.998000 224 213 228
-0.304237 0.663790 1.975000 224 216 227
-0.302542 0.663531 1.964000 226 212 226
-0.300694 0.662893 1.952000 227 207 222
-0.298999 0.662556 1.941000 226 213 218
-0.297459 0.662522 1.931000 224 217 223
-0.295764 0.662109 1.920000 222 215 228
-0.295764 0.665470 1.920000 219 216 231
-0.292530 0.661516 1.899000 221 211 235
-0.290835 0.660989 1.888000 222 206 231
-0.286214 0.653738 1.858000 220 210 227
-0.284673 0.653455 1.848000 218 208 228
-0.283133 0.653136 1.838000 221 212 230
-0.283133 0.656354 1.838000 224 216 230
-0.281592 0.655982 1.828000 222 213 231
-0.278666 0.652331 1.809000 221 213 234
-0.277279 0.652236 1.800000 225 213 238
-0.277279 0.655387 1.800000 229 206 234
-0.274352 0.651587 1.781000 228 216 231
-0.272966 0.651396 1.772000 227 209 227
-0.270193 0.647850 1.754000 226 211 223
-0.268807 0.647580 1.745000 226 215 227
-0.267420 0.647279 1.736000 228 217 232
-0.266188 0.647321 1.728000 230 218 232
-0.263569 0.643948 1.711000 230 220 232
-0.262183 0.643540 1.702000 230 221 230
-0.260951 0.643480 1.694000 228 219 228
-0.259718 0.643393 1.686000 227 220 231
-0.257099 0.639827 1.669000 227 222 235
-0.257099 0.642749 1.669000 228 223 238
-0.255867 0.642576 1.661000 227 221 241
-0.253402 0.639265 1.645000 227 219 238
-0.252324 0.639412 1.638000 226 222 236
-0.251092 0.639143 1.630000 224 221 234
-0.251092 0.641996 1.630000 224 217 232
-0.249859 0.641684 1.622000 225 209 231
-0.247549 0.638563 1.607000 228 215 231
-0.246470 0.638582 1.600000 231 212 231
-0.244160 0.635370 1.585000 230 217 232
-0.243081 0.635327 1.578000 229 214 229
-0.242003 0.635258 1.571000 228 216 227
-0.240771 0.634759 1.563000 227 218 229
-0.240771 0.637495 1.563000 227 217 231
-0.238614 0.634497 1.549000 226 207 231
-0.237536 0.634329 1.542000 225 212 231
-0.235533 0.631658 1.529000 225 204 229
-0.234455 0.631430 1.522000 224 210 228
-0.233377 0.631178 1.515000 224 217 230
-0.232452 0.631320 1.509000 224 219 233
-0.474394 0.757940 3.115000 197 168 187
-0.470130 0.756531 3.087000 200 167 185
-0.465866 0.755024 3.059000 193 167 184
-0.461906 0.753916 3.033000 186 171 186
-0.461906 0.759225 3.033000 194 181 189
-0.457794 0.757729 3.006000 203 178 193
-0.453835 0.756391 2.980000 201 176 198
-0.446220 0.748829 2.930000 199 177 194
-0.442413 0.747525 2.905000 199 180 190
-0.438758 0.746392 2.881000 200 183 197
-0.435103 0.745176 2.857000 201 191 204
-0.427945 0.737836 2.810000 202 188 202
-0.424594 0.736940 2.788000 201 187 201
-0.421092 0.735700 2.765000 201 188 203
-0.417741 0.734648 2.743000 200 189 205
-0.411345 0.728128 2.701000 200 189 205
-0.408147 0.727158 2.680000 204 193 206
-0.401903 0.720653 2.639000 208 195 209
-0.401903 0.725272 2.639000 209 199 212
-0.398857 0.724361 2.619000 211 193 212
-0.392917 0.718090 2.580000 215 192 212
-0.389871 0.717005 2.560000 219 197 208
-0.387130 0.716413 2.542000 216 205 203
-0.384237 0.715475 2.523000 213 198 207
-0.376013 0.704484 2.469000 217 196 212
-0.370682 0.698758 2.434000 221 201 215
-0.368093 0.698108 2.417000 219 216 218
-0.368093 0.702339 2.417000 218 203 219
-0.363068 0.696923 2.384000 216 203 220
-0.360479 0.696097 2.367000 215 201 217
-0.360479 0.700240 2.367000 218 199 214
-0.358042 0.699623 2.351000 221 200 216
-0.353321 0.694459 2.320000 221 200 219
-0.348600 0.689186 2.289000 222 201 219
-0.346316 0.688650 2.274000 220 208 219
-0.348600 0.697200 2.289000 219 205 221
-0.339615 0.683133 2.230000 218 206 224
-0.337330 0.682415 2.215000 217 205 221
-0.335198 0.681955 2.201000 219 206 218
-0.333066 0.681445 2.187000 221 204 217
-0.333066 0.685274 2.187000 215 204 216
-0.331086 0.685006 2.174000 209 203 220
-0.328954 0.684376 2.160000 215 202 225
-0.326974 0.684015 2.147000 222 204 228
-0.326974 0.687773 2.147000 222 214 231
-0.322862 0.682835 2.120000 222 208 229
-0.319055 0.678450 2.095000 227 207 228
-0.317075 0.677885 2.082000 232 209 225
-0.315095 0.677274 2.069000 228 209 223
-0.311440 0.672997 2.045000 225 210 225
-0.307785 0.668637 2.021000 228 213 227
-0.305958 0.668183 2.009000 231 211 229
-0.302455 0.664010 1.986000 228 217 231
-0.300780 0.663790 1.975000 226 217 229
-0.300780 0.667247 1.975000 228 220 228
-0.299104 0.666969 1.964000 230 211 224
-0.295602 0.662556 1.941000 228 209 221
-0.294079 0.662522 1.931000 226 214 224
-0.294079 0.665903 1.931000 224 217 227
-0.292404 0.665470 1.920000 223 214 229
-0.290728 0.664999 1.909000 223 210 232
-0.287530 0.660989 1.888000 223 209 230
-0.281438 0.650220 1.848000 222 212 228
-0.281438 0.653455 1.848000 222 212 231
-0.279915 0.653136 1.838000 225 215 233
-0.278393 0.652783 1.828000 228 214 231
-0.278393 0.655982 1.828000 227 213 229
-0.275499 0.652331 1.809000 226 216 232
-0.275499 0.655498 1.809000 226 227 235
-0.274128 0.655387 1.800000 226 213 233
-0.272605 0.654880 1.790000 227 231 231
-0.269864 0.651396 1.772000 228 215 228
-0.267123 0.647850 1.754000 228 209 225
-0.265752 0.647580 1.745000 229 216 228
-0.264382 0.647279 1.736000 230 217 231
-0.260574 0.640953 1.711000 231 219 232
-0.260574 0.643948 1.711000 230 222 234
-0.259204 0.643540 1.702000 230 221 234
-0.259204 0.646519 1.702000 228 220 234
-0.257985 0.646446 1.694000 227 221 234
-0.255396 0.642894 1.677000 226 222 235
-0.254178 0.642749 1.669000 226 217 234
-0.252960 0.642576 1.661000 225 217 234
-0.249457 0.636545 1.638000 225 218 234
-0.248238 0.636289 1.630000 222 220 234
-0.248238 0.639143 1.630000 220 217 233
-0.247020 0.638845 1.622000 222 218 232
-0.245954 0.638915 1.615000 225 213 232
-0.244736 0.638563 1.607000 230 216 232
-0.243670 0.638582 1.600000 235 219 234
-0.241385 0.635370 1.585000 231 228 236
-0.239253 0.632508 1.571000 228 219 232
-0.238035 0.632023 1.563000 227 215 229
-0.238035 0.634759 1.563000 227 219 230
-0.236969 0.634640 1.556000 227 227 231
-0.235903 0.634497 1.549000 227 216 230
-0.234837 0.634329 1.542000 225 220 229
-0.233923 0.634549 1.536000 224 211 227
-0.232857 0.634334 1.529000 221 210 226
-0.230725 0.631178 1.515000 219 214 229
-0.230725 0.633830 1.515000 219 224 232
-0.464726 0.751127 3.087000 196 168 191
-0.464726 0.756531 3.087000 199 167 190
-0.456597 0.748607 3.033000 194 165 189
-0.456597 0.753916 3.033000 189 164 189
-0.452532 0.752467 3.006000 195 173 190
-0.452532 0.757729 3.006000 200 181 195
-0.444855 0.750046 2.955000 199 182 201
-0.441091 0.748829 2.930000 199 181 196
-0.437328 0.747525 2.905000 200 180 191
-0.433715 0.746392 2.881000 201 181 201
-0.433715 0.751436 2.881000 202 185 211
-0.430101 0.750177 2.857000 204 187 206
-0.419714 0.736940 2.788000 204 187 202
-0.416252 0.735700 2.765000 204 188 204
-0.409778 0.729024 2.722000 202 189 206
-0.406617 0.728128 2.701000 201 191 206
-0.403455 0.727158 2.680000 204 194 207
-0.406617 0.737584 2.701000 207 196 210
-0.397283 0.725272 2.639000 208 194 214
-0.391261 0.718829 2.599000 208 191 217
-0.388401 0.718090 2.580000 209 192 221
-0.385390 0.717005 2.560000 210 197 216
-0.385390 0.721486 2.560000 210 197 211
-0.382680 0.720863 2.542000 210 194 212
-0.371691 0.704484 2.469000 213 194 213
-0.368981 0.703638 2.451000 217 194 215
-0.366422 0.703018 2.434000 217 199 217
-0.363863 0.702339 2.417000 217 192 216
-0.361303 0.701601 2.400000 214 199 216
-0.358895 0.701096 2.384000 212 201 214
-0.358895 0.705270 2.384000 216 201 213
-0.356335 0.704384 2.367000 220 204 216
-0.351518 0.698949 2.335000 223 199 219
-0.351518 0.703036 2.335000 227 193 219
-0.342335 0.688650 2.274000 221 203 220
-0.340077 0.688062 2.259000 215 203 224
-0.335711 0.683133 2.230000 213 203 228
-0.333453 0.682415 2.215000 212 201 223
-0.331345 0.681955 2.201000 215 202 219
-0.329238 0.681445 2.187000 218 203 221
-0.327281 0.681200 2.174000 215 206 223
-0.325173 0.680595 2.160000 213 209 224
-0.325173 0.684376 2.160000 217 208 226
-0.323216 0.684015 2.147000 221 203 229
-0.321108 0.683289 2.133000 219 208 233
-0.319151 0.682835 2.120000 217 204 230
-0.317194 0.682336 2.107000 222 205 228
-0.313431 0.677885 2.082000 227 209 223
-0.309667 0.673346 2.057000 226 209 219
-0.304247 0.665099 2.021000 224 211 223
-0.302441 0.664667 2.009000 226 212 227
-0.300785 0.664525 1.998000 228 207 230
-0.298979 0.664010 1.986000 224 212 234
-0.297323 0.663790 1.975000 221 215 232
-0.297323 0.667247 1.975000 223 214 230
-0.295667 0.666969 1.964000 226 211 227
-0.293860 0.666310 1.952000 225 210 224
-0.292204 0.665953 1.941000 225 213 225
-0.290699 0.665903 1.931000 224 215 227
-0.290699 0.669283 1.931000 224 216 228
-0.285881 0.661516 1.899000 225 213 229
-0.284225 0.660989 1.888000 227 209 229
-0.279709 0.653738 1.858000 225 215 230
-0.279709 0.656991 1.858000 223 216 233
-0.276698 0.653136 1.838000 225 216 237
-0.276698 0.656354 1.838000 227 214 232
-0.275193 0.655982 1.828000 226 214 227
-0.273838 0.655937 1.819000 226 214 229
-0.272332 0.655498 1.809000 224 210 232
-0.270977 0.655387 1.800000 222 191 232
-0.269472 0.654880 1.790000 225 216 232
-0.266762 0.651396 1.772000 227 214 229
-0.265407 0.651174 1.763000 228 212 227
-0.262698 0.647580 1.745000 228 223 229
-0.261343 0.647279 1.736000 228 219 231
-0.258784 0.643950 1.719000 228 219 233
-0.256224 0.640561 1.702000 231 220 236
-0.256224 0.643540 1.702000 233 222 238
-0.255020 0.643480 1.694000 230 221 241
-0.253816 0.643393 1.686000 228 224 238
-0.252461 0.642894 1.677000 225 218 235
-0.250052 0.639668 1.661000 223 206 231
-0.250052 0.642576 1.661000 224 215 228
-0.246590 0.636545 1.638000 226 219 230
-0.245385 0.636289 1.630000 228 217 233
-0.245385 0.639143 1.630000 231 211 233
-0.244181 0.638845 1.622000 229 213 233
-0.244181 0.641684 1.622000 226 210 233
-0.241923 0.638563 1.607000 229 214 234
-0.239665 0.635390 1.592000 232 220 237
-0.236503 0.629758 1.571000 229 222 240
-0.236503 0.632508 1.571000 226 222 236
-0.235299 0.632023 1.563000 224 216 232
-0.234245 0.631917 1.556000 223 218 231
-0.233191 0.631785 1.549000 224 218 231
-0.233191 0.634497 1.549000 226 213 229
-0.232137 0.634329 1.542000 225 215 228
-0.231234 0.634549 1.536000 224 213 226
-0.230180 0.634334 1.529000 223 210 224
-0.229127 0.634094 1.522000 222 208 228
-0.228073 0.633830 1.515000 222 212 232
-0.455156 0.749669 3.059000 198 167 188
-0.451288 0.748607 3.033000 195 165 187
-0.447270 0.747204 3.006000 193 165 189
-0.447270 0.752467 3.006000 195 168 191
-0.443402 0.751175 2.980000 198 180 194
-0.439682 0.750046 2.955000 198 191 197
-0.435962 0.748829 2.930000 199 180 193
-0.432242 0.747525 2.905000 200 179 189
-0.428671 0.746392 2.881000 202 178 197
-0.428671 0.751436 2.881000 204 184 205
-0.418107 0.737836 2.810000 206 186 203
-0.414833 0.736940 2.788000 206 186 201
-0.405013 0.724259 2.722000 207 189 204
-0.401889 0.723400 2.701000 205 191 206
-0.398764 0.722467 2.680000 203 191 207
-0.395639 0.721460 2.659000 205 196 207
-0.395639 0.726115 2.659000 207 193 209
-0.392663 0.725272 2.639000 206 192 212
-0.389688 0.724361 2.619000 206 190 212
-0.386712 0.723379 2.599000 204 190 212
-0.383885 0.722607 2.580000 202 192 212
-0.380909 0.721486 2.560000 204 194 211
-0.375403 0.715475 2.523000 207 193 212
-0.370047 0.709620 2.487000 210 194 214
-0.362161 0.698758 2.434000 214 194 216
-0.359632 0.698108 2.417000 215 194 219
-0.357102 0.697399 2.400000 216 197 218
-0.357102 0.701601 2.400000 212 202 216
-0.354721 0.701096 2.384000 209 201 214
-0.354721 0.705270 2.384000 214 203 213
-0.352192 0.704384 2.367000 220 203 218
-0.347431 0.698949 2.335000 226 202 224
-0.345199 0.698520 2.320000 232 202 222
-0.340586 0.693193 2.289000 222 210 220
-0.333890 0.683493 2.244000 212 203 222
-0.331807 0.683133 2.230000 209 204 225
-0.331807 0.687036 2.230000 207 203 220
-0.329575 0.686292 2.215000 211 201 216
-0.327492 0.685808 2.201000 216 204 220
-0.325409 0.685274 2.187000 216 211 225
-0.323475 0.685006 2.174000 217 210 226
-0.321392 0.684376 2.160000 219 218 227
-0.319458 0.684015 2.147000 221 213 229
-0.319458 0.687773 2.147000 216 214 231
-0.317374 0.687022 2.133000 212 206 229
-0.313506 0.682336 2.107000 217 203 228
-0.307852 0.673652 2.069000 223 208 225
-0.304281 0.669418 2.045000 223 210 222
-0.300710 0.665099 2.021000 224 213 224
-0.300710 0.668637 2.021000 224 217 227
-0.298031 0.666188 2.003000 225 213 230
-0.297287 0.668023 1.998000 221 211 233
-0.293865 0.663790 1.975000 217 211 231
-0.292228 0.663531 1.964000 219 212 230
-0.292228 0.666969 1.964000 222 211 227
-0.290443 0.666310 1.952000 223 210 225
-0.287318 0.662522 1.931000 224 214 226
-0.287318 0.665903 1.931000 225 217 228
-0.285682 0.665470 1.920000 226 217 229
-0.282557 0.661516 1.899000 228 218 230
-0.279432 0.657488 1.878000 231 217 228
-0.276456 0.653738 1.858000 228 225 226
-0.276456 0.656991 1.858000 225 217 229
-0.274969 0.656690 1.848000 225 219 233
-0.273481 0.656354 1.838000 226 214 231
-0.271993 0.655982 1.828000 226 215 229
-0.270654 0.655937 1.819000 227 213 230
-0.269166 0.655498 1.809000 223 210 232
-0.267826 0.655387 1.800000 219 209 232
-0.266339 0.654880 1.790000 223 230 232
-0.263660 0.651396 1.772000 227 215 230
-0.262321 0.651174 1.763000 227 205 228
-0.259643 0.647580 1.745000 228 212 230
-0.258304 0.647279 1.736000 227 220 232
-0.255774 0.643950 1.719000 226 214 234
-0.254584 0.643948 1.711000 231 219 236
-0.253245 0.643540 1.702000 237 219 237
-0.253245 0.646519 1.702000 233 219 238
-0.252055 0.646446 1.694000 229 218 237
-0.248335 0.639827 1.669000 225 223 235
-0.245954 0.636587 1.653000 221 215 233
-0.244764 0.636386 1.645000 224 220 231
-0.243722 0.636545 1.638000 227 219 233
-0.242532 0.636289 1.630000 235 218 235
-0.242532 0.639143 1.630000 243 216 234
-0.241341 0.638845 1.622000 235 215 232
-0.241341 0.641684 1.622000 228 211 232
-0.239110 0.638563 1.607000 228 211 232
-0.238068 0.638582 1.600000 229 217 233
-0.234795 0.632564 1.578000 226 220 235
-0.233753 0.632508 1.571000 224 217 231
-0.232563 0.632023 1.563000 221 211 227
-0.231521 0.631917 1.556000 219 212 229
-0.230480 0.631785 1.549000 222 214 230
-0.230480 0.634497 1.549000 225 214 229
-0.229438 0.634329 1.542000 225 215 229
-0.228545 0.634549 1.536000 225 213 230
-0.227504 0.634334 1.529000 225 211 231
-0.226462 0.634094 1.522000 225 210 232
-0.225421 0.633830 1.515000 225 211 233
-0.445978 0.743297 3.033000 201 168 187
-0.445978 0.748607 3.033000 198 167 185
-0.442008 0.747204 3.006000 196 166 189
-0.442008 0.752467 3.006000 196 179 193
-0.438185 0.751175 2.980000 197 180 193
-0.434509 0.750046 2.955000 198 180 193
-0.430833 0.748829 2.930000 199 172 190
-0.430833 0.753958 2.930000 201 174 188
-0.427157 0.752610 2.905000 203 168 194
-0.423628 0.751436 2.881000 204 182 200
-0.413188 0.737836 2.810000 204 187 200
-0.403336 0.725045 2.743000 205 187 201
-0.397161 0.718672 2.701000 205 191 204
-0.394073 0.717775 2.680000 202 189 207
-0.397161 0.728128 2.701000 199 188 207
-0.390985 0.721460 2.659000 203 190 208
-0.388044 0.720653 2.639000 206 191 209
-0.388044 0.725272 2.639000 207 191 210
-0.385103 0.724361 2.619000 207 190 207
-0.382162 0.723379 2.599000 207 190 204
-0.379368 0.722607 2.580000 207 190 208
-0.379368 0.727123 2.580000 206 193 212
-0.373781 0.720863 2.542000 206 192 213
-0.370987 0.719892 2.523000 210 196 215
-0.357900 0.698758 2.434000 214 197 218
-0.355401 0.698108 2.417000 216 197 222
-0.355401 0.702339 2.417000 219 201 219
-0.352901 0.701601 2.400000 215 200 217
-0.352901 0.705802 2.400000 211 199 215
-0.350548 0.705270 2.384000 215 201 213
-0.348048 0.704384 2.367000 218 205 221
-0.345696 0.703738 2.351000 222 205 229
-0.343343 0.703036 2.335000 226 203 224
-0.341138 0.702581 2.320000 220 206 220
-0.329962 0.683493 2.244000 214 197 221
-0.327904 0.683133 2.230000 212 203 222
-0.327904 0.687036 2.230000 211 206 218
-0.325698 0.686292 2.215000 215 204 214
-0.323640 0.685808 2.201000 218 204 220
-0.321581 0.685274 2.187000 218 205 227
-0.319669 0.685006 2.174000 217 202 227
-0.317611 0.684376 2.160000 220 212 228
-0.315699 0.684015 2.147000 222 218 228
-0.315699 0.687773 2.147000 219 212 229
-0.311729 0.682835 2.120000 217 205 229
-0.308053 0.678450 2.095000 220 208 229
-0.302465 0.669745 2.057000 224 213 227
-0.298936 0.665489 2.033000 225 213 225
-0.297172 0.665099 2.021000 226 216 226
-0.297172 0.668637 2.021000 228 216 227
-0.295407 0.668183 2.009000 230 219 229
-0.293790 0.668023 1.998000 225 217 232
-0.292025 0.667487 1.986000 220 208 231
-0.290408 0.667247 1.975000 221 211 230
-0.288791 0.666969 1.964000 222 214 228
-0.287026 0.666310 1.952000 223 216 226
-0.285409 0.665953 1.941000 223 217 228
-0.283938 0.665903 1.931000 224 219 230
-0.280703 0.661658 1.909000 226 217 230
-0.279233 0.661516 1.899000 226 216 231
-0.276145 0.657488 1.878000 226 216 227
-0.274675 0.657257 1.868000 224 214 223
-0.273204 0.656991 1.858000 223 211 226
-0.271734 0.656690 1.848000 224 213 229
-0.270263 0.656354 1.838000 226 209 230
-0.268793 0.655982 1.828000 226 214 231
-0.267469 0.655937 1.819000 227 214 232
-0.265999 0.655498 1.809000 224 210 233
-0.264676 0.655387 1.800000 222 208 232
-0.263205 0.654880 1.790000 224 216 232
-0.260558 0.651396 1.772000 226 212 231
-0.259235 0.651174 1.763000 227 208 230
-0.256588 0.647580 1.745000 228 201 232
-0.255265 0.647279 1.736000 227 209 234
-0.252765 0.643950 1.719000 226 201 235
-0.251589 0.643948 1.711000 231 214 236
-0.250266 0.643540 1.702000 235 219 236
-0.250266 0.646519 1.702000 232 216 236
-0.249089 0.646446 1.694000 230 209 236
-0.246589 0.642894 1.677000 227 216 236
-0.244237 0.639668 1.661000 224 213 235
-0.243060 0.639481 1.653000 226 217 234
-0.240855 0.636545 1.638000 228 220 236
-0.239679 0.636289 1.630000 231 218 238
-0.239679 0.639143 1.630000 234 221 235
-0.238502 0.638845 1.622000 230 215 232
-0.238502 0.641684 1.622000 227 209 231
-0.236297 0.638563 1.607000 227 213 231
-0.235267 0.638582 1.600000 228 217 230
-0.232032 0.632564 1.578000 226 217 230
-0.231003 0.632508 1.571000 224 216 226
-0.229827 0.632023 1.563000 223 211 223
-0.228797 0.631917 1.556000 222 205 226
-0.227768 0.631785 1.549000 223 213 230
-0.226739 0.631630 1.542000 225 216 230
-0.225857 0.631861 1.536000 225 213 230
-0.224827 0.631658 1.529000 225 213 234
-0.222769 0.628526 1.515000 225 211 238
-0.222769 0.631178 1.515000 226 210 236
-0.221886 0.631320 1.509000 226 212 234
-0.440669 0.743297 3.033000 205 170 189
-0.440669 0.748607 3.033000 202 170 188
-0.436746 0.747204 3.006000 199 177 191
-0.436746 0.752467 3.006000 198 202 194
-0.432969 0.751175 2.980000 197 181 193
-0.429336 0.750046 2.955000 198 179 193
-0.425704 0.748829 2.930000 199 177 192
-0.429336 0.760391 2.955000 202 177 192
-0.422072 0.752610 2.905000 205 181 195
-0.418585 0.751436 2.881000 204 190 199
-0.405073 0.732059 2.788000 203 188 200
-0.398535 0.725045 2.743000 203 186 202
-0.395483 0.724259 2.722000 204 188 205
-0.392432 0.723400 2.701000 200 188 208
-0.392432 0.728128 2.701000 196 188 208
-0.389381 0.727158 2.680000 201 185 208
-0.386330 0.726115 2.659000 206 189 210
-0.383424 0.725272 2.639000 207 191 212
-0.380518 0.724361 2.619000 209 191 209
-0.374852 0.718090 2.580000 211 190 207
-0.374852 0.722607 2.580000 213 191 209
-0.371946 0.721486 2.560000 209 198 211
-0.369331 0.720863 2.542000 205 198 212
-0.366570 0.719892 2.523000 209 201 214
-0.356109 0.703638 2.451000 214 198 216
-0.351170 0.698108 2.417000 218 198 218
-0.351170 0.702339 2.417000 222 199 217
-0.348700 0.701601 2.400000 218 199 215
-0.348700 0.705802 2.400000 214 198 213
-0.348700 0.710003 2.400000 215 200 211
-0.346375 0.709443 2.384000 217 204 218
-0.341580 0.703738 2.351000 218 210 225
-0.339256 0.703036 2.335000 220 208 222
-0.334752 0.697735 2.304000 218 217 220
-0.326034 0.683493 2.244000 216 209 221
-0.324000 0.683133 2.230000 216 208 222
-0.324000 0.687036 2.230000 216 207 220
-0.321821 0.686292 2.215000 218 206 218
-0.319787 0.685808 2.201000 221 206 222
-0.317753 0.685274 2.187000 219 205 227
-0.315864 0.685006 2.174000 218 206 228
-0.313830 0.684376 2.160000 221 212 230
-0.313830 0.688157 2.160000 224 214 229
-0.311941 0.687773 2.147000 223 212 229
-0.309907 0.687022 2.133000 222 209 230
-0.304386 0.678450 2.095000 224 212 231
-0.298865 0.669745 2.057000 226 213 228
-0.295378 0.665489 2.033000 227 216 225
-0.293634 0.665099 2.021000 229 212 226
-0.293634 0.668637 2.021000 232 212 227
-0.291891 0.668183 2.009000 235 215 229
-0.290292 0.668023 1.998000 229 231 231
-0.288549 0.667487 1.986000 223 216 232
-0.286951 0.667247 1.975000 223 210 233
-0.285352 0.666969 1.964000 223 216 229
-0.283609 0.666310 1.952000 223 224 226
-0.282011 0.665953 1.941000 223 215 227
-0.280558 0.665903 1.931000 224 228 228
-0.278960 0.665470 1.920000 226 218 228
-0.275909 0.661516 1.899000 223 214 229
-0.272857 0.657488 1.878000 221 211 227
-0.269952 0.653738 1.858000 221 206 226
-0.269952 0.656991 1.858000 221 212 228
-0.268499 0.656690 1.848000 223 215 230
-0.267046 0.656354 1.838000 226 216 230
-0.265593 0.655982 1.828000 226 221 231
-0.264285 0.655937 1.819000 227 214 233
-0.262832 0.655498 1.809000 226 209 235
-0.261525 0.655387 1.800000 225 212 233
-0.258764 0.651587 1.781000 225 215 232
-0.257457 0.651396 1.772000 226 217 233
-0.256149 0.651174 1.763000 227 214 233
-0.253534 0.647580 1.745000 228 211 233
-0.252226 0.647279 1.736000 227 214 232
-0.249756 0.643950 1.719000 227 213 231
-0.248594 0.643948 1.711000 230 220 230
-0.247286 0.643540 1.702000 234 220 232
-0.246124 0.643480 1.694000 232 220 235
-0.244961 0.643393 1.686000 231 218 236
-0.242492 0.639827 1.669000 229 222 238
-0.241329 0.639668 1.661000 227 216 236
-0.240167 0.639481 1.653000 228 215 234
-0.237987 0.636545 1.638000 229 217 234
-0.236825 0.636289 1.630000 227 215 235
-0.236825 0.639143 1.630000 226 217 233
-0.235663 0.638845 1.622000 226 218 231
-0.234646 0.638915 1.615000 226 215 231
-0.233483 0.638563 1.607000 226 217 230
-0.230287 0.632596 1.585000 227 217 230
-0.229270 0.632564 1.578000 226 217 230
-0.228253 0.632508 1.571000 225 215 228
-0.228253 0.635258 1.571000 225 214 226
-0.226074 0.631917 1.556000 225 213 230
-0.225057 0.631785 1.549000 225 218 234
-0.224039 0.631630 1.542000 226 213 232
-0.224039 0.634329 1.542000 225 209 229
-0.221134 0.628766 1.522000 225 209 232
-0.220117 0.628526 1.515000 226 210 235
-0.221134 0.634094 1.522000 228 214 233
-0.219245 0.631320 1.509000 228 218 231
-0.435360 0.743297 3.033000 198 173 192
-0.435360 0.748607 3.033000 197 170 192
-0.431484 0.747204 3.006000 195 171 193
-0.431484 0.752467 3.006000 196 176 195
-0.427752 0.751175 2.980000 197 163 194
-0.424164 0.750046 2.955000 199 176 194
-0.424164 0.755218 2.955000 200 181 195
-0.424164 0.760391 2.955000 202 182 196
-0.416987 0.752610 2.905000 203 190 197
-0.410097 0.745176 2.857000 200 189 199
-0.396891 0.726020 2.765000 198 189 201
-0.393733 0.725045 2.743000 202 188 203
-0.387704 0.718672 2.701000 206 188 206
-0.387704 0.723400 2.701000 204 189 209
-0.384690 0.722467 2.680000 203 191 209
-0.381676 0.721460 2.659000 206 191 209
-0.378805 0.720653 2.639000 210 190 212
-0.375934 0.719776 2.619000 209 191 215
-0.373063 0.718829 2.599000 208 193 212
-0.373063 0.723379 2.599000 210 191 210
-0.370336 0.722607 2.580000 211 189 210
-0.367465 0.721486 2.560000 209 197 211
-0.364881 0.720863 2.542000 207 201 212
-0.362154 0.719892 2.523000 210 200 213
-0.354403 0.708806 2.469000 213 199 214
-0.351819 0.707929 2.451000 215 198 215
-0.346939 0.702339 2.417000 217 200 214
-0.346939 0.706570 2.417000 213 198 214
-0.344498 0.705802 2.400000 209 196 211
-0.344498 0.710003 2.400000 213 198 209
-0.342202 0.709443 2.384000 217 201 215
-0.337465 0.703738 2.351000 218 204 221
-0.335168 0.703036 2.335000 219 202 221
-0.333015 0.702581 2.320000 219 208 221
-0.320096 0.679229 2.230000 219 214 221
-0.317943 0.678538 2.215000 218 211 222
-0.317943 0.682415 2.215000 216 211 222
-0.315934 0.681955 2.201000 218 209 222
-0.313924 0.681445 2.187000 220 209 224
-0.312058 0.681200 2.174000 220 210 227
-0.310049 0.680595 2.160000 220 206 230
-0.308183 0.680257 2.147000 223 209 233
-0.308183 0.684015 2.147000 225 214 231
-0.306173 0.683289 2.133000 226 212 229
-0.304307 0.682835 2.120000 226 209 231
-0.302441 0.682336 2.107000 226 210 233
-0.295264 0.669745 2.057000 225 212 229
-0.291819 0.665489 2.033000 227 210 225
-0.290096 0.665099 2.021000 228 206 226
-0.290096 0.668637 2.021000 229 209 228
-0.288374 0.668183 2.009000 231 199 229
-0.286795 0.668023 1.998000 226 217 230
-0.285072 0.667487 1.986000 221 216 233
-0.283494 0.667247 1.975000 222 215 236
-0.281915 0.666969 1.964000 223 216 231
-0.280192 0.666310 1.952000 221 211 227
-0.277178 0.662522 1.931000 219 192 227
-0.275599 0.662109 1.920000 223 212 227
-0.274020 0.661658 1.909000 226 215 227
-0.272584 0.661516 1.899000 224 212 227
-0.269570 0.657488 1.878000 221 209 228
-0.268135 0.657257 1.868000 220 211 230
-0.268135 0.660527 1.868000 219 217 230
-0.266699 0.660243 1.858000 222 216 231
-0.265264 0.659925 1.848000 225 220 231
-0.262393 0.655982 1.828000 224 217 232
-0.261101 0.655937 1.819000 224 215 234
-0.258374 0.652236 1.800000 224 213 237
-0.256938 0.651746 1.790000 225 216 235
-0.255647 0.651587 1.781000 225 217 233
-0.253063 0.648088 1.763000 225 227 235
-0.253063 0.651174 1.763000 225 217 237
-0.250479 0.647580 1.745000 226 215 234
-0.248039 0.644296 1.728000 226 214 231
-0.246747 0.643950 1.719000 226 217 227
-0.245599 0.643948 1.711000 230 218 224
-0.244307 0.643540 1.702000 235 221 229
-0.243159 0.643480 1.694000 233 220 234
-0.243159 0.646446 1.694000 230 223 237
-0.240718 0.642894 1.677000 229 221 241
-0.238422 0.639668 1.661000 227 214 238
-0.237273 0.639481 1.653000 229 215 235
-0.235120 0.636545 1.638000 231 219 233
-0.235120 0.639412 1.638000 227 218 232
-0.233972 0.639143 1.630000 223 215 231
-0.232824 0.638845 1.622000 224 215 231
-0.231819 0.638915 1.615000 225 217 230
-0.230670 0.638563 1.607000 225 218 230
-0.228517 0.635390 1.592000 226 219 230
-0.227513 0.635370 1.585000 226 217 230
-0.226508 0.635327 1.578000 226 213 230
-0.225503 0.635258 1.571000 225 214 230
-0.222345 0.629074 1.549000 224 218 234
-0.221340 0.628930 1.542000 225 217 239
-0.221340 0.631630 1.542000 227 212 234
-0.220479 0.631861 1.536000 227 211 229
-0.218469 0.628766 1.522000 228 206 230
-0.217465 0.628526 1.515000 227 212 232
-0.216603 0.628678 1.509000 227 220 230
-0.217465 0.633830 1.515000 227 217 229
-0.430051 0.743297 3.033000 192 173 190
-0.426222 0.741943 3.006000 192 169 191
-0.426222 0.747204 3.006000 192 171 193
-0.426222 0.752467 3.006000 195 169 195
-0.422536 0.751175 2.980000 198 170 194
-0.422536 0.756391 2.980000 200 181 194
-0.418991 0.755218 2.955000 202 181 196
-0.418991 0.760391 2.955000 202 182 199
-0.411902 0.752610 2.905000 202 185 199
-0.401834 0.739177 2.834000 197 190 200
-0.392051 0.726020 2.765000 193 189 201
-0.388931 0.725045 2.743000 201 189 202
-0.385954 0.724259 2.722000 209 189 205
-0.382976 0.723400 2.701000 209 190 209
-0.382976 0.728128 2.701000 210 193 209
-0.379999 0.727158 2.680000 212 200 209
-0.374185 0.720653 2.639000 214 193 211
-0.371349 0.719776 2.619000 211 191 213
-0.368514 0.718829 2.599000 208 192 211
-0.365820 0.718090 2.580000 209 192 210
-0.365820 0.722607 2.580000 210 196 210
-0.362984 0.721486 2.560000 209 202 211
-0.360432 0.720863 2.542000 209 201 212
-0.357738 0.719892 2.523000 211 201 213
-0.352633 0.713973 2.487000 213 199 213
-0.347529 0.707929 2.451000 213 197 213
-0.342708 0.702339 2.417000 213 198 213
-0.340297 0.701601 2.400000 209 198 214
-0.340297 0.705802 2.400000 205 197 213
-0.340297 0.710003 2.400000 211 198 212
-0.335618 0.704384 2.367000 217 199 217
-0.333350 0.703738 2.351000 218 203 222
-0.331081 0.703036 2.335000 219 201 220
-0.328954 0.702581 2.320000 221 200 218
-0.316193 0.679229 2.230000 223 207 220
-0.314066 0.678538 2.215000 220 212 222
-0.314066 0.682415 2.215000 217 211 222
-0.312081 0.681955 2.201000 218 210 222
-0.310096 0.681445 2.187000 220 212 224
-0.308253 0.681200 2.174000 221 221 226
-0.304424 0.676498 2.147000 223 210 227
-0.304424 0.680257 2.147000 225 207 229
-0.304424 0.684015 2.147000 227 211 228
-0.302439 0.683289 2.133000 229 216 227
-0.300596 0.682835 2.120000 231 212 228
-0.298753 0.682336 2.107000 228 210 230
-0.297051 0.682117 2.095000 225 209 227
-0.289962 0.669418 2.045000 226 207 224
-0.288260 0.669048 2.033000 228 210 227
-0.286559 0.668637 2.021000 227 221 230
-0.284857 0.668183 2.009000 227 213 227
-0.284006 0.669694 2.003000 223 222 224
-0.281596 0.667487 1.986000 219 215 226
-0.280036 0.667247 1.975000 221 219 228
-0.278477 0.666969 1.964000 224 214 227
-0.276775 0.666310 1.952000 220 212 225
-0.275215 0.665953 1.941000 216 207 226
-0.272238 0.662109 1.920000 221 213 227
-0.272238 0.665470 1.920000 227 214 228
-0.269260 0.661516 1.899000 224 211 228
-0.266283 0.657488 1.878000 222 211 229
-0.263447 0.653738 1.858000 220 213 229
-0.263447 0.656991 1.858000 218 213 229
-0.262029 0.656690 1.848000 221 213 229
-0.260611 0.656354 1.838000 224 215 228
-0.259193 0.655982 1.828000 222 214 228
-0.257917 0.655937 1.819000 221 214 230
-0.255223 0.652236 1.800000 223 215 233
-0.253805 0.651746 1.790000 226 211 230
-0.252529 0.651587 1.781000 225 213 228
-0.249977 0.648088 1.763000 225 217 230
-0.248701 0.647850 1.754000 224 214 232
-0.247425 0.647580 1.745000 224 211 231
-0.245014 0.644296 1.728000 224 211 230
-0.243738 0.643950 1.719000 225 213 228
-0.241328 0.640561 1.702000 231 216 227
-0.241328 0.643540 1.702000 237 216 229
-0.241328 0.646519 1.702000 233 218 232
-0.240193 0.646446 1.694000 230 220 234
-0.239059 0.646344 1.686000 229 225 236
-0.236648 0.642749 1.669000 228 216 234
