ply
format ascii 1.0
element vertex 1226
property float x
property float y
property float z
property uchar red
property uchar green
property uchar blue
end_header
0.067788 0.610093 1.549000 180 163 181
0.067482 0.610035 1.542000 179 159 181
0.067219 0.610350 1.536000 178 159 182
0.066038 0.602263 1.509000 178 160 182
0.065731 0.602099 1.502000 179 158 182
0.065469 0.602312 1.496000 180 158 182
0.065162 0.602100 1.489000 174 159 182
0.065162 0.604707 1.489000 169 156 180
0.064900 0.604866 1.483000 174 157 178
0.064637 0.605004 1.477000 180 160 178
0.064331 0.604710 1.470000 174 165 179
0.064068 0.604805 1.464000 168 164 179
0.063806 0.604878 1.458000 172 164 180
0.063543 0.604931 1.452000 176 164 182
0.063281 0.604962 1.446000 176 165 184
0.138041 0.722060 3.033000 138 106 116
0.136812 0.720895 3.006000 140 117 118
0.127892 0.693566 2.810000 149 121 123
0.126890 0.693016 2.788000 148 127 129
0.126890 0.697896 2.788000 147 121 135
0.124842 0.691434 2.743000 146 120 130
0.124842 0.696235 2.743000 148 116 126
0.123886 0.695670 2.722000 150 106 131
0.123886 0.700435 2.722000 149 122 136
0.122931 0.699759 2.701000 147 129 138
0.121975 0.699010 2.680000 152 125 140
0.119199 0.687684 2.619000 157 124 138
0.118288 0.686982 2.599000 154 125 137
0.116513 0.681155 2.560000 151 124 139
0.115694 0.680815 2.542000 153 130 142
0.114829 0.680143 2.523000 156 132 145
0.114010 0.679676 2.505000 157 133 148
0.113191 0.679145 2.487000 158 135 143
0.111552 0.673605 2.451000 157 137 139
0.110779 0.673193 2.434000 156 135 141
0.109231 0.667991 2.400000 157 135 143
0.108503 0.667711 2.384000 158 135 143
0.107001 0.662584 2.351000 160 137 144
0.107001 0.666699 2.351000 163 140 146
0.106273 0.666249 2.335000 161 135 148
0.105590 0.666030 2.320000 159 133 153
0.104862 0.665470 2.304000 159 134 158
0.104179 0.665145 2.289000 159 135 154
0.103497 0.664767 2.274000 161 136 151
0.102814 0.664336 2.259000 162 141 153
0.102131 0.663853 2.244000 162 136 155
0.101494 0.663615 2.230000 163 134 158
0.100811 0.663028 2.215000 163 139 161
0.097716 0.646432 2.147000 164 140 156
0.097079 0.645950 2.133000 163 140 152
0.097079 0.649684 2.133000 163 144 157
0.096488 0.649436 2.120000 161 143 162
0.095350 0.645445 2.095000 160 142 153
0.094758 0.645084 2.082000 164 143 144
0.094166 0.644678 2.069000 168 145 150
0.093620 0.644540 2.057000 168 145 157
0.093074 0.644359 2.045000 169 146 164
0.092528 0.644137 2.033000 171 147 172
0.091982 0.643873 2.021000 173 152 163
0.091436 0.643566 2.009000 177 148 154
0.090389 0.639675 1.986000 182 149 158
0.088841 0.632141 1.952000 177 149 162
0.088341 0.631976 1.941000 172 150 166
0.088341 0.635374 1.941000 172 149 171
0.087886 0.635481 1.931000 172 147 167
0.087385 0.635222 1.920000 172 149 164
0.086884 0.634924 1.909000 173 152 165
0.086429 0.634922 1.899000 172 152 167
0.085929 0.634549 1.888000 171 153 167
0.085929 0.637854 1.888000 170 152 168
0.084108 0.627575 1.848000 169 152 169
0.083653 0.627397 1.838000 170 148 170
0.083198 0.627183 1.828000 171 145 174
0.082788 0.627280 1.819000 175 153 179
0.082333 0.626998 1.809000 179 150 175
0.081923 0.627029 1.800000 178 155 171
0.081059 0.623528 1.781000 178 152 170
0.079830 0.617146 1.754000 174 154 170
0.079830 0.620216 1.754000 170 157 170
0.079420 0.620089 1.745000 176 155 170
0.079011 0.619929 1.736000 182 155 170
0.078646 0.620097 1.728000 179 153 171
0.078237 0.619877 1.719000 177 153 172
0.077873 0.619987 1.711000 180 155 174
0.077099 0.616792 1.694000 182 155 174
0.076735 0.616831 1.686000 180 158 174
0.076325 0.616474 1.677000 178 155 170
0.075961 0.616454 1.669000 178 151 166
0.075597 0.616407 1.661000 178 144 168
0.075233 0.616332 1.653000 177 154 170
0.074550 0.613606 1.638000 176 160 174
0.074186 0.613463 1.630000 178 156 179
0.074186 0.616316 1.630000 180 154 179
0.073504 0.613472 1.615000 179 153 180
0.073139 0.613246 1.607000 179 153 181
0.073139 0.616059 1.607000 178 149 182
0.072138 0.610399 1.585000 178 145 186
0.071820 0.610466 1.578000 179 155 190
0.071137 0.607399 1.563000 181 157 185
0.070818 0.607403 1.556000 181 158 180
0.070818 0.610126 1.556000 181 160 180
0.070500 0.610093 1.549000 178 160 180
0.070181 0.610035 1.542000 175 154 181
0.069908 0.610350 1.536000 177 158 182
0.068952 0.604658 1.515000 180 162 182
0.068679 0.604905 1.509000 183 160 182
0.068361 0.604728 1.502000 186 158 182
0.068087 0.604931 1.496000 180 156 183
0.067769 0.604707 1.489000 174 154 180
0.067496 0.604866 1.483000 177 155 178
0.067223 0.605004 1.477000 180 157 179
0.066904 0.604710 1.470000 179 160 181
0.066631 0.604805 1.464000 178 162 187
0.066085 0.602389 1.452000 177 162 193
0.065812 0.602431 1.446000 176 164 189
0.065812 0.604962 1.446000 176 164 185
0.144579 0.722896 3.059000 138 118 116
0.143350 0.722060 3.033000 138 116 119
0.142074 0.720895 3.006000 139 122 121
0.133189 0.695540 2.818000 148 130 124
0.130684 0.687299 2.765000 148 125 128
0.130684 0.692139 2.765000 148 119 132
0.129644 0.691434 2.743000 149 120 130
0.128651 0.690905 2.722000 150 120 129
0.128651 0.695670 2.722000 151 117 133
0.128651 0.700435 2.722000 146 123 137
0.127659 0.699759 2.701000 142 125 140
0.126666 0.699010 2.680000 147 123 143
0.124728 0.692936 2.639000 152 124 137
0.122838 0.686982 2.599000 153 128 131
0.120995 0.681155 2.560000 154 127 136
0.119246 0.675726 2.523000 155 128 141
0.118395 0.675291 2.505000 157 130 142
0.117544 0.674792 2.487000 158 133 144
0.116694 0.674230 2.469000 159 134 141
0.115843 0.673605 2.451000 158 135 137
0.115039 0.673193 2.434000 158 135 138
0.114236 0.672723 2.417000 158 135 140
0.113432 0.672192 2.400000 159 134 141
0.111873 0.667093 2.367000 162 136 143
0.111116 0.666699 2.351000 165 137 145
0.110360 0.666249 2.335000 162 134 147
0.109651 0.666030 2.320000 159 134 150
0.108895 0.665470 2.304000 159 135 154
0.108186 0.665145 2.289000 160 135 150
0.107477 0.664767 2.274000 160 135 147
0.106768 0.664336 2.259000 161 136 148
0.106059 0.663853 2.244000 161 134 150
0.105398 0.663615 2.230000 162 135 150
0.104689 0.663028 2.215000 165 142 151
0.101475 0.646432 2.147000 168 139 150
0.100813 0.645950 2.133000 166 138 150
0.100813 0.649684 2.133000 165 142 154
0.099584 0.645453 2.107000 164 146 159
0.099017 0.645445 2.095000 163 144 154
0.098403 0.645084 2.082000 166 144 150
0.097788 0.644678 2.069000 170 144 152
0.097221 0.644540 2.057000 169 143 155
0.096654 0.644359 2.045000 169 144 160
0.096087 0.644137 2.033000 171 143 165
0.096087 0.647696 2.033000 173 144 160
0.095519 0.647410 2.021000 175 144 156
0.095519 0.650948 2.021000 178 146 158
0.092258 0.632141 1.952000 173 148 161
0.091738 0.631976 1.941000 169 148 164
0.091738 0.635374 1.941000 171 149 168
0.091266 0.635481 1.931000 173 149 164
0.090746 0.635222 1.920000 175 151 161
0.090226 0.634924 1.909000 177 151 163
0.089753 0.634922 1.899000 173 153 166
0.089753 0.638246 1.899000 169 153 167
0.089233 0.637854 1.888000 169 153 168
0.087343 0.627575 1.848000 170 151 168
0.086398 0.623983 1.828000 172 149 169
0.086398 0.627183 1.828000 174 150 171
0.085972 0.627280 1.819000 175 158 173
0.085500 0.626998 1.809000 176 153 172
0.085074 0.627029 1.800000 177 150 172
0.084602 0.626679 1.790000 179 153 173
0.082900 0.617146 1.754000 177 155 174
0.082900 0.620216 1.754000 176 155 169
0.082475 0.620089 1.745000 178 154 164
0.082049 0.619929 1.736000 180 155 166
0.081671 0.620097 1.728000 177 155 169
0.081246 0.619877 1.719000 175 151 172
0.080442 0.616726 1.702000 177 149 175
0.080064 0.616792 1.694000 180 153 176
0.079686 0.616831 1.686000 178 155 178
0.079261 0.616474 1.677000 177 153 174
0.078883 0.616454 1.669000 173 148 169
0.078505 0.616407 1.661000 169 150 171
0.078127 0.616332 1.653000 171 159 173
0.077748 0.616229 1.645000 173 157 175
0.077418 0.616474 1.638000 175 155 178
0.077039 0.616316 1.630000 178 154 178
0.076661 0.616131 1.622000 178 153 178
0.075952 0.613246 1.607000 178 152 178
0.075622 0.613375 1.600000 176 151 179
0.074913 0.610399 1.585000 175 153 181
0.074913 0.613174 1.585000 178 163 183
0.074251 0.610508 1.571000 181 158 179
0.073873 0.610135 1.563000 180 157 176
0.073542 0.610126 1.556000 180 160 178
0.073211 0.610093 1.549000 175 163 180
0.072880 0.610035 1.542000 171 160 181
0.072597 0.610350 1.536000 177 160 182
0.071604 0.604658 1.515000 183 161 181
0.071321 0.604905 1.509000 188 163 181
0.070990 0.604728 1.502000 193 158 180
0.070706 0.604931 1.496000 186 156 179
0.070375 0.604707 1.489000 180 155 176
0.070092 0.604866 1.483000 180 155 173
0.069808 0.605004 1.477000 181 156 176
0.069194 0.602242 1.464000 184 156 180
0.069194 0.604805 1.464000 188 159 184
0.068627 0.602389 1.452000 182 160 189
0.068343 0.602431 1.446000 176 162 187
0.068059 0.602452 1.440000 176 164 185
0.149934 0.712186 3.059000 137 110 116
0.149934 0.717541 3.059000 138 109 117
0.149934 0.722896 3.059000 137 116 118
0.148659 0.722060 3.033000 136 121 121
0.148659 0.727370 3.033000 138 120 125
0.147336 0.726157 3.006000 141 119 128
0.146062 0.725092 2.980000 143 118 132
0.137729 0.688647 2.810000 145 120 129
0.138514 0.697515 2.826000 145 124 126
0.136651 0.693016 2.788000 145 124 127
0.135524 0.692139 2.765000 146 121 129
0.134445 0.691434 2.743000 148 122 131
0.133416 0.690905 2.722000 149 120 133
0.133416 0.695670 2.722000 151 121 135
0.133416 0.700435 2.722000 148 123 138
0.132387 0.699759 2.701000 145 127 142
0.131357 0.699010 2.680000 149 124 146
0.128368 0.687684 2.619000 152 124 135
0.127387 0.686982 2.599000 153 127 125
0.125476 0.681155 2.560000 154 128 132
0.124594 0.680815 2.542000 155 129 140
0.124594 0.685265 2.542000 157 130 140
0.121898 0.674792 2.487000 159 132 141
0.121016 0.674230 2.469000 161 135 138
0.120133 0.673605 2.451000 159 135 136
0.119300 0.673193 2.434000 158 136 136
0.118467 0.672723 2.417000 158 134 137
0.117634 0.672192 2.400000 159 132 139
0.116016 0.667093 2.367000 160 135 142
0.115232 0.666699 2.351000 162 138 144
0.114448 0.666249 2.335000 159 135 147
0.114448 0.670337 2.335000 156 134 148
0.113712 0.670092 2.320000 157 135 150
0.112193 0.665145 2.289000 159 137 147
0.110723 0.660382 2.259000 160 136 144
0.110723 0.664336 2.259000 160 137 144
0.109301 0.659711 2.230000 159 135 145
0.108566 0.659151 2.215000 159 133 143
0.107880 0.658838 2.201000 162 138 141
0.105233 0.646432 2.147000 165 138 145
0.104547 0.645950 2.133000 163 139 149
0.104547 0.649684 2.133000 162 142 152
0.103272 0.645453 2.107000 160 144 156
0.102047 0.641439 2.082000 159 145 156
0.102047 0.645084 2.082000 168 144 156
0.101410 0.644678 2.069000 177 145 155
0.100822 0.644540 2.057000 172 144 154
0.099645 0.640578 2.033000 166 144 156
0.099645 0.644137 2.033000 173 141 159
0.099057 0.643873 2.021000 180 140 158
0.099057 0.647410 2.021000 180 145 158
0.099057 0.650948 2.021000 179 144 159
0.095675 0.632141 1.952000 175 145 160
0.095136 0.631976 1.941000 171 147 162
0.095136 0.635374 1.941000 171 148 165
0.094646 0.635481 1.931000 171 149 162
0.094107 0.635222 1.920000 171 149 159
0.093568 0.634924 1.909000 171 150 162
0.093078 0.634922 1.899000 169 152 165
0.093078 0.638246 1.899000 168 156 166
0.092538 0.637854 1.888000 168 154 168
0.090578 0.627575 1.848000 168 153 168
0.090088 0.627397 1.838000 170 150 168
0.089598 0.627183 1.828000 173 148 167
0.089156 0.627280 1.819000 174 153 167
0.089156 0.630464 1.819000 176 155 170
0.088666 0.630164 1.809000 177 153 173
0.088225 0.630180 1.800000 178 157 176
0.086412 0.620313 1.763000 176 156 179
0.085971 0.620216 1.754000 175 157 168
0.085529 0.620089 1.745000 176 158 158
0.085088 0.619929 1.736000 178 159 162
0.084696 0.620097 1.728000 174 154 167
0.084255 0.619877 1.719000 170 148 171
0.083422 0.616726 1.702000 174 153 176
0.083030 0.616792 1.694000 178 154 179
0.082638 0.616831 1.686000 178 154 183
0.082196 0.616474 1.677000 177 154 178
0.081804 0.616454 1.669000 175 150 173
0.081412 0.616407 1.661000 173 149 174
0.081020 0.616332 1.653000 174 153 176
0.080285 0.613606 1.638000 175 155 176
0.080285 0.616474 1.638000 176 155 177
0.079893 0.616316 1.630000 176 155 176
0.079501 0.616131 1.622000 176 153 176
0.078765 0.613246 1.607000 175 153 176
0.078030 0.610309 1.592000 175 152 176
0.077687 0.610399 1.585000 174 155 176
0.077687 0.613174 1.585000 177 158 177
0.077344 0.613228 1.578000 180 156 174
0.077001 0.613258 1.571000 181 156 172
0.076609 0.612871 1.563000 183 160 176
0.075923 0.610093 1.549000 182 168 180
0.075580 0.610035 1.542000 181 164 181
0.074942 0.607569 1.529000 182 160 183
0.074256 0.604658 1.515000 183 160 181
0.073962 0.604905 1.509000 185 159 180
0.073619 0.604728 1.502000 187 156 177
0.073325 0.604931 1.496000 182 156 175
0.072982 0.604707 1.489000 178 156 172
0.072688 0.604866 1.483000 176 155 169
0.072394 0.605004 1.477000 174 157 174
0.071756 0.602242 1.464000 178 157 179
0.071756 0.604805 1.464000 183 158 182
0.071462 0.604878 1.458000 180 159 185
0.071168 0.604931 1.452000 176 161 185
0.070580 0.602452 1.440000 176 162 185
0.155289 0.712186 3.059000 136 111 115
0.155289 0.717541 3.059000 138 113 117
0.155289 0.722896 3.059000 136 117 120
0.153969 0.722060 3.033000 134 119 122
0.152598 0.720895 3.006000 138 118 124
0.152598 0.726157 3.006000 142 117 126
0.151278 0.725092 2.980000 142 117 128
0.148740 0.718055 2.930000 143 120 127
0.143867 0.699489 2.834000 143 122 125
0.143867 0.704450 2.834000 143 123 127
0.141531 0.697896 2.788000 145 122 129
0.140364 0.696979 2.765000 147 121 131
0.139247 0.696235 2.743000 149 120 134
0.138181 0.695670 2.722000 152 120 135
0.138181 0.700435 2.722000 150 122 137
0.137115 0.699759 2.701000 149 123 140
0.130972 0.672927 2.580000 151 124 143
0.130972 0.677444 2.580000 153 125 135
0.130972 0.681960 2.580000 153 128 128
0.129957 0.681155 2.560000 154 129 134
0.128079 0.675726 2.523000 156 130 141
0.127165 0.675291 2.505000 158 131 140
0.126251 0.674792 2.487000 161 132 140
0.126251 0.679145 2.487000 164 134 138
0.124424 0.673605 2.451000 161 136 136
0.123561 0.673193 2.434000 158 134 134
0.122698 0.672723 2.417000 158 133 132
0.121835 0.672192 2.400000 159 132 137
0.120160 0.667093 2.367000 159 134 143
0.119347 0.666699 2.351000 159 134 145
0.118535 0.666249 2.335000 156 135 148
0.117774 0.666030 2.320000 153 134 149
0.116961 0.665470 2.304000 156 135 150
0.116200 0.665145 2.289000 159 136 147
0.115438 0.664767 2.274000 159 137 145
0.114677 0.664336 2.259000 160 136 146
0.113916 0.663853 2.244000 158 138 147
0.112443 0.659151 2.215000 156 138 146
0.112443 0.663028 2.215000 159 139 145
0.108991 0.646432 2.147000 162 139 148
0.108281 0.645950 2.133000 161 140 150
0.108281 0.649684 2.133000 160 142 153
0.106961 0.645453 2.107000 157 144 156
0.106352 0.645445 2.095000 155 144 156
0.105692 0.645084 2.082000 170 144 156
0.105032 0.644678 2.069000 185 145 153
0.104423 0.644540 2.057000 174 146 150
0.103204 0.640578 2.033000 164 141 153
0.103204 0.644137 2.033000 176 140 157
0.102595 0.643873 2.021000 188 145 158
0.102595 0.647410 2.021000 184 154 159
0.102595 0.650948 2.021000 181 145 160
0.099092 0.632141 1.952000 177 142 162
0.098534 0.631976 1.941000 173 143 166
0.098534 0.635374 1.941000 171 147 170
0.098026 0.635481 1.931000 169 148 166
0.097468 0.635222 1.920000 167 146 162
0.096909 0.634924 1.909000 165 149 163
0.095843 0.631244 1.888000 166 151 165
0.095843 0.634549 1.888000 167 154 166
0.095336 0.634476 1.878000 167 156 167
0.093813 0.627575 1.848000 167 152 167
0.093305 0.627397 1.838000 169 151 167
0.092798 0.627183 1.828000 172 150 166
0.092341 0.627280 1.819000 174 153 165
0.091833 0.626998 1.809000 176 153 168
0.091376 0.627029 1.800000 176 153 171
0.089955 0.620377 1.772000 177 154 172
0.089498 0.620313 1.763000 175 155 173
0.089041 0.620216 1.754000 174 157 168
0.088584 0.620089 1.745000 175 163 163
0.088127 0.619929 1.736000 176 157 165
0.087721 0.620097 1.728000 170 156 167
0.086858 0.616992 1.711000 165 156 170
0.086401 0.616726 1.702000 171 164 173
0.085995 0.616792 1.694000 177 157 176
0.085995 0.619758 1.694000 177 153 178
0.085132 0.616474 1.677000 178 152 176
0.084726 0.616454 1.669000 177 151 174
0.084320 0.616407 1.661000 177 150 175
0.083914 0.616332 1.653000 177 151 176
0.083152 0.613606 1.638000 178 154 175
0.083152 0.616474 1.638000 176 156 174
0.082746 0.616316 1.630000 175 155 173
0.082340 0.616131 1.622000 174 153 173
0.081579 0.613246 1.607000 173 149 174
0.081223 0.613375 1.600000 173 149 175
0.080462 0.610399 1.585000 174 151 175
0.080106 0.610466 1.578000 177 158 176
0.079751 0.610508 1.571000 180 156 175
0.079345 0.610135 1.563000 183 152 174
0.079345 0.612871 1.563000 186 160 176
0.078634 0.610093 1.549000 189 186 179
0.078279 0.610035 1.542000 192 168 183
0.077974 0.610350 1.536000 187 158 188
0.076604 0.602263 1.509000 183 157 184
0.076248 0.602099 1.502000 182 157 180
0.075944 0.602312 1.496000 181 156 177
0.075588 0.602100 1.489000 178 158 174
0.075284 0.602270 1.483000 176 157 173
0.074979 0.602419 1.477000 171 153 172
0.074624 0.602137 1.470000 167 156 175
0.074319 0.602242 1.464000 173 159 179
0.074015 0.602326 1.458000 179 159 183
0.073710 0.602389 1.452000 178 157 187
0.073405 0.602431 1.446000 177 159 184
0.073101 0.602452 1.440000 177 163 182
0.160643 0.712186 3.059000 140 115 115
0.160643 0.717541 3.059000 144 116 118
0.160643 0.722896 3.059000 141 116 122
0.159278 0.722060 3.033000 138 120 123
0.159278 0.727370 3.033000 140 116 124
0.157860 0.726157 3.006000 142 117 124
0.156495 0.725092 2.980000 141 118 125
0.153869 0.718055 2.930000 140 121 125
0.148828 0.699489 2.834000 141 123 125
0.148828 0.704450 2.834000 143 125 127
0.147567 0.703404 2.810000 145 123 129
0.146412 0.702777 2.788000 147 121 132
0.145204 0.701819 2.765000 152 120 135
0.142946 0.695670 2.722000 157 119 136
0.142946 0.700435 2.722000 154 119 137
0.141843 0.699759 2.701000 151 122 139
0.136487 0.677883 2.599000 152 123 141
0.135489 0.677444 2.580000 152 125 136
0.135489 0.681960 2.580000 153 130 131
0.134438 0.681155 2.560000 153 133 136
0.133493 0.680815 2.542000 155 131 142
0.132495 0.680143 2.523000 157 132 140
0.131550 0.679676 2.505000 158 133 139
0.129660 0.674230 2.469000 160 133 138
0.128714 0.673605 2.451000 158 133 137
0.127822 0.673193 2.434000 156 134 132
0.127822 0.677454 2.434000 157 133 127
0.126929 0.676953 2.417000 158 132 135
0.125196 0.671884 2.384000 159 131 144
0.124303 0.671236 2.367000 159 131 146
0.122623 0.666249 2.335000 159 133 149
0.121835 0.666030 2.320000 159 135 149
0.120995 0.665470 2.304000 159 136 150
0.120207 0.665145 2.289000 160 138 148
0.120207 0.669152 2.289000 161 135 147
0.119419 0.668747 2.274000 162 133 148
0.117844 0.663853 2.244000 160 137 150
0.116321 0.659151 2.215000 158 143 150
0.113432 0.646565 2.160000 161 140 150
0.112015 0.642217 2.133000 164 139 151
0.112015 0.645950 2.133000 162 140 152
0.111332 0.645725 2.120000 160 142 154
0.110649 0.645453 2.107000 159 142 156
0.110019 0.645445 2.095000 158 143 156
0.108654 0.641056 2.069000 167 147 156
0.108654 0.644678 2.069000 177 148 151
0.108023 0.644540 2.057000 172 142 146
0.106763 0.640578 2.033000 168 135 151
0.106763 0.644137 2.033000 173 142 156
0.106133 0.643873 2.021000 179 148 158
0.106133 0.647410 2.021000 178 147 161
0.106133 0.650948 2.021000 177 142 162
0.102509 0.632141 1.952000 174 141 164
0.101932 0.631976 1.941000 171 138 169
0.101932 0.635374 1.941000 168 147 175
0.101406 0.635481 1.931000 165 152 170
0.100829 0.635222 1.920000 165 148 165
0.100251 0.634924 1.909000 165 149 165
0.099148 0.631244 1.888000 166 151 166
0.099148 0.634549 1.888000 168 153 166
0.098623 0.634476 1.878000 167 152 167
0.097048 0.627575 1.848000 165 150 167
0.096523 0.627397 1.838000 169 149 167
0.095997 0.627183 1.828000 172 149 165
0.095525 0.627280 1.819000 174 151 163
0.095000 0.626998 1.809000 176 154 166
0.094527 0.627029 1.800000 179 153 169
0.093529 0.623528 1.781000 182 153 168
0.092584 0.620313 1.763000 179 154 168
0.092111 0.620216 1.754000 177 154 168
0.091639 0.620089 1.745000 177 155 169
0.090746 0.617072 1.728000 178 153 168
0.090273 0.616868 1.719000 176 155 168
0.089853 0.616992 1.711000 173 158 169
0.089381 0.616726 1.702000 175 159 171
0.088960 0.616792 1.694000 177 160 172
0.088960 0.619758 1.694000 177 155 174
0.088068 0.616474 1.677000 177 153 175
0.087648 0.616454 1.669000 177 151 176
0.087648 0.619376 1.669000 178 150 176
0.087227 0.619315 1.661000 180 151 176
0.086020 0.613606 1.638000 183 154 174
0.085599 0.613463 1.630000 178 155 172
0.085599 0.616316 1.630000 173 157 171
0.085179 0.616131 1.622000 168 152 170
0.084392 0.613246 1.607000 163 141 172
0.084024 0.613375 1.600000 169 143 174
0.083236 0.610399 1.585000 174 143 175
0.083236 0.613174 1.585000 179 158 176
0.082501 0.610508 1.571000 184 158 176
0.082081 0.610135 1.563000 184 152 176
0.081713 0.610126 1.556000 184 143 177
0.081346 0.610093 1.549000 185 163 179
0.080978 0.610035 1.542000 187 165 186
0.080663 0.610350 1.536000 184 159 193
0.079560 0.604658 1.515000 181 156 186
0.079245 0.604905 1.509000 180 154 180
0.078878 0.604728 1.502000 180 154 176
0.078562 0.604931 1.496000 178 156 173
0.078195 0.604707 1.489000 176 161 174
0.077880 0.604866 1.483000 174 157 176
0.077565 0.605004 1.477000 172 157 177
0.076882 0.602242 1.464000 176 159 179
0.076567 0.602326 1.458000 179 163 184
0.076252 0.602389 1.452000 179 159 189
0.076252 0.604931 1.452000 178 158 184
0.075622 0.602452 1.440000 178 163 179
0.165998 0.712186 3.059000 143 119 115
0.165998 0.717541 3.059000 150 115 116
0.165998 0.722896 3.059000 146 114 117
0.164587 0.722060 3.033000 142 115 119
0.163122 0.720895 3.006000 142 112 122
0.161711 0.719876 2.980000 143 115 122
0.161711 0.725092 2.980000 140 120 123
0.156339 0.706047 2.881000 138 122 123
0.155037 0.705166 2.857000 140 126 124
0.153788 0.704450 2.834000 143 124 127
0.152486 0.703404 2.810000 145 124 130
0.151292 0.702777 2.788000 148 122 132
0.148850 0.696235 2.743000 155 120 135
0.147711 0.695670 2.722000 163 118 137
0.146571 0.695031 2.701000 158 115 140
0.146571 0.699759 2.701000 154 120 139
0.141036 0.677883 2.599000 153 124 139
0.140005 0.677444 2.580000 152 128 136
0.140005 0.681960 2.580000 152 135 134
0.138920 0.681155 2.560000 153 133 137
0.137943 0.680815 2.542000 155 132 141
0.136912 0.680143 2.523000 157 132 141
0.135935 0.679676 2.505000 156 135 141
0.134958 0.679145 2.487000 156 132 144
0.133982 0.678552 2.469000 155 131 146
0.133005 0.677895 2.451000 155 133 141
0.132082 0.677454 2.434000 156 134 136
0.131160 0.676953 2.417000 158 132 140
0.129369 0.671884 2.384000 159 127 144
0.127578 0.666699 2.351000 160 130 146
0.125896 0.661969 2.320000 163 133 148
0.125028 0.661437 2.304000 166 134 149
0.125028 0.665470 2.304000 163 137 150
0.124214 0.665145 2.289000 161 136 148
0.123400 0.664767 2.274000 162 134 146
0.123400 0.668747 2.274000 164 135 147
0.121772 0.663853 2.244000 162 135 148
0.120198 0.659151 2.215000 160 138 149
0.117214 0.646565 2.160000 163 140 150
0.115748 0.642217 2.133000 167 139 151
0.115748 0.645950 2.133000 163 140 152
0.115748 0.649684 2.133000 160 140 154
0.114337 0.645453 2.107000 160 140 156
0.113686 0.645445 2.095000 161 144 156
0.112275 0.641056 2.069000 165 154 156
0.111624 0.640939 2.057000 169 146 154
0.110322 0.637019 2.033000 170 139 151
0.110322 0.640578 2.033000 172 140 154
0.109671 0.640335 2.021000 171 146 158
0.109671 0.643873 2.021000 170 145 162
0.109671 0.647410 2.021000 172 144 166
0.110322 0.654813 2.033000 174 144 164
0.106577 0.636027 1.964000 172 143 163
0.105329 0.631976 1.941000 170 145 165
0.104787 0.632100 1.931000 166 152 168
0.104787 0.635481 1.931000 162 148 163
0.104190 0.635222 1.920000 163 148 158
0.103593 0.634924 1.909000 165 149 161
0.102453 0.631244 1.888000 167 151 165
0.102453 0.634549 1.888000 170 150 166
0.101368 0.631097 1.868000 167 150 168
0.100825 0.630971 1.858000 164 148 170
0.100825 0.634224 1.858000 168 146 172
0.099197 0.627183 1.828000 173 147 169
0.098709 0.627280 1.819000 174 148 165
0.098166 0.626998 1.809000 176 152 168
0.097678 0.627029 1.800000 181 152 171
0.096647 0.623528 1.781000 187 152 169
0.095670 0.620313 1.763000 183 154 168
0.095182 0.620216 1.754000 180 152 168
0.094693 0.620089 1.745000 180 151 168
0.093771 0.617072 1.728000 181 152 167
0.093282 0.616868 1.719000 181 153 166
0.092848 0.616992 1.711000 182 155 168
0.092360 0.616726 1.702000 179 155 170
0.091926 0.616792 1.694000 177 155 169
0.092360 0.622684 1.702000 177 154 169
0.091003 0.616474 1.677000 177 152 175
0.090569 0.616454 1.669000 178 151 181
0.090569 0.619376 1.669000 179 150 178
0.090135 0.619315 1.661000 183 149 175
0.088887 0.613606 1.638000 188 153 173
0.088453 0.613463 1.630000 179 155 171
0.088019 0.613291 1.622000 171 156 169
0.086391 0.604735 1.592000 162 159 168
0.086391 0.607522 1.592000 154 146 169
0.086011 0.607625 1.585000 164 139 171
0.085631 0.607704 1.578000 175 153 174
0.085631 0.610466 1.578000 182 173 177
0.085251 0.610508 1.571000 189 161 177
0.084817 0.610135 1.563000 186 156 177
0.084057 0.607382 1.549000 183 154 178
0.084057 0.610093 1.549000 182 159 178
0.083352 0.607662 1.536000 182 160 182
0.082972 0.607569 1.529000 180 157 186
0.081887 0.602263 1.509000 179 154 181
0.081887 0.604905 1.509000 179 152 176
0.081507 0.604728 1.502000 179 152 171
0.081181 0.604931 1.496000 177 152 167
0.080801 0.604707 1.489000 176 151 170
0.080150 0.602419 1.477000 177 159 173
0.079770 0.602137 1.470000 178 157 174
0.079119 0.599774 1.458000 179 159 175
0.079119 0.602326 1.458000 180 160 176
0.078794 0.602389 1.452000 180 160 178
0.078794 0.604931 1.452000 180 163 178
0.078468 0.604962 1.446000 180 174 178
0.171353 0.706831 3.059000 136 111 112
0.171353 0.712186 3.059000 140 113 115
0.169896 0.711442 3.033000 145 111 113
0.169896 0.716751 3.033000 141 113 112
0.169896 0.722060 3.033000 138 115 116
0.168384 0.720895 3.006000 143 113 120
0.166928 0.719876 2.980000 149 113 120
0.165527 0.719009 2.955000 145 118 121
0.161382 0.706047 2.881000 141 122 122
0.160038 0.705166 2.857000 143 123 123
0.158749 0.704450 2.834000 145 123 127
0.157405 0.703404 2.810000 145 123 131
0.153652 0.691434 2.743000 145 125 133
0.153652 0.696235 2.743000 151 121 135
0.152476 0.695670 2.722000 158 119 139
0.151299 0.695031 2.701000 155 118 144
0.151299 0.699759 2.701000 153 120 140
0.144521 0.672927 2.580000 148 125 137
0.145586 0.682433 2.599000 144 129 137
0.144521 0.681960 2.580000 147 132 137
0.143401 0.681155 2.560000 151 134 138
0.142393 0.680815 2.542000 153 131 140
0.141328 0.680143 2.523000 156 129 142
0.140320 0.679676 2.505000 155 131 144
0.139312 0.679145 2.487000 154 132 150
0.137295 0.673605 2.451000 154 132 156
0.136343 0.673193 2.434000 154 134 150
0.136343 0.677454 2.434000 156 133 145
0.135391 0.676953 2.417000 158 135 144
0.134438 0.676393 2.400000 158 130 144
0.133542 0.676057 2.384000 159 129 145
0.130797 0.666249 2.335000 161 131 147
0.129957 0.666030 2.320000 163 133 148
0.129061 0.665470 2.304000 162 135 150
0.128221 0.665145 2.289000 162 136 148
0.127380 0.664767 2.274000 161 137 146
0.127380 0.668747 2.274000 160 138 146
0.125700 0.663853 2.244000 159 136 146
0.124916 0.663615 2.230000 158 137 148
0.121779 0.650755 2.174000 161 136 150
0.120266 0.646432 2.147000 164 137 151
0.119482 0.645950 2.133000 162 139 152
0.119482 0.649684 2.133000 160 140 154
0.118026 0.645453 2.107000 160 140 156
0.117353 0.645445 2.095000 161 142 156
0.115897 0.641056 2.069000 164 146 157
0.115225 0.640939 2.057000 167 143 157
0.115225 0.644540 2.057000 170 139 157
0.113880 0.640578 2.033000 174 141 158
0.113208 0.640335 2.021000 172 143 160
0.113208 0.643873 2.021000 170 145 165
0.113208 0.647410 2.021000 173 146 171
0.112536 0.647083 2.009000 176 149 166
0.110632 0.639589 1.975000 173 148 162
0.109343 0.635558 1.952000 170 148 162
0.108167 0.632100 1.931000 167 145 162
0.108167 0.635481 1.931000 164 143 156
0.107551 0.635222 1.920000 164 146 151
0.106935 0.634924 1.909000 164 149 157
0.105758 0.631244 1.888000 166 149 164
0.105198 0.631188 1.878000 169 149 166
0.104638 0.631097 1.868000 168 148 169
0.104078 0.630971 1.858000 167 146 173
0.103518 0.630810 1.848000 171 145 178
0.103518 0.634045 1.848000 176 148 173
0.101893 0.627280 1.819000 174 153 168
0.101333 0.626998 1.809000 171 157 171
0.100829 0.627029 1.800000 177 155 174
0.099764 0.623528 1.781000 183 150 171
0.099260 0.623479 1.772000 181 150 168
0.098252 0.620216 1.754000 180 151 168
0.097748 0.620089 1.745000 180 150 168
0.097244 0.619929 1.736000 180 151 166
0.096291 0.616868 1.719000 179 152 165
0.095843 0.616992 1.711000 179 155 167
0.095339 0.616726 1.702000 177 155 169
0.095339 0.619705 1.702000 175 152 167
0.094891 0.619758 1.694000 175 151 165
0.094443 0.619782 1.686000 174 151 175
0.093939 0.619409 1.677000 176 149 186
0.093939 0.622345 1.677000 177 152 180
0.093491 0.622298 1.669000 180 152 175
0.091754 0.613606 1.638000 183 155 173
0.091306 0.613463 1.630000 177 154 171
0.090018 0.607620 1.607000 171 155 168
0.088785 0.602076 1.585000 166 154 166
0.088785 0.604850 1.585000 162 148 167
0.088785 0.607625 1.585000 169 149 168
0.088393 0.607704 1.578000 176 158 173
0.088393 0.610466 1.578000 180 162 178
0.088001 0.610508 1.571000 184 159 178
0.087553 0.610135 1.563000 183 157 179
0.087161 0.610126 1.556000 182 158 178
0.086769 0.610093 1.549000 181 159 178
0.086041 0.607662 1.536000 179 161 178
0.085648 0.607569 1.529000 178 158 179
0.084864 0.604658 1.515000 176 153 175
0.084528 0.604905 1.509000 173 152 172
0.084136 0.604728 1.502000 170 151 166
0.083800 0.604931 1.496000 173 145 161
0.083408 0.604707 1.489000 177 135 165
0.082736 0.602419 1.477000 179 150 170
0.082344 0.602137 1.470000 181 156 171
0.081671 0.599774 1.458000 181 157 172
0.081335 0.599847 1.452000 181 160 169
0.081335 0.602389 1.452000 181 159 167
0.080999 0.602431 1.446000 182 160 172
0.080663 0.602452 1.440000 182 163 177
0.176708 0.712186 3.059000 138 113 111
0.176708 0.717541 3.059000 140 113 108
0.175206 0.716751 3.033000 137 115 106
0.175206 0.722060 3.033000 134 114 111
0.173646 0.720895 3.006000 145 114 117
0.172144 0.719876 2.980000 156 114 120
0.172144 0.725092 2.980000 150 118 124
0.167812 0.711928 2.905000 144 120 121
0.166425 0.711090 2.881000 145 122 119
0.165039 0.710167 2.857000 147 122 124
0.163710 0.709411 2.834000 144 122 128
0.157240 0.686140 2.722000 142 123 129
0.157240 0.690905 2.722000 147 123 131
0.157240 0.695670 2.722000 153 120 135
0.156027 0.695031 2.701000 152 120 140
0.156027 0.699759 2.701000 152 122 137
0.152446 0.688316 2.639000 144 127 134
0.151290 0.687684 2.619000 137 129 135
0.150135 0.686982 2.599000 143 131 136
0.147882 0.681155 2.560000 149 131 138
0.146842 0.680815 2.542000 152 132 140
0.145745 0.680143 2.523000 156 129 141
0.144705 0.679676 2.505000 154 129 142
0.143665 0.679145 2.487000 153 130 147
0.142625 0.678552 2.469000 153 133 151
0.141586 0.677895 2.451000 153 131 148
0.140604 0.677454 2.434000 155 130 145
0.139622 0.676953 2.417000 158 131 144
0.138640 0.676393 2.400000 158 130 144
0.137715 0.676057 2.384000 158 131 145
0.134885 0.666249 2.335000 159 132 145
0.133094 0.661437 2.304000 160 133 147
0.133094 0.665470 2.304000 161 134 148
0.132227 0.665145 2.289000 163 135 146
0.131361 0.664767 2.274000 160 141 144
0.130495 0.664336 2.259000 157 136 141
0.129628 0.663853 2.244000 157 135 139
0.127953 0.659151 2.215000 157 134 143
0.125584 0.650755 2.174000 159 133 148
0.124025 0.646432 2.147000 161 137 150
0.123216 0.645950 2.133000 160 142 152
0.123216 0.649684 2.133000 160 141 152
0.121714 0.645453 2.107000 160 139 152
0.121021 0.645445 2.095000 161 138 150
0.119519 0.641056 2.069000 163 145 148
0.118826 0.640939 2.057000 166 141 152
0.118132 0.640779 2.045000 171 135 156
0.117439 0.640578 2.033000 176 139 156
0.116746 0.640335 2.021000 173 142 157
0.116746 0.643873 2.021000 170 144 160
0.116746 0.647410 2.021000 174 149 164
0.116053 0.647083 2.009000 179 151 160
0.113453 0.636027 1.964000 175 155 156
0.112760 0.635558 1.952000 171 146 158
0.111547 0.632100 1.931000 169 139 159
0.111547 0.635481 1.931000 167 142 157
0.110912 0.635222 1.920000 165 145 155
0.109699 0.631598 1.899000 164 145 159
0.109063 0.631244 1.888000 166 149 164
0.107908 0.627827 1.868000 168 146 165
0.107330 0.627719 1.858000 169 150 166
0.107330 0.630971 1.858000 170 146 168
0.106752 0.630810 1.848000 175 143 171
0.105597 0.627183 1.828000 180 149 169
0.105077 0.627280 1.819000 173 160 167
0.104500 0.626998 1.809000 167 155 169
0.103980 0.627029 1.800000 173 161 171
0.102882 0.623528 1.781000 179 152 168
0.102362 0.623479 1.772000 179 146 166
0.101322 0.620216 1.754000 180 144 165
0.100803 0.620089 1.745000 179 149 165
0.100283 0.619929 1.736000 179 151 165
0.099820 0.620097 1.728000 178 152 166
0.099301 0.619877 1.719000 177 157 170
0.098838 0.619987 1.711000 175 161 174
0.098319 0.619705 1.702000 174 155 172
0.097856 0.619758 1.694000 173 150 169
0.097394 0.619782 1.686000 172 148 174
0.096874 0.619409 1.677000 174 145 180
0.096874 0.622345 1.677000 176 147 177
0.095026 0.613349 1.645000 177 154 174
0.094622 0.613606 1.638000 179 154 172
0.094159 0.613463 1.630000 175 153 170
0.092831 0.607620 1.607000 171 154 166
0.091964 0.604735 1.592000 171 154 162
0.091560 0.604850 1.585000 171 153 165
0.091560 0.607625 1.585000 174 154 168
0.091156 0.607704 1.578000 177 157 173
0.091156 0.610466 1.578000 178 160 178
0.091156 0.613228 1.578000 180 158 181
0.090751 0.613258 1.571000 181 155 183
0.089480 0.607382 1.549000 182 157 181
0.089076 0.607336 1.542000 179 159 178
0.088729 0.607662 1.536000 177 162 178
0.088325 0.607569 1.529000 175 164 178
0.087170 0.602263 1.509000 174 157 175
0.087170 0.604905 1.509000 167 155 173
0.086765 0.604728 1.502000 161 150 170
0.086014 0.602100 1.489000 169 142 167
0.085668 0.602270 1.483000 178 147 169
0.085321 0.602419 1.477000 181 153 172
0.084917 0.602137 1.470000 185 154 172
0.084224 0.599774 1.458000 183 155 172
0.083877 0.599847 1.452000 182 157 171
0.083877 0.602389 1.452000 183 159 170
0.083530 0.602431 1.446000 185 159 175
0.083184 0.602452 1.440000 185 160 180
0.180515 0.706133 3.033000 134 113 107
0.180515 0.711442 3.033000 138 116 103
0.180515 0.716751 3.033000 137 115 100
0.180515 0.722060 3.033000 135 112 107
0.178908 0.720895 3.006000 142 112 115
0.177361 0.719876 2.980000 149 112 121
0.175873 0.719009 2.955000 147 116 127
0.172897 0.711928 2.905000 145 118 121
0.171468 0.711090 2.881000 147 121 116
0.170040 0.710167 2.857000 150 122 121
0.168671 0.709411 2.834000 147 121 126
0.163255 0.691434 2.743000 144 122 126
0.163255 0.696235 2.743000 148 121 127
0.162005 0.695670 2.722000 153 121 131
0.160755 0.695031 2.701000 155 121 136
0.160755 0.699759 2.701000 158 124 134
0.157065 0.688316 2.639000 150 126 132
0.157065 0.692936 2.639000 143 130 134
0.154685 0.686982 2.599000 146 130 136
0.152364 0.681155 2.560000 149 130 138
0.151292 0.680815 2.542000 152 129 141
0.150161 0.680143 2.523000 155 128 141
0.149090 0.679676 2.505000 151 127 141
0.148019 0.679145 2.487000 146 126 144
0.146947 0.678552 2.469000 149 129 147
0.145876 0.677895 2.451000 153 129 146
0.144864 0.677454 2.434000 155 130 145
0.143853 0.676953 2.417000 157 132 145
0.143853 0.681185 2.417000 156 132 145
0.142841 0.680595 2.400000 155 133 144
0.138079 0.661969 2.320000 158 132 144
0.137127 0.661437 2.304000 160 133 145
0.136234 0.661138 2.289000 161 132 147
0.136234 0.665145 2.289000 161 132 144
0.135342 0.664767 2.274000 156 133 142
0.135342 0.668747 2.274000 151 131 137
0.133556 0.663853 2.244000 153 132 132
0.130997 0.654985 2.201000 156 131 139
0.129390 0.650755 2.174000 158 134 146
0.127783 0.646432 2.147000 159 136 149
0.126950 0.645950 2.133000 158 141 152
0.126176 0.645725 2.120000 157 145 150
0.125402 0.645453 2.107000 164 139 149
0.123914 0.641439 2.082000 171 129 144
0.123141 0.641056 2.069000 168 139 140
0.121712 0.637200 2.045000 166 143 147
0.121712 0.640779 2.045000 170 139 155
0.120998 0.640578 2.033000 174 139 155
0.120284 0.640335 2.021000 170 141 155
0.120284 0.643873 2.021000 167 141 156
0.120284 0.647410 2.021000 166 146 157
0.119570 0.647083 2.009000 165 151 154
0.117546 0.639589 1.975000 166 149 151
0.116177 0.635558 1.952000 168 145 154
0.115523 0.635374 1.941000 167 141 157
0.114927 0.635481 1.931000 166 142 158
0.114273 0.635222 1.920000 164 141 159
0.114273 0.638583 1.920000 161 140 162
0.111773 0.627901 1.878000 168 144 165
0.111178 0.627827 1.868000 174 137 164
0.110583 0.627719 1.858000 172 143 163
0.110583 0.630971 1.858000 171 146 164
0.109987 0.630810 1.848000 174 145 165
0.108797 0.627183 1.828000 178 146 165
0.108261 0.627280 1.819000 174 148 166
0.107666 0.626998 1.809000 170 143 167
0.107666 0.630164 1.809000 173 151 168
0.106000 0.623528 1.781000 176 152 166
0.105464 0.623479 1.772000 177 144 165
0.104393 0.620216 1.754000 178 133 163
0.103857 0.620089 1.745000 176 147 162
0.103322 0.619929 1.736000 175 153 165
0.102845 0.620097 1.728000 175 157 168
0.102845 0.623122 1.728000 175 161 174
0.101834 0.619987 1.711000 174 158 180
0.101298 0.619705 1.702000 174 157 177
0.100822 0.619758 1.694000 173 152 174
0.100346 0.619782 1.686000 172 149 174
0.099810 0.619409 1.677000 174 146 174
0.099810 0.622345 1.677000 176 140 173
0.097905 0.613349 1.645000 179 149 173
0.097489 0.613606 1.638000 182 156 171
0.097013 0.613463 1.630000 177 155 169
0.096120 0.610645 1.615000 172 155 163
0.094751 0.604735 1.592000 173 156 158
0.094751 0.607522 1.592000 174 157 163
0.094334 0.607625 1.585000 178 156 168
0.093918 0.607704 1.578000 182 159 173
0.093918 0.610466 1.578000 182 159 179
0.093501 0.610508 1.571000 182 159 183
0.093025 0.610135 1.563000 184 159 188
0.092192 0.607382 1.549000 187 156 183
0.091775 0.607336 1.542000 183 161 179
0.091418 0.607662 1.536000 179 165 178
0.090585 0.604787 1.522000 177 161 178
0.089811 0.602263 1.509000 175 159 176
0.089395 0.602099 1.502000 171 157 174
0.089395 0.604728 1.502000 167 154 173
0.089037 0.604931 1.496000 172 153 173
0.088264 0.602270 1.483000 177 160 174
0.087907 0.602419 1.477000 180 154 175
0.087490 0.602137 1.470000 182 153 174
0.087133 0.602242 1.464000 181 154 173
0.086419 0.599847 1.452000 181 156 173
0.086419 0.602389 1.452000 181 157 174
0.086062 0.602431 1.446000 182 159 179
0.085704 0.602452 1.440000 182 159 184
0.185824 0.706133 3.033000 131 112 108
0.185824 0.711442 3.033000 137 115 107
0.185824 0.716751 3.033000 137 117 105
0.184170 0.715633 3.006000 137 115 111
0.184170 0.720895 3.006000 140 113 117
0.182577 0.719876 2.980000 143 113 121
0.182577 0.725092 2.980000 144 117 124
0.176512 0.706047 2.881000 146 119 121
0.175041 0.705166 2.857000 150 122 118
0.173632 0.704450 2.834000 154 121 122
0.172162 0.703404 2.810000 150 121 126
0.168057 0.691434 2.743000 146 120 124
0.168057 0.696235 2.743000 149 120 123
0.166770 0.695670 2.722000 153 121 131
0.165484 0.695031 2.701000 159 121 140
0.165484 0.699759 2.701000 165 123 136
0.162910 0.693532 2.659000 157 126 133
0.162910 0.698187 2.659000 149 125 134
0.158070 0.681960 2.580000 149 132 135
0.156845 0.681155 2.560000 150 128 137
0.154578 0.675726 2.523000 152 126 139
0.153475 0.675291 2.505000 155 126 138
0.152372 0.674792 2.487000 147 127 137
0.151269 0.674230 2.469000 140 127 145
0.150167 0.673605 2.451000 146 129 153
0.149125 0.673193 2.434000 153 129 149
0.149125 0.677454 2.434000 155 130 145
0.148084 0.676953 2.417000 157 132 144
0.147042 0.676393 2.400000 155 133 144
0.146062 0.676057 2.384000 153 131 141
0.142141 0.661969 2.320000 157 130 139
0.141160 0.661437 2.304000 161 131 142
0.140241 0.661138 2.289000 160 132 146
0.139322 0.660786 2.274000 160 131 144
0.139322 0.664767 2.274000 152 129 142
0.138403 0.664336 2.259000 145 131 142
0.138403 0.668290 2.259000 150 134 143
0.136627 0.663615 2.230000 156 134 145
0.133992 0.654647 2.187000 157 137 148
0.131541 0.646432 2.147000 158 139 150
0.130684 0.645950 2.133000 156 141 153
0.130684 0.649684 2.133000 155 143 152
0.129091 0.645453 2.107000 168 144 151
0.127559 0.641439 2.082000 181 138 151
0.126027 0.637338 2.057000 174 140 152
0.125292 0.637200 2.045000 167 140 153
0.125292 0.640779 2.045000 169 140 154
0.124557 0.640578 2.033000 172 141 154
0.124557 0.644137 2.033000 168 143 154
0.123822 0.643873 2.021000 165 143 157
0.123822 0.647410 2.021000 158 146 160
0.121677 0.639675 1.986000 151 147 157
0.121003 0.639589 1.975000 158 147 154
0.119594 0.635558 1.952000 165 144 155
0.118920 0.635374 1.941000 165 141 156
0.118308 0.635481 1.931000 166 141 157
0.118308 0.638861 1.931000 162 140 158
0.117634 0.638583 1.920000 159 146 159
0.116347 0.634922 1.899000 170 153 161
0.114448 0.627827 1.868000 181 146 161
0.113835 0.627719 1.858000 176 142 161
0.113835 0.630971 1.858000 172 144 159
0.112610 0.627397 1.838000 174 147 158
0.111446 0.624095 1.819000 177 145 163
0.111446 0.627280 1.819000 175 145 167
0.110833 0.626998 1.809000 174 146 166
0.110281 0.627029 1.800000 174 148 165
0.109117 0.623528 1.781000 174 146 165
0.108566 0.623479 1.772000 175 146 166
0.108015 0.623399 1.763000 177 143 160
0.106912 0.620089 1.745000 174 156 155
0.106360 0.619929 1.736000 171 156 161
0.105870 0.620097 1.728000 172 162 168
0.105319 0.619877 1.719000 174 156 169
0.104829 0.619987 1.711000 174 153 171
0.104277 0.619705 1.702000 174 154 172
0.103787 0.619758 1.694000 173 153 173
0.103297 0.619782 1.686000 173 152 172
0.102746 0.619409 1.677000 174 153 171
0.102746 0.622345 1.677000 176 149 171
0.100785 0.613349 1.645000 180 149 170
0.100356 0.613606 1.638000 185 154 170
0.099376 0.610452 1.622000 179 157 170
0.098457 0.607620 1.607000 173 153 169
0.097538 0.604735 1.592000 175 159 168
0.097538 0.607522 1.592000 178 158 170
0.097109 0.607625 1.585000 183 157 172
0.096680 0.607704 1.578000 188 158 175
0.096680 0.610466 1.578000 186 158 178
0.096251 0.610508 1.571000 184 160 180
0.095332 0.607403 1.556000 188 166 183
0.094903 0.607382 1.549000 192 160 181
0.094474 0.607336 1.542000 186 166 180
0.094107 0.607662 1.536000 181 161 179
0.093249 0.604787 1.522000 178 157 179
0.092453 0.602263 1.509000 176 159 178
0.092024 0.602099 1.502000 174 163 177
0.091656 0.602312 1.496000 173 156 176
0.091227 0.602100 1.489000 175 158 176
0.090860 0.602270 1.483000 177 156 179
0.090492 0.602419 1.477000 178 152 183
0.090063 0.602137 1.470000 180 152 179
0.089696 0.602242 1.464000 180 154 175
0.088960 0.599847 1.452000 180 154 173
0.088960 0.602389 1.452000 180 154 171
0.088593 0.602431 1.446000 180 157 176
0.088225 0.602452 1.440000 180 159 181
0.191134 0.711442 3.033000 136 116 110
0.191134 0.716751 3.033000 137 116 111
0.189432 0.715633 3.006000 139 118 115
0.189432 0.720895 3.006000 141 114 120
0.187794 0.719876 2.980000 143 111 121
0.187794 0.725092 2.980000 144 117 122
0.180042 0.700165 2.857000 145 122 121
0.178593 0.699489 2.834000 147 121 120
0.178593 0.704450 2.834000 149 120 123
0.175694 0.697896 2.788000 145 120 126
0.172858 0.691434 2.743000 141 118 123
0.172858 0.696235 2.743000 145 121 120
0.171535 0.695670 2.722000 149 123 132
0.170212 0.695031 2.701000 154 122 144
0.170212 0.699759 2.701000 158 121 139
0.170212 0.704487 2.701000 154 121 134
0.166305 0.692936 2.639000 150 112 134
0.161326 0.676673 2.560000 151 124 134
0.160192 0.676365 2.542000 152 127 135
0.158994 0.675726 2.523000 155 126 137
0.157860 0.675291 2.505000 157 126 135
0.156726 0.674792 2.487000 155 126 134
0.156726 0.679145 2.487000 154 127 146
0.155591 0.678552 2.469000 154 129 159
0.154457 0.677895 2.451000 155 131 152
0.153386 0.677454 2.434000 157 131 146
0.152315 0.676953 2.417000 158 134 144
0.151243 0.676393 2.400000 157 132 143
0.150235 0.676057 2.384000 155 131 138
0.145194 0.657404 2.304000 158 131 134
0.145194 0.661437 2.304000 162 132 139
0.144248 0.661138 2.289000 163 133 145
0.143303 0.660786 2.274000 164 133 144
0.143303 0.664767 2.274000 158 131 143
0.142358 0.664336 2.259000 152 133 148
0.141412 0.663853 2.244000 155 134 154
0.138703 0.654985 2.201000 158 136 152
0.137820 0.654647 2.187000 160 137 150
0.137001 0.654561 2.174000 161 143 152
0.134417 0.645950 2.133000 161 142 154
0.133598 0.645725 2.120000 161 142 154
0.132779 0.645453 2.107000 168 141 154
0.131204 0.641439 2.082000 176 142 159
0.130384 0.641056 2.069000 171 140 164
0.129628 0.640939 2.057000 167 138 158
0.128872 0.640779 2.045000 171 140 153
0.128116 0.640578 2.033000 176 142 153
0.128116 0.644137 2.033000 172 142 154
0.128116 0.647696 2.033000 168 144 159
0.126603 0.643566 2.009000 164 144 164
0.125154 0.639675 1.986000 159 147 161
0.124461 0.639589 1.975000 163 145 158
0.123011 0.635558 1.952000 167 143 157
0.121688 0.632100 1.931000 168 142 156
0.120995 0.631861 1.920000 170 143 157
0.120995 0.635222 1.920000 166 149 158
0.120301 0.634924 1.909000 162 153 157
0.118978 0.631244 1.888000 169 153 157
0.117718 0.627827 1.868000 176 152 158
0.117087 0.627719 1.858000 173 145 159
0.116457 0.627575 1.848000 170 144 155
0.115197 0.623983 1.828000 175 144 152
0.114630 0.624095 1.819000 179 143 160
0.114630 0.627280 1.819000 176 145 169
0.114000 0.626998 1.809000 173 150 166
0.113432 0.627029 1.800000 173 148 163
0.112802 0.626679 1.790000 173 140 165
0.112235 0.626646 1.781000 174 143 167
0.111101 0.623399 1.763000 175 139 158
0.109966 0.620089 1.745000 173 147 149
0.109399 0.619929 1.736000 171 153 158
0.108895 0.620097 1.728000 172 153 168
0.108895 0.623122 1.728000 174 148 165
0.107824 0.619987 1.711000 174 153 162
0.107824 0.622982 1.711000 174 156 167
0.106753 0.619758 1.694000 172 155 172
0.106248 0.619782 1.686000 171 154 170
0.105681 0.619409 1.677000 173 154 169
0.105177 0.619376 1.669000 175 157 168
0.103665 0.613349 1.645000 178 154 168
0.103224 0.613606 1.638000 181 156 170
0.102215 0.610452 1.622000 177 153 172
0.101270 0.607620 1.607000 173 142 175
0.100829 0.607774 1.600000 175 153 178
0.100325 0.607522 1.592000 178 159 177
0.099884 0.607625 1.585000 181 158 176
0.099442 0.607704 1.578000 184 158 176
0.099442 0.610466 1.578000 182 157 177
0.099001 0.610508 1.571000 180 158 178
0.098056 0.607403 1.556000 180 158 179
0.097615 0.607382 1.549000 181 153 180
0.097174 0.607336 1.542000 180 156 181
0.096355 0.604892 1.529000 179 156 180
0.095913 0.604787 1.522000 176 157 180
0.095094 0.602263 1.509000 174 157 180
0.094653 0.602099 1.502000 175 156 181
0.094653 0.604728 1.502000 175 151 180
0.094275 0.604931 1.496000 176 153 179
0.093834 0.604707 1.489000 178 156 185
0.093078 0.602419 1.477000 179 154 191
0.093078 0.605004 1.477000 181 149 184
0.092636 0.604710 1.470000 181 152 177
0.091880 0.602326 1.458000 181 154 173
0.091502 0.602389 1.452000 180 154 169
0.091124 0.602431 1.446000 180 156 174
0.090368 0.599942 1.434000 180 157 179
0.196443 0.711442 3.033000 135 114 114
0.194694 0.710371 3.006000 138 116 114
0.194694 0.715633 3.006000 141 115 119
0.193010 0.714659 2.980000 142 114 124
0.193010 0.719876 2.980000 143 114 123
0.189772 0.712926 2.930000 143 118 122
0.185044 0.700165 2.857000 144 120 120
0.183554 0.699489 2.834000 144 121 118
0.181999 0.698485 2.810000 144 120 122
0.180575 0.697896 2.788000 140 121 127
0.177660 0.691434 2.743000 136 121 124
0.177660 0.696235 2.743000 141 124 122
0.176300 0.695670 2.722000 146 124 129
0.176300 0.700435 2.722000 149 124 136
0.174940 0.699759 2.701000 152 123 135
0.174940 0.704487 2.701000 152 125 134
0.170924 0.692936 2.639000 152 123 134
0.165807 0.676673 2.560000 153 125 134
0.164641 0.676365 2.542000 155 125 138
0.162245 0.670905 2.505000 157 125 142
0.162245 0.675291 2.505000 160 126 140
0.161079 0.674792 2.487000 164 126 138
0.159913 0.674230 2.469000 168 127 146
0.158748 0.673605 2.451000 163 129 154
0.157646 0.673193 2.434000 158 130 151
0.157646 0.677454 2.434000 159 132 147
0.156545 0.676953 2.417000 160 133 147
0.155444 0.676393 2.400000 159 133 146
0.155444 0.680595 2.400000 158 132 142
0.150263 0.661969 2.320000 160 134 138
0.149227 0.661437 2.304000 163 134 141
0.147284 0.656805 2.274000 165 137 144
0.147284 0.660786 2.274000 168 134 142
0.145340 0.655997 2.244000 163 132 140
0.145340 0.659925 2.244000 159 133 144
0.144434 0.659711 2.230000 160 133 149
0.142555 0.654985 2.201000 161 134 150
0.141649 0.654647 2.187000 163 135 151
0.140807 0.654561 2.174000 165 138 155
0.138151 0.645950 2.133000 166 145 159
0.137309 0.645725 2.120000 167 142 155
0.136467 0.645453 2.107000 169 138 152
0.134848 0.641439 2.082000 171 140 155
0.134006 0.641056 2.069000 169 140 158
0.133229 0.640939 2.057000 167 140 154
