ply
format ascii 1.0
element vertex 1330
property float x
property float y
property float z
property uchar red
property uchar green
property uchar blue
end_header
1.557410 -0.018916 3.602000 83 36 6
1.557410 -0.012611 3.602000 85 35 10
1.557410 -0.006305 3.602000 89 36 15
1.557410 -0.000000 3.602000 93 32 11
1.557410 0.006305 3.602000 87 34 7
1.557410 0.012611 3.602000 82 37 10
1.557410 0.018916 3.602000 85 39 13
1.557410 0.025221 3.602000 89 36 12
1.557410 0.031527 3.602000 85 30 11
1.557410 0.037832 3.602000 81 33 10
1.557410 0.044137 3.602000 89 39 9
1.557410 0.050443 3.602000 98 38 14
1.557410 0.056748 3.602000 90 39 19
1.557410 0.063053 3.602000 82 42 13
1.557410 0.069358 3.602000 81 46 7
1.541412 0.074887 3.565000 81 42 6
1.541412 0.081127 3.565000 87 42 5
1.541412 0.087368 3.565000 93 41 6
1.541412 0.093608 3.565000 89 39 7
1.541412 0.099849 3.565000 85 38 6
1.541412 0.106089 3.565000 91 39 6
1.541412 0.112330 3.565000 97 40 18
1.557410 0.119801 3.602000 89 41 30
1.557410 0.126106 3.602000 82 41 20
1.541412 0.131051 3.565000 85 39 11
1.541412 0.137292 3.565000 88 35 16
1.541412 0.143532 3.565000 83 41 21
1.541412 0.149773 3.565000 79 38 15
1.541412 0.156013 3.565000 86 34 9
1.541412 0.162254 3.565000 94 35 6
1.541412 0.168494 3.565000 88 38 4
1.541412 0.174735 3.565000 83 39 7
1.541412 0.180976 3.565000 80 41 9
1.541412 0.187216 3.565000 78 41 11
1.557410 0.195464 3.602000 80 41 12
1.557410 0.201770 3.602000 82 32 20
1.541412 0.205938 3.565000 87 26 27
1.557410 0.214380 3.602000 92 33 16
1.557410 0.220686 3.602000 84 42 5
1.541412 0.224659 3.565000 77 44 5
1.541412 0.230900 3.565000 77 47 6
1.541412 0.237140 3.565000 77 45 7
1.541412 0.243381 3.565000 78 45 8
1.541412 0.249621 3.565000 80 44 12
1.541412 0.255862 3.565000 79 44 16
1.541412 0.262102 3.565000 79 42 13
1.541412 0.268343 3.565000 84 40 10
1.541412 0.274584 3.565000 89 38 9
1.541412 0.280824 3.565000 82 36 8
1.541412 0.287065 3.565000 76 38 11
1.541412 0.293305 3.565000 77 41 14
1.541412 0.299546 3.565000 79 40 9
1.525414 0.302613 3.528000 78 44 4
1.541412 0.312027 3.565000 77 42 10
1.541412 0.318267 3.565000 80 44 16
1.541412 0.324508 3.565000 83 41 12
1.557410 0.334181 3.602000 80 32 9
1.541412 0.336989 3.565000 78 34 11
1.541412 0.343229 3.565000 78 39 13
1.541412 0.349470 3.565000 78 40 13
1.541412 0.355710 3.565000 79 42 14
1.541412 0.361951 3.565000 80 36 13
1.541412 0.368192 3.565000 80 29 13
1.541412 0.374432 3.565000 80 32 15
1.541412 0.380673 3.565000 78 35 17
1.541412 0.386913 3.565000 76 37 11
1.541412 0.393154 3.565000 76 41 6
1.541412 0.399394 3.565000 77 40 9
1.541412 0.405635 3.565000 78 45 12
1.541412 0.411875 3.565000 79 40 13
1.541412 0.418116 3.565000 78 34 14
1.541412 0.424356 3.565000 77 34 12
1.541412 0.430597 3.565000 77 44 10
1.541412 0.436837 3.565000 77 44 12
1.541412 0.443078 3.565000 78 46 15
1.541412 0.449318 3.565000 79 43 14
1.541412 0.455559 3.565000 83 42 13
1.541412 0.461800 3.565000 87 38 13
1.541412 0.468040 3.565000 84 34 13
1.541412 0.474281 3.565000 82 38 11
1.541412 0.480521 3.565000 80 41 10
1.541412 0.486762 3.565000 78 41 7
1.541412 0.493002 3.565000 81 42 4
1.541412 0.499243 3.565000 85 39 6
1.541412 0.505483 3.565000 86 37 9
1.541412 0.511724 3.565000 87 39 14
1.541412 0.517964 3.565000 83 39 19
1.541412 0.524205 3.565000 80 39 13
1.541412 0.530445 3.565000 79 42 7
1.541412 0.536686 3.565000 79 38 12
1.541412 0.542926 3.565000 77 38 16
1.525414 0.543467 3.528000 76 36 18
1.525414 0.549643 3.528000 75 32 19
1.525414 0.555819 3.528000 74 39 14
1.525414 0.561995 3.528000 63 44 10
1.525414 0.568170 3.528000 53 40 7
1.525414 0.574346 3.528000 63 39 4
1.525414 0.580522 3.528000 74 42 6
1.541412 0.592851 3.565000 65 45 9
1.541412 0.599091 3.565000 56 45 13
1.541412 0.605332 3.565000 63 47 18
1.525414 0.605225 3.528000 70 39 13
1.525414 0.611401 3.528000 74 24 8
1.525414 0.617577 3.528000 78 28 9
1.525414 0.623752 3.528000 73 30 11
1.525414 0.629928 3.528000 68 33 14
1.510281 0.629793 3.493000 68 32 18
1.525414 0.642280 3.528000 69 38 14
1.525414 0.648455 3.528000 56 41 11
1.525414 0.654631 3.528000 44 14 9
1.525414 0.660807 3.528000 30 2 7
1.525414 0.666983 3.528000 17 3 7
1.541412 0.680218 3.565000 13 3 8
1.541412 0.686459 3.565000 10 3 6
1.557410 0.699889 3.602000 7 3 5
1.557410 0.706194 3.602000 5 6 7
1.557410 0.712499 3.602000 6 7 10
1.525414 0.771971 3.528000 3 3 2
1.256045 0.742440 2.905000 90 49 51
1.245668 0.741349 2.881000 83 50 54
1.245668 0.746392 2.881000 76 53 52
1.235291 0.745176 2.857000 75 52 50
1.090878 0.706642 2.523000 80 56 54
1.083096 0.705986 2.505000 87 57 55
1.075313 0.705266 2.487000 95 57 57
1.052397 0.694497 2.434000 90 58 59
1.045047 0.693877 2.417000 85 58 62
1.037696 0.693198 2.400000 81 57 65
1.023428 0.687810 2.367000 78 55 65
1.023428 0.691954 2.367000 78 51 66
1.016510 0.691392 2.351000 79 57 65
1.009592 0.690774 2.335000 81 58 64
1.003107 0.690397 2.320000 84 58 61
0.996189 0.689669 2.304000 87 59 58
0.989703 0.689186 2.289000 90 56 59
0.983217 0.688650 2.274000 87 60 60
0.970246 0.683493 2.244000 85 60 69
0.964193 0.683133 2.230000 87 58 78
0.957707 0.682415 2.215000 89 57 75
0.945601 0.677617 2.187000 95 54 73
0.939980 0.677395 2.174000 101 58 69
0.928306 0.672740 2.147000 92 64 65
0.922253 0.672087 2.133000 83 66 69
0.922253 0.675821 2.133000 82 69 73
0.916632 0.675413 2.120000 82 69 75
0.905823 0.671116 2.095000 83 65 77
0.894581 0.666408 2.069000 85 67 80
0.884204 0.662258 2.045000 86 70 84
0.879015 0.661931 2.033000 88 71 77
0.873827 0.661561 2.021000 91 68 71
0.873827 0.665099 2.021000 95 68 74
0.868638 0.664667 2.009000 97 68 78
0.868638 0.668183 2.009000 100 67 77
0.858694 0.664010 1.986000 94 70 76
0.849182 0.660093 1.964000 88 75 77
0.843993 0.659477 1.952000 91 77 78
0.834913 0.655762 1.931000 94 75 79
0.830157 0.655387 1.920000 94 73 80
0.830157 0.658748 1.920000 95 72 82
0.821077 0.654867 1.899000 93 71 84
0.821077 0.658192 1.899000 91 72 86
0.816321 0.657684 1.888000 94 74 88
0.807674 0.653987 1.868000 97 78 83
0.799026 0.650220 1.848000 102 78 78
0.790379 0.646383 1.828000 108 79 82
0.786487 0.646384 1.819000 102 79 87
0.782164 0.645998 1.809000 96 80 85
0.782164 0.649164 1.809000 96 84 83
0.773949 0.645480 1.790000 97 85 82
0.770057 0.645352 1.781000 97 88 81
0.766166 0.645192 1.772000 97 83 86
0.762275 0.645002 1.763000 96 80 90
0.758383 0.644779 1.754000 95 80 88
0.747141 0.638246 1.728000 88 81 86
0.743250 0.637931 1.719000 82 83 86
0.739791 0.637958 1.711000 96 84 86
0.735900 0.637581 1.702000 111 86 87
0.735900 0.640561 1.702000 105 88 89
0.732441 0.640515 1.694000 99 89 90
0.728982 0.640442 1.686000 98 90 92
0.721631 0.636906 1.669000 97 86 95
0.718172 0.636760 1.661000 103 82 97
0.714713 0.636587 1.653000 109 84 100
0.708228 0.633678 1.638000 102 87 104
0.701310 0.630327 1.622000 96 86 102
0.701310 0.633166 1.622000 98 84 101
0.698283 0.633261 1.615000 101 84 106
0.694824 0.632937 1.607000 103 85 111
0.691798 0.632981 1.600000 105 83 105
0.685312 0.629821 1.585000 96 81 99
0.682285 0.629802 1.578000 87 82 96
0.679259 0.629758 1.571000 98 84 93
0.675800 0.629287 1.563000 110 85 95
0.669747 0.626362 1.549000 105 84 98
0.669747 0.629074 1.549000 100 85 97
0.666720 0.628930 1.542000 99 99 97
0.661099 0.626305 1.529000 98 93 101
0.658073 0.626101 1.522000 93 86 106
0.658073 0.628766 1.522000 88 83 105
0.652452 0.626037 1.509000 94 85 104
0.649425 0.625762 1.502000 100 88 99
0.641210 0.620442 1.483000 100 91 95
1.531590 -1.259856 3.528000 48 33 4
1.531590 -1.253680 3.528000 53 29 7
1.531590 -1.247504 3.528000 58 28 8
1.531590 -1.241329 3.528000 60 25 9
1.531590 -1.235153 3.528000 63 24 5
1.531590 -1.228977 3.528000 62 27 1
1.531590 -1.222801 3.528000 61 25 1
1.547652 -1.229385 3.565000 60 23 1
1.547652 -1.223144 3.565000 60 22 2
1.531590 -1.204274 3.528000 60 29 3
1.531590 -1.198098 3.528000 61 32 2
1.531590 -1.191923 3.528000 64 31 1
1.531590 -1.185747 3.528000 68 29 1
1.531590 -1.179571 3.528000 66 27 2
1.531590 -1.173395 3.528000 63 28 2
1.531590 -1.167220 3.528000 63 30 3
1.531590 -1.161044 3.528000 63 29 5
1.531590 -1.154868 3.528000 53 27 7
1.563715 -1.172786 3.602000 44 24 16
1.563715 -1.166481 3.602000 56 26 26
1.563715 -1.160175 3.602000 68 28 18
1.563715 -1.153870 3.602000 62 23 10
1.563715 -1.147565 3.602000 56 24 9
1.547652 -1.129536 3.565000 60 27 8
1.531590 -1.111638 3.528000 65 28 20
1.531590 -1.105462 3.528000 61 29 33
1.531590 -1.099286 3.528000 57 30 21
1.547652 -1.104574 3.565000 61 30 9
1.547652 -1.098334 3.565000 66 30 7
1.531590 -1.080759 3.528000 70 28 5
1.547652 -1.085853 3.565000 75 31 3
1.547652 -1.079612 3.565000 66 34 1
1.563715 -1.084512 3.602000 57 33 2
1.563715 -1.078207 3.602000 60 30 4
1.563715 -1.071901 3.602000 63 27 4
1.563715 -1.065596 3.602000 65 25 5
1.563715 -1.059291 3.602000 67 23 4
1.563715 -1.052985 3.602000 71 29 3
1.580211 -1.057722 3.640000 75 32 2
1.563715 -1.040375 3.602000 73 31 1
1.563715 -1.034069 3.602000 72 30 6
1.563715 -1.027764 3.602000 69 32 12
1.563715 -1.021459 3.602000 67 31 6
1.563715 -1.015154 3.602000 73 25 1
1.563715 -1.008848 3.602000 79 23 2
1.563715 -1.002543 3.602000 71 23 4
1.563715 -0.996238 3.602000 63 23 3
1.563715 -0.989932 3.602000 66 26 3
1.547652 -0.973523 3.565000 69 26 3
1.563715 -0.977322 3.602000 74 26 3
1.547652 -0.961042 3.565000 78 26 2
1.547652 -0.954801 3.565000 75 26 2
1.547652 -0.948561 3.565000 73 24 2
1.547652 -0.942320 3.565000 67 30 3
1.547652 -0.936080 3.565000 62 38 3
1.547652 -0.929839 3.565000 69 28 4
1.547652 -0.923599 3.565000 77 22 4
1.547652 -0.917358 3.565000 72 31 4
1.563715 -0.920574 3.602000 68 37 5
1.563715 -0.914269 3.602000 68 34 7
1.563715 -0.907963 3.602000 68 32 4
1.580211 -0.911170 3.640000 73 34 2
1.563715 -0.895353 3.602000 78 32 2
1.563715 -0.889047 3.602000 74 29 2
1.563715 -0.882742 3.602000 69 30 1
1.563715 -0.876437 3.602000 72 33 1
1.563715 -0.870132 3.602000 75 30 5
1.580211 -0.872939 3.640000 78 25 9
1.563715 -0.857521 3.602000 80 24 6
1.580211 -0.860196 3.640000 77 27 4
1.580211 -0.853824 3.640000 75 24 6
1.580211 -0.847452 3.640000 74 31 9
1.580211 -0.841080 3.640000 73 33 8
1.563715 -0.825995 3.602000 72 29 7
1.563715 -0.819689 3.602000 72 30 8
1.563715 -0.813384 3.602000 73 31 9
1.563715 -0.807079 3.602000 75 28 10
1.563715 -0.800773 3.602000 76 26 12
1.563715 -0.794468 3.602000 78 26 10
1.563715 -0.788163 3.602000 80 25 9
1.563715 -0.781857 3.602000 83 24 6
1.563715 -0.775552 3.602000 83 26 3
1.563715 -0.769247 3.602000 83 26 3
1.580211 -0.770990 3.640000 83 35 4
1.580211 -0.764618 3.640000 84 38 6
1.580211 -0.758247 3.640000 82 33 9
1.580211 -0.751875 3.640000 80 28 9
1.580211 -0.745503 3.640000 81 25 10
1.580211 -0.739131 3.640000 81 27 9
1.563715 -0.725110 3.602000 77 36 9
1.563715 -0.718804 3.602000 73 42 9
1.547652 -0.705180 3.565000 74 37 10
1.547652 -0.698940 3.565000 74 31 21
1.547652 -0.692699 3.565000 75 34 33
1.547652 -0.686459 3.565000 76 39 20
1.563715 -0.687278 3.602000 80 35 7
1.563715 -0.680973 3.602000 85 31 8
1.563715 -0.674667 3.602000 82 31 9
1.580211 -0.675413 3.640000 80 30 16
1.580211 -0.669041 3.640000 78 31 24
1.563715 -0.655751 3.602000 76 31 16
1.580211 -0.656297 3.640000 71 33 9
1.563715 -0.643141 3.602000 66 34 12
1.563715 -0.636835 3.602000 69 36 16
1.563715 -0.630530 3.602000 71 34 8
1.563715 -0.624225 3.602000 69 36 1
1.563715 -0.617920 3.602000 66 40 13
1.563715 -0.611614 3.602000 73 38 25
1.563715 -0.605309 3.602000 79 34 16
1.563715 -0.599004 3.602000 81 33 7
1.580211 -0.598951 3.640000 84 28 9
1.580211 -0.592579 3.640000 84 24 12
1.580211 -0.586207 3.640000 84 24 10
1.580211 -0.579836 3.640000 83 29 9
1.580211 -0.573464 3.640000 82 30 11
1.580211 -0.567092 3.640000 81 33 14
1.563715 -0.554866 3.602000 80 39 11
1.563715 -0.548561 3.602000 81 34 9
1.563715 -0.542256 3.602000 82 23 5
1.580211 -0.541605 3.640000 85 30 2
1.580211 -0.535233 3.640000 89 36 4
1.580211 -0.528861 3.640000 79 37 6
1.580211 -0.522489 3.640000 70 41 5
1.580211 -0.516117 3.640000 76 43 4
1.563715 -0.504424 3.602000 82 45 4
1.580211 -0.503374 3.640000 85 40 4
1.580211 -0.497002 3.640000 88 33 7
1.580211 -0.490630 3.640000 84 35 11
1.580211 -0.484258 3.640000 79 34 11
1.580211 -0.477886 3.640000 78 40 12
1.580211 -0.471515 3.640000 78 41 13
1.580211 -0.465143 3.640000 79 41 15
1.580211 -0.458771 3.640000 80 39 12
1.563715 -0.447676 3.602000 82 39 9
1.563715 -0.441371 3.602000 85 39 12
1.563715 -0.435066 3.602000 83 38 15
1.563715 -0.428760 3.602000 81 37 9
1.547652 -0.418116 3.565000 76 36 3
1.563715 -0.416150 3.602000 71 42 4
1.563715 -0.409845 3.602000 75 37 5
1.580211 -0.407796 3.640000 80 31 11
1.580211 -0.401425 3.640000 83 30 17
1.580211 -0.395053 3.640000 87 30 15
1.580211 -0.388681 3.640000 84 35 13
1.563715 -0.378318 3.602000 82 34 7
1.563715 -0.372013 3.602000 83 38 1
1.563715 -0.365707 3.602000 83 41 2
1.563715 -0.359402 3.602000 82 38 3
1.563715 -0.353097 3.602000 81 36 6
1.547652 -0.343229 3.565000 79 35 9
1.547652 -0.336989 3.565000 78 40 6
1.547652 -0.330748 3.565000 78 42 3
1.547652 -0.324508 3.565000 78 41 5
1.547652 -0.318267 3.565000 76 38 7
1.563715 -0.315265 3.602000 74 34 16
1.547652 -0.305786 3.565000 76 38 26
1.547652 -0.299545 3.565000 78 39 17
1.547652 -0.293305 3.565000 78 39 9
1.547652 -0.287064 3.565000 78 41 10
1.547652 -0.280824 3.565000 80 40 11
1.547652 -0.274583 3.565000 81 38 14
1.563715 -0.271128 3.602000 83 40 17
1.547652 -0.262102 3.565000 85 42 33
1.563715 -0.258517 3.602000 83 39 50
1.563715 -0.252212 3.602000 81 32 33
1.563715 -0.245907 3.602000 87 34 17
1.580211 -0.242129 3.640000 93 33 16
1.580211 -0.235757 3.640000 88 33 15
1.580211 -0.229385 3.640000 82 34 11
1.580211 -0.223014 3.640000 80 38 8
1.580211 -0.216642 3.640000 77 39 11
1.580211 -0.210270 3.640000 80 37 14
1.580211 -0.203898 3.640000 83 39 22
1.563715 -0.195464 3.602000 82 37 31
1.563715 -0.189159 3.602000 80 38 17
1.563715 -0.182854 3.602000 79 42 3
1.563715 -0.176548 3.602000 79 45 3
1.563715 -0.170243 3.602000 79 41 4
1.563715 -0.163938 3.602000 79 39 3
1.547652 -0.156013 3.565000 82 36 2
1.547652 -0.149773 3.565000 85 36 4
1.547652 -0.143532 3.565000 82 32 7
1.547652 -0.137292 3.565000 79 35 11
1.547652 -0.131051 3.565000 81 34 15
1.531590 -0.123515 3.528000 83 31 9
1.531590 -0.117339 3.528000 80 36 4
1.547652 -0.112329 3.565000 78 40 2
1.547652 -0.106089 3.565000 73 42 1
1.547652 -0.099848 3.565000 69 45 1
1.547652 -0.093608 3.565000 77 41 2
1.547652 -0.087367 3.565000 85 39 7
1.547652 -0.081127 3.565000 81 37 12
1.547652 -0.074886 3.565000 77 36 17
1.547652 -0.068646 3.565000 74 37 22
1.547652 -0.062405 3.565000 70 39 14
1.547652 -0.056165 3.565000 75 39 7
1.547652 -0.049924 3.565000 80 39 6
1.531590 -0.043230 3.528000 78 37 5
1.531590 -0.037055 3.528000 76 36 4
1.547652 -0.031203 3.565000 80 33 3
1.547652 -0.024962 3.565000 85 33 5
1.547652 -0.018721 3.565000 84 32 7
1.547652 -0.012481 3.565000 83 30 10
1.547652 -0.006240 3.565000 85 30 13
1.563715 -0.000000 3.602000 87 28 8
1.563715 0.006305 3.602000 83 34 3
1.563715 0.012611 3.602000 79 39 2
1.563715 0.018916 3.602000 76 39 1
1.563715 0.025221 3.602000 73 38 7
1.563715 0.031527 3.602000 76 30 13
1.563715 0.037832 3.602000 79 25 11
1.547652 0.043684 3.565000 84 34 9
1.547652 0.049924 3.565000 89 42 6
1.547652 0.056165 3.565000 85 42 3
1.563715 0.063053 3.602000 80 46 2
1.547652 0.068646 3.565000 79 44 2
1.547652 0.074887 3.565000 77 41 3
1.547652 0.081127 3.565000 76 42 5
1.547652 0.087368 3.565000 75 45 4
1.547652 0.093608 3.565000 79 40 4
1.547652 0.099849 3.565000 83 38 2
1.547652 0.106089 3.565000 86 39 1
1.531590 0.111164 3.528000 89 42 24
1.547652 0.118570 3.565000 85 42 47
1.547652 0.124811 3.565000 80 45 29
1.531590 0.129691 3.528000 82 38 12
1.531590 0.135867 3.528000 85 30 14
1.531590 0.142043 3.528000 81 35 17
1.531590 0.148218 3.528000 78 39 12
1.547652 0.156013 3.565000 83 34 7
1.547652 0.162254 3.565000 88 31 6
1.531590 0.166746 3.528000 85 33 6
1.531590 0.172921 3.528000 82 34 7
1.531590 0.179097 3.528000 80 38 8
1.547652 0.187216 3.565000 79 41 9
1.547652 0.193457 3.565000 81 35 11
1.547652 0.199697 3.565000 83 25 13
1.547652 0.205938 3.565000 86 26 16
1.547652 0.212178 3.565000 89 30 10
1.547652 0.218419 3.565000 83 36 4
1.547652 0.224659 3.565000 78 43 3
1.547652 0.230900 3.565000 78 45 3
1.547652 0.237140 3.565000 78 46 3
1.547652 0.243381 3.565000 80 45 3
1.547652 0.249621 3.565000 83 47 4
1.547652 0.255862 3.565000 81 46 5
1.547652 0.262102 3.565000 79 45 6
1.531590 0.265558 3.528000 81 41 7
1.531590 0.271734 3.528000 84 40 8
1.531590 0.277910 3.528000 80 41 10
1.531590 0.284085 3.528000 77 43 13
1.531590 0.290261 3.528000 81 39 17
1.531590 0.296437 3.528000 85 37 12
1.531590 0.302613 3.528000 82 40 8
1.531590 0.308788 3.528000 79 41 14
1.531590 0.314964 3.528000 80 40 20
1.531590 0.321140 3.528000 81 46 13
1.547652 0.330748 3.565000 81 37 6
1.531590 0.333491 3.528000 81 34 7
1.531590 0.339667 3.528000 83 38 9
1.531590 0.345843 3.528000 85 40 8
1.547652 0.355710 3.565000 83 40 7
1.531590 0.358194 3.528000 81 39 9
1.531590 0.364370 3.528000 80 34 12
1.531590 0.370546 3.528000 78 34 16
1.531590 0.376722 3.528000 74 36 21
1.531590 0.382898 3.528000 71 40 11
1.531590 0.389073 3.528000 74 39 2
1.531590 0.395249 3.528000 77 41 4
1.531590 0.401425 3.528000 79 42 7
1.531590 0.407601 3.528000 80 42 9
1.547652 0.418116 3.565000 82 35 12
1.547652 0.424356 3.565000 85 31 10
1.547652 0.430597 3.565000 81 40 8
1.547652 0.436837 3.565000 78 44 10
1.547652 0.443078 3.565000 79 42 12
1.547652 0.449318 3.565000 81 41 12
1.547652 0.455559 3.565000 83 40 12
1.547652 0.461800 3.565000 86 39 10
1.547652 0.468040 3.565000 83 35 9
1.547652 0.474281 3.565000 80 39 9
1.547652 0.480521 3.565000 79 40 10
1.547652 0.486762 3.565000 78 43 6
1.547652 0.493002 3.565000 78 40 2
1.547652 0.499243 3.565000 79 39 5
1.547652 0.505483 3.565000 81 39 9
1.547652 0.511724 3.565000 83 40 11
1.531590 0.512589 3.528000 81 37 14
1.531590 0.518764 3.528000 80 39 8
1.531590 0.524940 3.528000 79 40 3
1.531590 0.531116 3.528000 79 39 7
1.531590 0.537292 3.528000 78 36 12
1.531590 0.543467 3.528000 77 32 15
1.531590 0.549643 3.528000 77 37 18
1.531590 0.555819 3.528000 76 42 12
1.531590 0.561995 3.528000 71 40 7
1.531590 0.568170 3.528000 66 35 4
1.531590 0.574346 3.528000 71 38 2
1.531590 0.580522 3.528000 77 38 6
1.547652 0.592851 3.565000 72 40 11
1.547652 0.599091 3.565000 67 41 21
1.547652 0.605332 3.565000 71 43 31
1.531590 0.605225 3.528000 75 44 21
1.531590 0.611401 3.528000 79 31 12
1.531590 0.617577 3.528000 83 26 11
1.531590 0.623752 3.528000 78 31 11
1.531590 0.629928 3.528000 73 35 19
1.531590 0.636104 3.528000 71 34 28
1.531590 0.642280 3.528000 69 38 21
1.531590 0.648455 3.528000 56 32 14
1.531590 0.654631 3.528000 44 12 11
1.531590 0.660807 3.528000 30 5 9
1.531590 0.666983 3.528000 17 3 6
1.531590 0.673158 3.528000 12 2 3
1.547652 0.686459 3.565000 8 3 3
1.547652 0.692699 3.565000 6 2 4
1.547652 0.698940 3.565000 4 3 8
1.547652 0.705180 3.565000 5 4 13
1.531590 0.771971 3.528000 3 2 1
1.250711 0.736306 2.881000 82 49 48
1.250711 0.741349 2.881000 78 52 50
1.250711 0.746392 2.881000 75 54 49
1.095295 0.706642 2.523000 72 59 54
1.087481 0.705986 2.505000 79 57 55
1.079666 0.705266 2.487000 86 56 53
1.071852 0.704484 2.469000 84 57 52
1.056658 0.698758 2.434000 82 59 46
1.041898 0.693198 2.400000 76 58 40
1.027571 0.687810 2.367000 71 59 51
1.027571 0.691954 2.367000 74 57 62
1.020626 0.691392 2.351000 78 59 61
1.013680 0.690774 2.335000 81 58 60
1.000222 0.685636 2.304000 84 56 53
1.000222 0.689669 2.304000 85 54 46
0.993710 0.689186 2.289000 86 51 54
0.987198 0.688650 2.274000 84 58 62
0.974174 0.683493 2.244000 83 58 72
0.968096 0.683133 2.230000 84 59 82
0.961585 0.682415 2.215000 86 60 75
0.949429 0.677617 2.187000 88 57 68
0.943786 0.677395 2.174000 91 61 61
0.932064 0.672740 2.147000 86 63 54
0.925987 0.672087 2.133000 81 68 62
0.920343 0.671702 2.120000 81 67 71
0.920343 0.675413 2.120000 82 69 73
0.909490 0.671116 2.095000 83 67 76
0.898203 0.666408 2.069000 84 66 78
0.887784 0.662258 2.045000 86 68 81
0.882574 0.661931 2.033000 88 72 80
0.882574 0.665489 2.033000 89 68 80
0.877365 0.665099 2.021000 91 68 79
0.872155 0.664667 2.009000 91 69 78
0.872155 0.668183 2.009000 91 68 74
0.862170 0.664010 1.986000 88 70 71
0.852620 0.660093 1.964000 86 74 75
0.847410 0.659477 1.952000 88 75 79
0.838293 0.655762 1.931000 91 73 80
0.833518 0.655387 1.920000 91 71 81
0.828743 0.654974 1.909000 92 72 80
0.824401 0.654867 1.899000 91 70 79
0.819626 0.654379 1.888000 90 69 83
0.815285 0.654201 1.878000 91 74 87
0.810944 0.653987 1.868000 92 79 80
0.802261 0.650220 1.848000 96 78 73
0.793579 0.646383 1.828000 100 78 80
0.789672 0.646384 1.819000 96 77 88
0.785330 0.645998 1.809000 93 76 85
0.785330 0.649164 1.809000 93 81 83
0.777082 0.645480 1.790000 94 84 80
0.773175 0.645352 1.781000 98 84 78
0.769268 0.645192 1.772000 102 84 84
0.765361 0.645002 1.763000 98 79 90
0.761454 0.644779 1.754000 95 79 88
0.753639 0.641201 1.736000 91 80 87
0.746259 0.637931 1.719000 88 80 86
0.742786 0.637958 1.711000 96 82 86
0.738879 0.637581 1.702000 105 85 86
0.738879 0.640561 1.702000 102 87 87
0.735406 0.640515 1.694000 99 90 91
0.731933 0.640442 1.686000 97 88 95
0.728026 0.639958 1.677000 95 86 96
0.724553 0.639827 1.669000 98 84 98
0.714134 0.633506 1.645000 100 82 97
0.711095 0.633678 1.638000 91 86 96
0.707622 0.633436 1.630000 81 89 99
0.704149 0.633166 1.622000 90 84 102
0.701110 0.633261 1.615000 98 79 111
0.697637 0.632937 1.607000 100 83 120
0.694598 0.632981 1.600000 103 84 110
0.688087 0.629821 1.585000 97 83 100
0.685048 0.629802 1.578000 92 82 95
0.685048 0.632564 1.578000 97 84 90
0.682009 0.632508 1.571000 101 85 92
0.675497 0.629193 1.556000 99 82 95
0.672458 0.629074 1.549000 96 78 96
0.669419 0.628930 1.542000 98 92 97
0.663776 0.626305 1.529000 100 96 98
0.660737 0.626101 1.522000 98 88 100
0.655093 0.623395 1.509000 96 79 101
0.652054 0.623133 1.502000 98 83 103
0.649450 0.623262 1.496000 101 85 96
0.643806 0.620442 1.483000 101 87 89
1.522510 -1.247357 3.493000 54 31 5
1.522510 -1.241243 3.493000 56 28 8
1.522510 -1.235128 3.493000 59 28 14
1.537765 -1.241329 3.528000 63 27 20
1.537765 -1.235153 3.528000 68 25 10
1.537765 -1.228977 3.528000 65 22 1
1.537765 -1.222801 3.528000 62 25 1
1.537765 -1.216626 3.528000 60 23 1
1.537765 -1.210450 3.528000 59 27 1
1.537765 -1.204274 3.528000 60 34 2
1.537765 -1.198098 3.528000 62 32 1
1.522510 -1.180098 3.493000 63 32 1
1.522510 -1.173983 3.493000 64 28 1
1.537765 -1.179571 3.528000 63 26 2
1.537765 -1.173395 3.528000 63 28 7
1.522510 -1.155640 3.493000 63 27 12
1.537765 -1.161044 3.528000 64 27 9
1.537765 -1.154868 3.528000 61 27 7
1.553893 -1.160739 3.565000 58 28 11
1.537765 -1.142516 3.528000 59 28 14
1.537765 -1.136341 3.528000 61 27 10
1.537765 -1.130165 3.528000 61 22 5
1.537765 -1.123989 3.528000 62 24 5
1.537765 -1.117813 3.528000 65 27 4
1.537765 -1.111638 3.528000 68 28 10
1.537765 -1.105462 3.528000 59 30 17
1.537765 -1.099286 3.528000 51 30 11
1.537765 -1.093110 3.528000 57 33 6
1.537765 -1.086935 3.528000 63 28 4
1.537765 -1.080759 3.528000 66 21 3
1.537765 -1.074583 3.528000 69 28 4
1.553893 -1.079612 3.565000 61 35 5
1.553893 -1.073372 3.565000 54 33 7
1.570020 -1.078207 3.602000 57 33 9
1.570020 -1.071901 3.602000 61 27 8
1.570020 -1.065596 3.602000 63 22 7
1.570020 -1.059291 3.602000 65 26 7
1.570020 -1.052985 3.602000 69 32 6
1.570020 -1.046680 3.602000 73 33 4
1.570020 -1.040375 3.602000 73 38 2
1.553893 -1.023447 3.565000 73 31 6
1.570020 -1.027764 3.602000 74 28 10
1.553893 -1.010966 3.565000 75 27 7
1.553893 -1.004726 3.565000 81 23 5
1.553893 -0.998485 3.565000 87 23 6
1.553893 -0.992245 3.565000 78 22 8
1.553893 -0.986004 3.565000 69 24 6
1.553893 -0.979764 3.565000 68 26 4
1.553893 -0.973523 3.565000 68 25 5
1.553893 -0.967283 3.565000 73 26 7
1.553893 -0.961042 3.565000 78 25 5
1.553893 -0.954801 3.565000 73 26 3
1.553893 -0.948561 3.565000 68 27 2
1.537765 -0.932540 3.528000 61 32 2
1.553893 -0.936080 3.565000 55 35 3
1.553893 -0.929839 3.565000 62 29 4
1.553893 -0.923599 3.565000 69 28 6
1.553893 -0.917358 3.565000 66 35 9
1.553893 -0.911118 3.565000 64 34 8
1.553893 -0.904877 3.565000 65 36 8
1.570020 -0.907963 3.602000 67 36 5
1.570020 -0.901658 3.602000 75 38 1
1.570020 -0.895353 3.602000 83 30 4
1.553893 -0.879915 3.565000 77 25 7
1.553893 -0.873675 3.565000 72 31 5
1.570020 -0.876437 3.602000 74 37 4
1.570020 -0.870132 3.602000 76 31 5
1.570020 -0.863826 3.602000 76 28 6
1.570020 -0.857521 3.602000 77 29 6
1.570020 -0.851216 3.602000 75 30 6
1.570020 -0.844910 3.602000 73 30 8
1.570020 -0.838605 3.602000 73 34 10
1.570020 -0.832300 3.602000 73 32 7
1.553893 -0.817510 3.565000 67 26 5
1.553893 -0.811269 3.565000 61 29 8
1.553893 -0.805029 3.565000 68 32 11
1.553893 -0.798788 3.565000 76 28 11
1.553893 -0.792548 3.565000 76 22 10
1.553893 -0.786307 3.565000 76 25 10
1.553893 -0.780067 3.565000 77 24 10
1.570020 -0.781857 3.602000 78 26 6
1.570020 -0.775552 3.602000 80 32 3
1.570020 -0.769247 3.602000 82 34 5
1.586583 -0.770990 3.640000 81 40 8
1.586583 -0.764618 3.640000 81 39 11
1.570020 -0.750331 3.602000 79 37 14
1.570020 -0.744026 3.602000 78 27 11
1.570020 -0.737720 3.602000 78 18 9
1.570020 -0.731415 3.602000 79 24 7
1.570020 -0.725110 3.602000 77 32 6
1.553893 -0.711421 3.565000 76 35 5
1.553893 -0.705180 3.565000 80 33 5
1.553893 -0.698940 3.565000 84 34 12
1.553893 -0.692699 3.565000 80 36 20
1.553893 -0.686459 3.565000 77 34 15
1.570020 -0.687278 3.602000 83 29 10
1.553893 -0.673977 3.565000 90 29 8
1.570020 -0.674667 3.602000 86 33 7
1.586583 -0.675413 3.640000 83 31 11
1.586583 -0.669041 3.640000 81 31 15
1.570020 -0.655751 3.602000 80 32 10
1.570020 -0.649446 3.602000 83 30 6
1.570020 -0.643141 3.602000 87 34 9
1.570020 -0.636835 3.602000 80 42 12
1.570020 -0.630530 3.602000 74 39 7
1.570020 -0.624225 3.602000 74 39 1
1.570020 -0.617920 3.602000 74 40 9
1.570020 -0.611614 3.602000 75 42 16
1.570020 -0.605309 3.602000 77 36 10
1.570020 -0.599004 3.602000 74 35 4
1.570020 -0.592698 3.602000 71 32 6
1.570020 -0.586393 3.602000 75 30 9
1.586583 -0.586207 3.640000 79 30 9
1.570020 -0.573782 3.602000 80 33 9
1.570020 -0.567477 3.602000 82 32 10
1.570020 -0.561172 3.602000 80 33 11
1.570020 -0.554866 3.602000 79 38 8
1.553893 -0.542926 3.565000 81 41 6
1.570020 -0.542256 3.602000 84 33 4
1.570020 -0.535951 3.602000 89 30 2
1.570020 -0.529645 3.602000 94 33 3
1.570020 -0.523340 3.602000 77 35 4
1.570020 -0.517035 3.602000 61 41 4
1.570020 -0.510729 3.602000 70 47 4
1.570020 -0.504424 3.602000 80 43 3
1.570020 -0.498119 3.602000 82 39 2
1.570020 -0.491813 3.602000 84 39 4
1.570020 -0.485508 3.602000 81 39 7
1.570020 -0.479203 3.602000 78 40 7
1.570020 -0.472898 3.602000 79 42 8
1.570020 -0.466592 3.602000 80 42 8
1.570020 -0.460287 3.602000 78 43 8
1.570020 -0.453982 3.602000 77 44 8
1.570020 -0.447676 3.602000 78 44 8
1.570020 -0.441371 3.602000 80 39 8
1.553893 -0.430597 3.565000 79 39 9
1.570020 -0.428760 3.602000 78 36 5
1.553893 -0.418116 3.565000 77 32 2
1.553893 -0.411875 3.565000 76 36 4
1.570020 -0.409845 3.602000 77 39 6
1.570020 -0.403539 3.602000 79 34 9
1.570020 -0.397234 3.602000 82 29 13
1.570020 -0.390929 3.602000 86 32 13
1.570020 -0.384623 3.602000 78 38 13
1.570020 -0.378318 3.602000 71 38 7
1.570020 -0.372013 3.602000 76 40 2
1.570020 -0.365707 3.602000 82 41 2
1.553893 -0.355710 3.565000 82 42 3
1.553893 -0.349470 3.565000 82 37 11
1.553893 -0.343229 3.565000 79 33 19
1.553893 -0.336989 3.565000 77 41 10
1.537765 -0.327315 3.528000 78 46 2
1.553893 -0.324508 3.565000 80 41 3
1.537765 -0.314964 3.528000 78 39 4
1.553893 -0.312027 3.565000 76 38 9
1.553893 -0.305786 3.565000 78 39 15
1.553893 -0.299545 3.565000 80 40 10
1.553893 -0.293305 3.565000 80 42 5
1.537765 -0.284085 3.528000 81 42 5
1.537765 -0.277909 3.528000 81 42 6
1.537765 -0.271734 3.528000 82 41 9
1.537765 -0.265558 3.528000 86 44 13
1.537765 -0.259382 3.528000 91 42 22
1.537765 -0.253206 3.528000 86 42 31
1.537765 -0.247031 3.528000 81 39 22
1.537765 -0.240855 3.528000 85 39 14
1.553893 -0.237140 3.565000 90 34 19
1.553893 -0.230900 3.565000 86 32 25
1.553893 -0.224659 3.565000 83 36 15
1.570020 -0.220686 3.602000 80 41 5
1.570020 -0.214380 3.602000 77 41 6
1.570020 -0.208075 3.602000 79 40 7
1.570020 -0.201770 3.602000 81 38 13
1.570020 -0.195464 3.602000 80 39 20
1.553893 -0.187216 3.565000 79 40 11
1.553893 -0.180975 3.565000 79 44 3
1.553893 -0.174735 3.565000 79 44 3
1.553893 -0.168494 3.565000 80 41 3
1.553893 -0.162254 3.565000 82 38 3
1.537765 -0.154394 3.528000 87 34 3
1.537765 -0.148218 3.528000 93 33 4
1.537765 -0.142043 3.528000 87 30 5
1.537765 -0.135867 3.528000 82 32 6
1.537765 -0.129691 3.528000 84 37 8
1.537765 -0.123515 3.528000 87 37 5
1.537765 -0.117339 3.528000 83 41 2
1.537765 -0.111164 3.528000 79 40 1
1.537765 -0.104988 3.528000 71 38 1
1.553893 -0.099848 3.565000 63 39 1
1.553893 -0.093608 3.565000 72 38 2
1.553893 -0.087367 3.565000 81 37 5
1.553893 -0.081127 3.565000 79 36 8
1.553893 -0.074886 3.565000 77 37 11
1.537765 -0.067933 3.528000 71 38 14
1.537765 -0.061758 3.528000 65 37 9
1.537765 -0.055582 3.528000 71 34 4
1.537765 -0.049406 3.528000 78 36 6
1.537765 -0.043230 3.528000 78 36 9
1.537765 -0.037055 3.528000 78 34 6
1.537765 -0.030879 3.528000 83 27 3
1.553893 -0.024962 3.565000 89 30 6
1.553893 -0.018721 3.565000 85 30 9
1.553893 -0.012481 3.565000 82 30 16
1.553893 -0.006240 3.565000 82 29 23
1.553893 -0.000000 3.565000 82 32 14
1.553893 0.006241 3.565000 79 35 5
1.553893 0.012481 3.565000 76 39 3
1.553893 0.018722 3.565000 67 42 2
1.553893 0.024962 3.565000 58 37 11
1.553893 0.031203 3.565000 68 27 19
1.537765 0.037055 3.528000 78 28 13
1.537765 0.043230 3.528000 79 32 6
1.537765 0.049406 3.528000 81 39 4
1.537765 0.055582 3.528000 80 44 2
1.537765 0.061758 3.528000 79 44 2
1.537765 0.067933 3.528000 76 43 1
1.537765 0.074109 3.528000 74 40 3
1.537765 0.080285 3.528000 66 40 6
1.537765 0.086461 3.528000 58 42 7
1.537765 0.092636 3.528000 70 41 9
1.553893 0.099849 3.565000 82 39 5
1.537765 0.104988 3.528000 82 40 1
1.537765 0.111164 3.528000 82 41 13
1.537765 0.117340 3.528000 80 41 25
1.537765 0.123515 3.528000 79 40 16
1.522510 0.128405 3.493000 80 41 6
1.522510 0.134519 3.493000 82 35 12
1.522510 0.140634 3.493000 79 31 18
1.522510 0.146748 3.493000 77 35 13
1.537765 0.154394 3.528000 79 34 8
1.537765 0.160570 3.528000 82 31 7
1.537765 0.166746 3.528000 82 30 6
1.537765 0.172921 3.528000 82 35 8
1.537765 0.179097 3.528000 81 39 9
1.537765 0.185273 3.528000 80 39 10
1.537765 0.191449 3.528000 82 35 11
1.537765 0.197625 3.528000 84 29 18
1.537765 0.203800 3.528000 85 26 25
1.553893 0.212178 3.565000 86 30 15
1.553893 0.218419 3.565000 82 32 6
1.553893 0.224659 3.565000 79 40 4
1.553893 0.230900 3.565000 79 46 3
1.553893 0.237140 3.565000 80 44 6
1.537765 0.240855 3.528000 83 43 10
1.537765 0.247031 3.528000 86 45 6
1.537765 0.253206 3.528000 82 50 3
1.537765 0.259382 3.528000 79 46 4
1.537765 0.265558 3.528000 79 42 5
1.537765 0.271734 3.528000 80 42 7
1.537765 0.277910 3.528000 79 45 9
1.537765 0.284085 3.528000 78 41 11
1.537765 0.290261 3.528000 85 37 13
1.537765 0.296437 3.528000 92 37 12
1.522510 0.299611 3.493000 87 40 11
1.537765 0.308788 3.528000 82 37 19
1.522510 0.311840 3.493000 81 32 27
1.537765 0.321140 3.528000 80 38 17
1.537765 0.327316 3.528000 82 39 8
1.537765 0.333491 3.528000 84 39 7
1.537765 0.339667 3.528000 88 41 6
1.537765 0.345843 3.528000 93 39 5
1.537765 0.352019 3.528000 88 39 5
1.537765 0.358194 3.528000 83 39 5
1.537765 0.364370 3.528000 80 37 6
1.537765 0.370546 3.528000 77 38 11
1.537765 0.376722 3.528000 71 37 16
1.537765 0.382898 3.528000 66 36 10
1.537765 0.389073 3.528000 72 37 4
1.537765 0.395249 3.528000 78 39 5
1.537765 0.401425 3.528000 80 40 7
1.537765 0.407601 3.528000 82 40 7
1.537765 0.413776 3.528000 87 34 8
1.553893 0.424356 3.565000 93 36 7
1.553893 0.430597 3.565000 86 42 6
1.553893 0.436837 3.565000 80 43 7
1.553893 0.443078 3.565000 81 37 8
1.553893 0.449318 3.565000 83 40 11
1.553893 0.455559 3.565000 84 41 15
1.553893 0.461800 3.565000 85 35 15
1.553893 0.468040 3.565000 82 28 14
1.553893 0.474281 3.565000 79 35 19
1.553893 0.480521 3.565000 78 38 23
1.553893 0.486762 3.565000 78 39 14
1.553893 0.493002 3.565000 75 39 5
1.553893 0.499243 3.565000 73 40 7
1.537765 0.500237 3.528000 76 41 9
1.537765 0.506413 3.528000 79 37 9
1.537765 0.512589 3.528000 80 31 10
1.537765 0.518764 3.528000 81 37 7
1.537765 0.524940 3.528000 80 41 4
1.537765 0.531116 3.528000 79 39 8
1.537765 0.537292 3.528000 79 35 12
1.537765 0.543467 3.528000 79 38 12
1.537765 0.549643 3.528000 79 45 13
1.537765 0.555819 3.528000 79 43 9
1.537765 0.561995 3.528000 79 40 5
1.537765 0.568170 3.528000 79 39 3
1.537765 0.574346 3.528000 80 41 2
1.537765 0.580522 3.528000 81 39 5
1.537765 0.586698 3.528000 80 38 8
1.537765 0.592874 3.528000 79 40 15
1.537765 0.599049 3.528000 79 40 22
1.537765 0.605225 3.528000 80 39 16
1.537765 0.611401 3.528000 84 32 10
1.537765 0.617577 3.528000 89 33 8
1.537765 0.623752 3.528000 83 34 7
1.537765 0.629928 3.528000 78 34 11
1.537765 0.636104 3.528000 73 33 15
1.537765 0.642280 3.528000 69 35 14
1.537765 0.648455 3.528000 56 37 14
1.537765 0.654631 3.528000 44 19 11
1.537765 0.660807 3.528000 30 4 9
1.537765 0.666983 3.528000 17 2 5
1.537765 0.673158 3.528000 11 1 2
1.537765 0.679334 3.528000 6 2 2
1.537765 0.685510 3.528000 4 1 3
1.553893 0.698940 3.565000 3 2 6
1.537765 0.697861 3.528000 4 3 10
1.099711 0.702226 2.523000 68 58 52
1.099711 0.706642 2.523000 64 56 49
1.091866 0.705986 2.505000 70 56 46
1.084020 0.705266 2.487000 77 57 48
1.076174 0.704484 2.469000 78 57 51
1.060918 0.698758 2.434000 79 56 50
1.046099 0.693198 2.400000 71 57 49
1.039125 0.692750 2.384000 64 59 53
1.031715 0.691954 2.367000 71 61 58
1.024741 0.691392 2.351000 78 59 58
1.017767 0.690774 2.335000 81 59 59
1.011229 0.690397 2.320000 85 55 54
1.004255 0.689669 2.304000 84 50 49
0.997717 0.689186 2.289000 83 54 53
0.991179 0.688650 2.274000 82 64 57
0.978103 0.683493 2.244000 81 62 65
0.978103 0.687422 2.244000 82 62 72
0.972000 0.687036 2.230000 83 58 69
0.959360 0.681955 2.201000 82 53 67
0.947591 0.677395 2.174000 82 57 64
0.947591 0.681200 2.174000 81 62 61
0.929720 0.672087 2.133000 80 65 67
0.929720 0.675821 2.133000 81 65 73
0.924054 0.675413 2.120000 82 68 75
0.918388 0.674960 2.107000 83 69 77
0.907491 0.670596 2.082000 84 67 79
0.896594 0.666144 2.057000 86 67 82
0.891363 0.665838 2.045000 88 68 85
0.886133 0.665489 2.033000 88 65 87
0.880902 0.665099 2.021000 88 66 83
0.880902 0.668637 2.021000 85 74 79
0.875672 0.668183 2.009000 82 72 76
0.865647 0.664010 1.986000 83 70 74
0.850827 0.656060 1.952000 85 74 76
0.846033 0.655760 1.941000 86 76 79
0.836879 0.652026 1.920000 88 72 81
0.836879 0.655387 1.920000 89 69 83
0.832084 0.654974 1.909000 90 71 82
0.827726 0.654867 1.899000 90 69 81
0.822931 0.654379 1.888000 90 72 83
0.814214 0.650717 1.868000 89 77 85
0.809855 0.650486 1.858000 88 78 81
0.805496 0.650220 1.848000 90 79 77
0.801137 0.649919 1.838000 93 77 84
0.792856 0.646384 1.819000 91 75 92
0.788497 0.645998 1.809000 90 77 89
0.788497 0.649164 1.809000 90 80 85
0.780215 0.645480 1.790000 91 82 83
0.776293 0.645352 1.781000 99 82 81
0.772370 0.645192 1.772000 107 80 85
0.768447 0.645002 1.763000 101 76 89
0.764524 0.644779 1.754000 95 78 88
0.756678 0.641201 1.736000 95 80 87
0.749268 0.637931 1.719000 95 80 85
0.745781 0.637958 1.711000 97 82 83
0.741858 0.637581 1.702000 99 84 85
0.741858 0.640561 1.702000 99 88 87
0.738371 0.640515 1.694000 100 87 90
0.734884 0.640442 1.686000 97 88 93
0.730962 0.639958 1.677000 94 87 95
0.723988 0.636760 1.661000 93 86 97
0.717014 0.633506 1.645000 92 86 96
0.713963 0.633678 1.638000 79 88 96
0.710476 0.633436 1.630000 67 88 96
0.710476 0.636289 1.630000 81 84 97
0.706989 0.636006 1.622000 96 83 101
0.700450 0.632937 1.607000 98 84 105
0.697399 0.632981 1.600000 101 85 100
0.690861 0.629821 1.585000 99 86 96
0.690861 0.632596 1.585000 98 85 94
0.687810 0.632564 1.578000 95 87 92
0.684759 0.632508 1.571000 93 86 94
0.678221 0.629193 1.556000 93 82 96
0.676477 0.630292 1.552000 93 85 95
0.675170 0.631785 1.549000 98 95 95
0.663401 0.623437 1.522000 103 94 97
0.660350 0.623222 1.515000 103 93 100
0.657735 0.623395 1.509000 104 86 104
0.654684 0.623133 1.502000 103 86 108
0.654684 0.625762 1.502000 103 86 100
0.646402 0.620442 1.483000 103 87 93
1.528624 -1.247357 3.493000 65 36 6
1.528624 -1.241243 3.493000 64 30 10
1.528624 -1.235128 3.493000 63 29 20
1.543941 -1.241329 3.528000 68 27 31
1.543941 -1.235153 3.528000 72 28 16
1.543941 -1.228977 3.528000 67 29 2
1.543941 -1.222801 3.528000 62 30 1
1.560133 -1.229385 3.565000 60 30 1
1.543941 -1.210450 3.528000 58 32 1
1.560133 -1.216904 3.565000 58 33 2
1.543941 -1.198098 3.528000 59 30 1
1.543941 -1.191923 3.528000 58 28 1
1.543941 -1.185747 3.528000 58 26 2
1.543941 -1.179571 3.528000 57 30 3
1.543941 -1.173395 3.528000 57 34 12
1.543941 -1.167220 3.528000 54 30 21
1.543941 -1.161044 3.528000 51 27 14
1.543941 -1.154868 3.528000 53 30 8
1.543941 -1.148692 3.528000 56 34 5
1.543941 -1.142516 3.528000 57 33 3
1.528624 -1.125067 3.493000 58 32 2
1.528624 -1.118953 3.493000 59 27 1
1.543941 -1.123989 3.528000 61 23 1
1.543941 -1.117813 3.528000 61 27 1
1.543941 -1.111638 3.528000 62 30 1
1.543941 -1.105462 3.528000 58 32 1
1.543941 -1.099286 3.528000 55 30 2
1.543941 -1.093110 3.528000 60 30 3
1.543941 -1.086935 3.528000 66 30 2
1.543941 -1.080759 3.528000 67 29 1
1.543941 -1.074583 3.528000 69 26 5
1.543941 -1.068407 3.528000 63 31 10
1.543941 -1.062231 3.528000 58 34 12
1.560133 -1.067131 3.565000 61 33 14
1.576325 -1.071901 3.602000 64 26 12
1.576325 -1.065596 3.602000 65 27 10
1.560133 -1.048409 3.565000 66 28 10
1.560133 -1.042169 3.565000 69 32 10
1.560133 -1.035928 3.565000 72 30 6
1.560133 -1.029688 3.565000 71 33 3
1.543941 -1.012825 3.528000 70 29 6
1.543941 -1.006650 3.528000 71 29 9
1.543941 -1.000474 3.528000 72 26 9
1.543941 -0.994298 3.528000 75 27 9
1.543941 -0.988122 3.528000 79 26 10
1.543941 -0.981947 3.528000 74 27 12
1.543941 -0.975771 3.528000 69 26 8
1.543941 -0.969595 3.528000 68 29 5
1.543941 -0.963419 3.528000 68 25 8
1.543941 -0.957243 3.528000 73 29 12
1.543941 -0.951068 3.528000 78 25 8
1.543941 -0.944892 3.528000 74 26 4
1.543941 -0.938716 3.528000 70 26 2
1.543941 -0.932540 3.528000 64 35 1
1.543941 -0.926365 3.528000 59 41 3
1.560133 -0.929839 3.565000 64 35 5
1.560133 -0.923599 3.565000 69 29 9
1.560133 -0.917358 3.565000 66 33 14
1.543941 -0.901662 3.528000 63 30 12
1.560133 -0.904877 3.565000 64 35 10
1.543941 -0.889310 3.528000 65 38 5
1.560133 -0.892396 3.565000 68 32 1
1.560133 -0.886156 3.565000 71 26 6
1.560133 -0.879915 3.565000 69 32 12
1.543941 -0.864607 3.528000 68 34 9
1.560133 -0.867434 3.565000 69 35 7
1.560133 -0.861193 3.565000 70 31 5
1.560133 -0.854953 3.565000 72 33 4
1.560133 -0.848712 3.565000 74 34 6
1.560133 -0.842472 3.565000 74 34 8
1.560133 -0.836231 3.565000 74 33 9
1.560133 -0.829991 3.565000 76 37 11
1.560133 -0.823750 3.565000 77 38 7
1.560133 -0.817510 3.565000 70 32 3
1.560133 -0.811269 3.565000 63 30 8
1.560133 -0.805029 3.565000 69 33 14
1.560133 -0.798788 3.565000 75 30 11
1.560133 -0.792548 3.565000 74 28 9
1.560133 -0.786307 3.565000 74 28 10
1.560133 -0.780067 3.565000 73 29 11
1.560133 -0.773826 3.565000 73 25 7
1.560133 -0.767586 3.565000 75 33 4
1.560133 -0.761345 3.565000 76 39 8
1.576325 -0.762941 3.602000 74 41 12
1.576325 -0.756636 3.602000 72 41 16
1.560133 -0.742623 3.565000 76 36 20
1.560133 -0.736383 3.565000 81 28 14
1.560133 -0.730142 3.565000 80 23 8
1.560133 -0.723902 3.565000 78 22 5
1.560133 -0.717661 3.565000 77 30 3
1.543941 -0.704037 3.528000 76 34 2
1.543941 -0.697861 3.528000 77 36 1
1.543941 -0.691686 3.528000 78 39 4
1.560133 -0.692699 3.565000 76 37 7
1.560133 -0.686459 3.565000 75 32 10
1.560133 -0.680218 3.565000 79 27 13
1.560133 -0.673977 3.565000 84 24 9
1.576325 -0.674667 3.602000 82 30 6
1.576325 -0.668362 3.602000 80 30 6
1.576325 -0.662057 3.602000 80 33 6
1.560133 -0.649015 3.565000 80 37 5
1.576325 -0.649446 3.602000 81 33 4
1.560133 -0.636534 3.565000 83 31 6
1.560133 -0.630294 3.565000 76 38 9
1.560133 -0.624053 3.565000 69 42 5
1.560133 -0.617813 3.565000 71 40 2
1.560133 -0.611572 3.565000 74 42 5
1.560133 -0.605332 3.565000 75 39 8
1.576325 -0.605309 3.602000 77 33 4
1.576325 -0.599004 3.602000 76 36 1
1.576325 -0.592698 3.602000 74 38 4
1.576325 -0.586393 3.602000 77 34 7
1.576325 -0.580088 3.602000 80 35 8
1.576325 -0.573782 3.602000 82 34 10
1.560133 -0.561648 3.565000 84 33 9
1.560133 -0.555407 3.565000 82 36 9
1.560133 -0.549167 3.565000 79 42 6
1.560133 -0.542926 3.565000 79 41 3
1.560133 -0.536686 3.565000 79 41 2
1.560133 -0.530445 3.565000 83 36 2
1.560133 -0.524205 3.565000 86 33 2
1.576325 -0.523340 3.602000 78 37 3
1.576325 -0.517035 3.602000 69 41 4
1.576325 -0.510729 3.602000 74 43 5
1.560133 -0.499243 3.565000 78 41 3
1.560133 -0.493002 3.565000 80 41 1
1.560133 -0.486762 3.565000 81 45 2
1.560133 -0.480521 3.565000 79 44 3
1.560133 -0.474280 3.565000 78 45 3
1.560133 -0.468040 3.565000 78 45 4
1.560133 -0.461799 3.565000 79 45 3
1.560133 -0.455559 3.565000 77 44 2
1.576325 -0.453982 3.602000 76 50 4
1.560133 -0.443078 3.565000 74 43 7
1.560133 -0.436837 3.565000 71 34 5
1.560133 -0.430597 3.565000 74 36 4
1.543941 -0.419952 3.528000 78 38 2
1.543941 -0.413776 3.528000 78 36 1
1.543941 -0.407600 3.528000 78 32 4
1.543941 -0.401425 3.528000 80 37 7
1.543941 -0.395249 3.528000 81 39 8
1.543941 -0.389073 3.528000 85 35 9
1.543941 -0.382897 3.528000 89 34 11
1.560133 -0.380672 3.565000 83 38 14
1.543941 -0.370546 3.528000 77 42 8
1.543941 -0.364370 3.528000 79 41 3
1.543941 -0.358194 3.528000 81 42 3
1.528624 -0.348526 3.493000 80 39 3
1.528624 -0.342412 3.493000 80 38 16
1.528624 -0.336297 3.493000 77 39 29
1.543941 -0.333491 3.528000 74 45 15
1.543941 -0.327315 3.528000 77 44 1
1.543941 -0.321140 3.528000 80 41 1
1.543941 -0.314964 3.528000 79 40 2
1.560133 -0.312027 3.565000 79 41 3
1.543941 -0.302612 3.528000 79 40 4
1.543941 -0.296437 3.528000 79 41 3
1.543941 -0.290261 3.528000 79 41 2
1.543941 -0.284085 3.528000 80 43 1
1.543941 -0.277909 3.528000 80 40 1
1.543941 -0.271734 3.528000 81 43 5
1.543941 -0.265558 3.528000 83 42 9
1.543941 -0.259382 3.528000 85 42 10
1.543941 -0.253206 3.528000 77 42 12
1.543941 -0.247031 3.528000 69 43 12
1.543941 -0.240855 3.528000 78 38 12
1.560133 -0.237140 3.565000 87 35 23
1.560133 -0.230900 3.565000 85 35 35
1.560133 -0.224659 3.565000 83 39 18
1.560133 -0.218419 3.565000 75 41 2
1.560133 -0.212178 3.565000 67 44 1
1.543941 -0.203800 3.528000 73 39 1
1.560133 -0.199697 3.565000 78 35 5
1.543941 -0.191449 3.528000 77 39 9
1.543941 -0.185273 3.528000 76 42 6
1.543941 -0.179097 3.528000 77 45 3
1.543941 -0.172921 3.528000 78 46 3
1.543941 -0.166746 3.528000 78 42 3
1.543941 -0.160570 3.528000 79 39 3
1.543941 -0.154394 3.528000 82 37 4
1.543941 -0.148218 3.528000 86 34 3
1.543941 -0.142043 3.528000 84 30 3
1.543941 -0.135867 3.528000 83 28 2
1.543941 -0.129691 3.528000 85 33 2
1.528624 -0.122290 3.493000 87 40 1
1.543941 -0.117339 3.528000 83 38 1
1.543941 -0.111164 3.528000 79 42 1
1.543941 -0.104988 3.528000 74 39 1
1.543941 -0.098812 3.528000 70 36 2
1.543941 -0.092636 3.528000 77 38 3
1.543941 -0.086461 3.528000 83 38 3
1.543941 -0.080285 3.528000 80 38 4
1.543941 -0.074109 3.528000 78 39 5
1.543941 -0.067933 3.528000 75 39 7
1.543941 -0.061758 3.528000 72 38 4
1.543941 -0.055582 3.528000 78 36 1
1.543941 -0.049406 3.528000 85 36 7
1.543941 -0.043230 3.528000 82 35 13
1.543941 -0.037055 3.528000 79 38 8
1.543941 -0.030879 3.528000 81 33 4
1.543941 -0.024703 3.528000 83 31 8
1.543941 -0.018527 3.528000 81 33 12
1.543941 -0.012351 3.528000 79 34 23
1.560133 -0.006240 3.565000 79 34 34
1.560133 -0.000000 3.565000 79 38 20
1.560133 0.006241 3.565000 77 39 7
1.560133 0.012481 3.565000 76 42 5
1.543941 0.018527 3.528000 72 41 4
1.543941 0.024703 3.528000 68 41 15
1.543941 0.030879 3.528000 72 34 26
1.543941 0.037055 3.528000 77 30 15
1.543941 0.043230 3.528000 78 33 4
1.543941 0.049406 3.528000 79 39 3
1.543941 0.055582 3.528000 77 41 2
1.543941 0.061758 3.528000 75 43 1
1.543941 0.067933 3.528000 75 41 1
1.543941 0.074109 3.528000 75 37 4
1.543941 0.080285 3.528000 71 39 7
1.543941 0.086461 3.528000 67 43 10
1.543941 0.092636 3.528000 77 40 14
1.543941 0.098812 3.528000 86 39 8
1.543941 0.104988 3.528000 83 39 2
1.543941 0.111164 3.528000 81 42 3
1.543941 0.117340 3.528000 79 40 4
1.543941 0.123515 3.528000 78 36 2
1.528624 0.128405 3.493000 79 38 1
1.528624 0.134519 3.493000 81 41 10
1.528624 0.140634 3.493000 81 35 20
1.528624 0.146748 3.493000 81 37 14
1.543941 0.154394 3.528000 81 34 9
1.528624 0.158977 3.493000 81 32 8
1.528624 0.165092 3.493000 80 35 7
1.543941 0.172921 3.528000 80 39 9
1.543941 0.179097 3.528000 79 40 11
1.543941 0.185273 3.528000 79 41 11
1.543941 0.191449 3.528000 81 37 11
1.543941 0.197625 3.528000 82 33 23
1.543941 0.203800 3.528000 83 30 35
1.543941 0.209976 3.528000 85 32 21
1.543941 0.216152 3.528000 82 35 8
1.543941 0.222328 3.528000 79 39 6
1.543941 0.228503 3.528000 79 42 4
1.543941 0.234679 3.528000 80 44 10
1.528624 0.238465 3.493000 81 41 17
1.543941 0.247031 3.528000 82 41 9
1.543941 0.253206 3.528000 79 45 1
1.543941 0.259382 3.528000 76 48 2
1.528624 0.262923 3.493000 77 44 3
1.528624 0.269038 3.493000 78 41 6
1.528624 0.275153 3.493000 78 39 9
1.528624 0.281267 3.493000 77 40 9
1.528624 0.287382 3.493000 81 35 10
1.528624 0.293496 3.493000 85 34 12
1.513307 0.296608 3.458000 82 37 15
1.528624 0.305725 3.493000 80 35 24
1.528624 0.311840 3.493000 79 35 34
1.528624 0.317954 3.493000 79 36 22
1.543941 0.327316 3.528000 80 40 10
1.543941 0.333491 3.528000 81 42 7
1.543941 0.339667 3.528000 83 40 4
1.543941 0.345843 3.528000 86 39 3
1.543941 0.352019 3.528000 83 42 3
1.543941 0.358194 3.528000 80 41 2
1.543941 0.364370 3.528000 78 41 1
1.543941 0.370546 3.528000 77 44 6
1.528624 0.372984 3.493000 74 37 12
1.528624 0.379099 3.493000 72 31 9
1.528624 0.385213 3.493000 75 35 7
1.528624 0.391328 3.493000 78 39 7
1.543941 0.401425 3.528000 79 42 7
1.543941 0.407601 3.528000 80 46 5
1.543941 0.413776 3.528000 83 39 4
1.543941 0.419952 3.528000 86 37 4
1.543941 0.426128 3.528000 83 43 4
1.543941 0.432304 3.528000 81 49 4
1.543941 0.438479 3.528000 82 44 4
1.543941 0.444655 3.528000 82 44 11
1.543941 0.450831 3.528000 85 40 19
1.543941 0.457007 3.528000 88 35 19
1.543941 0.463183 3.528000 83 35 20
1.543941 0.469358 3.528000 79 37 28
1.543941 0.475534 3.528000 79 38 37
1.543941 0.481710 3.528000 78 39 23
1.543941 0.487886 3.528000 76 40 9
1.543941 0.494061 3.528000 75 43 9
1.543941 0.500237 3.528000 77 41 9
1.543941 0.506413 3.528000 80 38 8
1.528624 0.507503 3.493000 84 37 7
1.528624 0.513618 3.493000 88 39 6
1.528624 0.519732 3.493000 83 41 6
1.528624 0.525847 3.493000 79 43 9
1.543941 0.537292 3.528000 81 40 12
1.528624 0.538076 3.493000 83 41 10
1.528624 0.544190 3.493000 79 44 8
1.543941 0.555819 3.528000 75 45 6
1.543941 0.561995 3.528000 77 41 4
1.543941 0.568170 3.528000 80 41 3
1.543941 0.574346 3.528000 81 42 2
1.543941 0.580522 3.528000 83 42 4
1.543941 0.586698 3.528000 83 40 6
1.543941 0.592874 3.528000 84 41 10
1.543941 0.599049 3.528000 82 39 14
1.543941 0.605225 3.528000 80 43 11
1.543941 0.611401 3.528000 77 39 8
1.543941 0.617577 3.528000 75 41 6
1.543941 0.623752 3.528000 75 38 4
1.543941 0.629928 3.528000 76 35 3
1.528624 0.629793 3.493000 72 32 2
1.543941 0.642280 3.528000 68 33 8
1.543941 0.648455 3.528000 56 33 14
1.543941 0.654631 3.528000 45 26 12
1.543941 0.660807 3.528000 29 11 10
1.543941 0.666983 3.528000 14 2 5
1.543941 0.673158 3.528000 11 2 1
1.543941 0.679334 3.528000 8 3 1
1.543941 0.685510 3.528000 6 2 2
1.543941 0.691686 3.528000 5 2 4
1.543941 0.697861 3.528000 4 3 7
1.104128 0.706642 2.523000 68 51 44
1.096251 0.705986 2.505000 72 55 38
1.088374 0.705266 2.487000 77 59 44
1.072619 0.699348 2.451000 78 56 50
1.057740 0.693877 2.417000 80 54 54
1.050300 0.693198 2.400000 76 57 58
1.035858 0.687810 2.367000 72 61 56
1.035858 0.691954 2.367000 79 60 54
1.028857 0.691392 2.351000 85 59 56
