ply
format ascii 1.0
element vertex 1195
property float x
property float y
property float z
property uchar red
property uchar green
property uchar blue
end_header
-0.172337 0.648613 1.790000 145 134 145
-0.171470 0.648469 1.781000 148 134 143
-0.170604 0.648294 1.772000 148 136 141
-0.169737 0.648088 1.763000 149 134 140
-0.168004 0.644525 1.745000 149 131 138
-0.167138 0.644240 1.736000 150 133 139
-0.167138 0.647279 1.736000 149 134 139
-0.165501 0.643950 1.719000 149 135 141
-0.165501 0.646959 1.719000 147 135 142
-0.163094 0.640515 1.694000 146 134 141
-0.162324 0.640442 1.686000 145 135 141
-0.161457 0.639958 1.677000 145 135 138
-0.160687 0.639827 1.669000 144 136 136
-0.159917 0.639668 1.661000 143 136 137
-0.159147 0.639481 1.653000 145 136 138
-0.157703 0.636545 1.638000 147 133 138
-0.156162 0.633166 1.622000 146 131 139
-0.155488 0.633261 1.615000 145 130 137
-0.154718 0.632937 1.607000 140 128 136
-0.154044 0.632981 1.600000 135 127 133
-0.154044 0.635782 1.600000 138 127 131
-0.153274 0.635390 1.592000 142 128 132
-0.152600 0.635370 1.585000 144 129 134
-0.151926 0.635327 1.578000 146 129 134
-0.151252 0.635258 1.571000 144 131 134
-0.150482 0.634759 1.563000 142 131 135
-0.147882 0.626483 1.536000 145 129 137
-0.147208 0.626305 1.529000 148 128 136
-0.146534 0.626101 1.522000 147 129 135
-0.145860 0.625874 1.515000 146 129 135
-0.145860 0.628526 1.515000 146 128 135
-0.144609 0.625762 1.502000 146 128 134
-0.144031 0.625881 1.496000 146 130 134
-0.241422 0.710854 2.554000 151 136 151
-0.238492 0.706642 2.523000 150 137 150
-0.236790 0.705986 2.505000 150 136 150
-0.235089 0.705266 2.487000 150 135 151
-0.233387 0.704484 2.469000 150 135 152
-0.233387 0.708806 2.469000 150 137 152
-0.233387 0.713128 2.469000 152 139 152
-0.230079 0.707279 2.434000 155 141 156
-0.228472 0.706570 2.417000 153 137 161
-0.226865 0.705802 2.400000 151 136 158
-0.225352 0.705270 2.384000 152 137 156
-0.222233 0.699623 2.351000 154 138 154
-0.217790 0.689669 2.304000 154 140 152
-0.216372 0.689186 2.289000 154 142 150
-0.214954 0.688650 2.274000 155 141 148
-0.212119 0.683493 2.244000 156 142 145
-0.212119 0.687422 2.244000 153 141 142
-0.209377 0.682415 2.215000 150 141 145
-0.208054 0.681955 2.201000 152 140 149
-0.206731 0.681445 2.187000 154 140 149
-0.205502 0.681200 2.174000 153 139 150
-0.205502 0.685006 2.174000 152 140 146
-0.204178 0.684376 2.160000 150 137 143
-0.202950 0.684015 2.147000 149 137 150
-0.200397 0.679124 2.120000 151 138 157
-0.199168 0.678648 2.107000 153 140 149
-0.199168 0.682336 2.107000 150 139 142
-0.196805 0.677885 2.082000 148 139 141
-0.195576 0.677274 2.069000 152 138 140
-0.194442 0.676947 2.057000 156 138 146
-0.192173 0.672607 2.033000 153 137 152
-0.191039 0.672175 2.021000 151 136 151
-0.188865 0.668023 1.998000 150 136 150
-0.188865 0.671520 1.998000 150 138 153
-0.187731 0.670963 1.986000 149 137 157
-0.186691 0.670704 1.975000 149 136 152
-0.185651 0.670407 1.964000 147 136 148
-0.182532 0.662522 1.931000 146 140 147
-0.181492 0.662109 1.920000 147 138 146
-0.179507 0.658192 1.899000 149 136 145
-0.178467 0.657684 1.888000 150 133 145
-0.177522 0.657488 1.878000 152 134 144
-0.177522 0.660775 1.878000 150 134 144
-0.175631 0.656991 1.858000 148 135 142
-0.174686 0.656690 1.848000 150 134 141
-0.172795 0.652783 1.828000 153 133 139
-0.171945 0.652753 1.819000 149 132 137
-0.170999 0.652331 1.809000 145 132 140
-0.169203 0.648613 1.790000 146 132 144
-0.168353 0.648469 1.781000 147 134 142
-0.167502 0.648294 1.772000 148 134 141
-0.166651 0.648088 1.763000 150 135 137
-0.164950 0.644525 1.745000 152 133 134
-0.164099 0.644240 1.736000 153 133 135
-0.163343 0.644296 1.728000 149 134 137
-0.162492 0.643950 1.719000 145 137 139
-0.161736 0.643948 1.711000 145 135 142
-0.160885 0.643540 1.702000 146 135 140
-0.158522 0.637023 1.677000 145 134 139
-0.158522 0.639958 1.677000 145 135 137
-0.157009 0.636760 1.661000 145 136 135
-0.157009 0.639668 1.661000 145 139 137
-0.155497 0.636386 1.645000 147 136 140
-0.154835 0.636545 1.638000 149 133 140
-0.153323 0.633166 1.622000 147 131 141
-0.151905 0.630124 1.607000 146 131 139
-0.151243 0.630180 1.600000 142 129 137
-0.151243 0.632981 1.600000 138 128 134
-0.151243 0.635782 1.600000 140 127 132
-0.150487 0.635390 1.592000 143 130 132
-0.149825 0.635370 1.585000 145 130 132
-0.149164 0.635327 1.578000 147 131 131
-0.148502 0.635258 1.571000 144 131 131
-0.147746 0.634759 1.563000 142 133 134
-0.146422 0.631785 1.549000 144 130 137
-0.145194 0.629172 1.536000 145 129 139
-0.143870 0.626101 1.522000 145 129 141
-0.143208 0.625874 1.515000 145 131 137
-0.143208 0.628526 1.515000 145 129 134
-0.141980 0.625762 1.502000 146 129 134
-0.141412 0.625881 1.496000 146 129 134
-0.236394 0.709184 2.548000 150 135 150
-0.235838 0.711963 2.542000 149 137 150
-0.234075 0.711058 2.523000 145 138 151
-0.230735 0.705266 2.487000 142 137 151
-0.229065 0.704484 2.469000 146 136 151
-0.229065 0.708806 2.469000 150 139 151
-0.229065 0.713128 2.469000 153 143 151
-0.225818 0.707279 2.434000 156 140 153
-0.224241 0.706570 2.417000 153 137 156
-0.224241 0.710801 2.417000 150 137 155
-0.221179 0.705270 2.384000 152 138 154
-0.219602 0.704384 2.367000 154 139 153
-0.215241 0.694459 2.320000 153 142 152
-0.212365 0.689186 2.289000 153 141 150
-0.210974 0.688650 2.274000 155 140 149
-0.210974 0.692631 2.274000 158 141 147
-0.209582 0.692017 2.259000 152 142 146
-0.206892 0.687036 2.230000 147 141 147
-0.204201 0.681955 2.201000 150 141 149
-0.202902 0.681445 2.187000 153 140 150
-0.202902 0.685274 2.187000 152 140 151
-0.201696 0.685006 2.174000 152 139 148
-0.200397 0.684376 2.160000 152 138 146
-0.199191 0.684015 2.147000 152 138 149
-0.196686 0.679124 2.120000 154 138 153
-0.195480 0.678648 2.107000 156 138 147
-0.195480 0.682336 2.107000 149 137 142
-0.191955 0.673652 2.069000 143 137 142
-0.190841 0.673346 2.057000 147 136 142
-0.188615 0.669048 2.033000 152 137 145
-0.188615 0.672607 2.033000 151 137 149
-0.187501 0.672175 2.021000 150 136 149
-0.185831 0.669694 2.003000 150 135 149
-0.185367 0.671520 1.998000 151 137 151
-0.184254 0.670963 1.986000 150 138 153
-0.183234 0.670704 1.975000 150 136 149
-0.182213 0.670407 1.964000 149 134 146
-0.178131 0.658748 1.920000 148 137 145
-0.176183 0.654867 1.899000 148 139 144
-0.175162 0.654379 1.888000 149 136 141
-0.175162 0.657684 1.888000 148 132 138
-0.174234 0.657488 1.878000 148 134 141
-0.174234 0.660775 1.878000 147 136 143
-0.172379 0.656991 1.858000 146 135 142
-0.171451 0.656690 1.848000 147 134 142
-0.169595 0.652783 1.828000 148 133 141
-0.168760 0.652753 1.819000 148 132 141
-0.167833 0.652331 1.809000 148 131 142
-0.166998 0.652236 1.800000 147 130 143
-0.165235 0.648469 1.781000 146 132 143
-0.164400 0.648294 1.772000 149 133 143
-0.162730 0.644779 1.754000 152 134 141
-0.161895 0.644525 1.745000 154 134 140
-0.161060 0.644240 1.736000 157 133 138
-0.160318 0.644296 1.728000 149 132 137
-0.158741 0.640953 1.711000 142 133 139
-0.157906 0.640561 1.702000 144 133 141
-0.157163 0.640515 1.694000 146 132 140
-0.156421 0.640442 1.686000 146 133 139
-0.155586 0.639958 1.677000 146 135 138
-0.154102 0.636760 1.661000 146 136 137
-0.154102 0.639668 1.661000 147 136 138
-0.153360 0.639481 1.653000 149 136 140
-0.151968 0.636545 1.638000 151 133 142
-0.150483 0.633166 1.622000 149 130 144
-0.149834 0.633261 1.615000 148 130 141
-0.149092 0.632937 1.607000 144 130 139
-0.148442 0.632981 1.600000 141 127 134
-0.148442 0.635782 1.600000 143 125 130
-0.147700 0.635390 1.592000 145 128 131
-0.147051 0.635370 1.585000 146 131 133
-0.146401 0.635327 1.578000 148 130 132
-0.146401 0.638089 1.578000 145 131 131
-0.145010 0.634759 1.563000 143 132 132
-0.143711 0.631785 1.549000 143 132 133
-0.143061 0.631630 1.542000 143 129 132
-0.141855 0.628981 1.529000 143 128 131
-0.140556 0.625874 1.515000 144 129 133
-0.140556 0.628526 1.515000 145 129 135
-0.138794 0.623262 1.496000 146 128 134
-0.138144 0.622952 1.489000 146 129 134
-0.253781 0.722299 2.788000 150 137 153
-0.251687 0.721180 2.765000 152 136 154
-0.249684 0.720243 2.743000 154 138 152
-0.247773 0.719494 2.722000 154 136 150
-0.247773 0.724259 2.722000 154 137 149
-0.231388 0.707514 2.542000 152 135 150
-0.231388 0.711963 2.542000 152 138 151
-0.229659 0.711058 2.523000 149 138 152
-0.226382 0.705266 2.487000 147 139 151
-0.224743 0.704484 2.469000 149 137 150
-0.223105 0.703638 2.451000 151 140 150
-0.221557 0.703018 2.434000 152 141 150
-0.221557 0.707279 2.434000 153 141 151
-0.220010 0.706570 2.417000 152 138 152
-0.220010 0.710801 2.417000 150 137 152
-0.218462 0.710003 2.400000 151 137 153
-0.214002 0.699623 2.351000 153 138 152
-0.211180 0.694459 2.320000 153 139 152
-0.208359 0.689186 2.289000 153 140 151
-0.208359 0.693193 2.289000 154 140 150
-0.206993 0.692631 2.274000 156 142 150
-0.205628 0.692017 2.259000 153 140 150
-0.202988 0.687036 2.230000 151 140 149
-0.201623 0.686292 2.215000 153 139 149
-0.199074 0.681445 2.187000 155 139 150
-0.199074 0.685274 2.187000 152 139 152
-0.197891 0.685006 2.174000 149 140 151
-0.196616 0.684376 2.160000 150 140 150
-0.196616 0.688157 2.160000 152 140 149
-0.194158 0.683289 2.133000 153 138 149
-0.192975 0.682835 2.120000 154 137 145
-0.191792 0.682336 2.107000 150 137 142
-0.188333 0.673652 2.069000 147 137 143
-0.185056 0.665489 2.033000 149 138 144
-0.183964 0.665099 2.021000 151 139 145
-0.185056 0.672607 2.033000 151 138 147
-0.183964 0.672175 2.021000 151 137 148
-0.182871 0.671700 2.009000 151 136 149
-0.181870 0.671520 1.998000 151 138 149
-0.180778 0.670963 1.986000 150 138 149
-0.179776 0.670704 1.975000 150 138 147
-0.178775 0.670407 1.964000 149 136 145
-0.173769 0.654974 1.909000 148 137 144
-0.172858 0.654867 1.899000 148 137 143
-0.172858 0.658192 1.899000 148 137 137
-0.171857 0.657684 1.888000 146 134 132
-0.170947 0.657488 1.878000 145 134 137
-0.170947 0.660775 1.878000 146 134 143
-0.170947 0.664063 1.878000 146 135 143
-0.169126 0.660243 1.858000 148 133 143
-0.166396 0.652783 1.828000 150 134 144
-0.165576 0.652753 1.819000 149 132 145
-0.164666 0.652331 1.809000 148 133 144
-0.163847 0.652236 1.800000 146 132 143
-0.162117 0.648469 1.781000 144 134 144
-0.160479 0.645002 1.763000 147 134 145
-0.159660 0.644779 1.754000 150 135 145
-0.158021 0.641201 1.736000 152 134 146
-0.157293 0.641271 1.728000 154 135 142
-0.157293 0.644296 1.728000 149 133 138
-0.155746 0.640953 1.711000 144 133 139
-0.154926 0.640561 1.702000 145 131 140
-0.153470 0.637490 1.686000 147 128 140
-0.152651 0.637023 1.677000 147 132 140
-0.151922 0.636906 1.669000 147 136 139
-0.151922 0.639827 1.669000 148 134 139
-0.151194 0.639668 1.661000 149 134 140
-0.150466 0.639481 1.653000 151 134 141
-0.149101 0.636545 1.638000 154 134 144
-0.147644 0.633166 1.622000 151 132 148
-0.146279 0.630124 1.607000 149 132 144
-0.146279 0.632937 1.607000 145 130 141
-0.145642 0.632981 1.600000 142 128 135
-0.145642 0.635782 1.600000 143 127 129
-0.144913 0.635390 1.592000 144 129 131
-0.143002 0.629758 1.571000 145 129 134
-0.143639 0.635327 1.578000 145 130 133
-0.143002 0.635258 1.571000 143 132 132
-0.141636 0.631917 1.556000 141 135 131
-0.140999 0.631785 1.549000 138 132 130
-0.140362 0.631630 1.542000 136 129 126
-0.139816 0.631861 1.536000 140 129 122
-0.138542 0.628766 1.522000 144 130 129
-0.137904 0.628526 1.515000 145 128 136
-0.136175 0.623262 1.496000 146 128 135
-0.135538 0.622952 1.489000 146 128 134
-0.249882 0.725148 2.799000 145 135 151
-0.248900 0.727179 2.788000 149 134 150
-0.244883 0.720243 2.743000 153 136 149
-0.244883 0.725045 2.743000 152 138 148
-0.243008 0.724259 2.722000 152 138 147
-0.243008 0.729024 2.722000 151 140 147
-0.243008 0.733789 2.722000 150 137 146
-0.241133 0.732856 2.701000 154 137 144
-0.239258 0.731849 2.680000 159 138 149
-0.239258 0.736540 2.680000 156 137 154
-0.226938 0.707514 2.542000 154 135 151
-0.226938 0.711963 2.542000 155 136 153
-0.225242 0.711058 2.523000 153 138 155
-0.222028 0.705266 2.487000 152 137 152
-0.220421 0.704484 2.469000 152 136 149
-0.218814 0.703638 2.451000 152 138 149
-0.217297 0.703018 2.434000 151 140 149
-0.217297 0.707279 2.434000 151 140 150
-0.215779 0.706570 2.417000 151 140 151
-0.215779 0.710801 2.417000 151 138 150
-0.214261 0.710003 2.400000 151 137 149
-0.211315 0.704384 2.367000 152 137 150
-0.205691 0.689669 2.304000 152 138 152
-0.204352 0.689186 2.289000 153 139 151
-0.204352 0.693193 2.289000 154 140 150
-0.203013 0.692631 2.274000 155 139 151
-0.201673 0.692017 2.259000 155 139 153
-0.200334 0.691350 2.244000 155 139 152
-0.197745 0.686292 2.215000 156 139 151
-0.195246 0.681445 2.187000 158 138 154
-0.195246 0.685274 2.187000 152 138 157
-0.194085 0.685006 2.174000 147 140 153
-0.192835 0.684376 2.160000 149 143 150
-0.191675 0.684015 2.147000 152 139 149
-0.189264 0.679124 2.120000 152 137 149
-0.188104 0.678648 2.107000 153 137 146
-0.187032 0.678450 2.095000 152 137 143
-0.181497 0.661931 2.033000 151 138 142
-0.181497 0.665489 2.033000 150 140 142
-0.180426 0.665099 2.021000 150 139 145
-0.181497 0.672607 2.033000 151 140 147
-0.180426 0.672175 2.021000 152 138 147
-0.179355 0.671700 2.009000 151 137 146
-0.178373 0.671520 1.998000 151 138 147
-0.177301 0.670963 1.986000 150 139 148
-0.176319 0.670704 1.975000 150 138 146
-0.172391 0.659142 1.931000 149 137 144
-0.171409 0.658748 1.920000 148 136 144
-0.170427 0.658316 1.909000 147 136 144
-0.169534 0.658192 1.899000 147 136 140
-0.168552 0.657684 1.888000 145 135 137
-0.167659 0.657488 1.878000 143 134 141
-0.167659 0.660775 1.878000 145 134 146
-0.167659 0.664063 1.878000 147 133 144
-0.164981 0.656690 1.848000 149 131 142
-0.164088 0.656354 1.838000 152 132 142
-0.163196 0.655982 1.828000 150 132 143
-0.162392 0.655937 1.819000 148 132 142
-0.161499 0.655498 1.809000 145 133 141
-0.159803 0.651746 1.790000 142 134 142
-0.157393 0.645002 1.763000 145 136 143
-0.155786 0.641471 1.745000 149 135 142
-0.154982 0.641201 1.736000 150 133 142
-0.154268 0.641271 1.728000 151 133 139
-0.153465 0.640940 1.719000 148 132 136
-0.153465 0.643950 1.719000 146 131 138
-0.151947 0.640561 1.702000 147 130 140
-0.151233 0.640515 1.694000 148 130 139
-0.149715 0.637023 1.677000 148 132 138
-0.149001 0.636906 1.669000 148 133 138
-0.149001 0.639827 1.669000 149 133 137
-0.148287 0.639668 1.661000 151 132 138
-0.147572 0.639481 1.653000 154 132 139
-0.146233 0.636545 1.638000 158 133 141
-0.144805 0.633166 1.622000 154 133 144
-0.144180 0.633261 1.615000 150 132 143
-0.143466 0.632937 1.607000 146 132 142
-0.142841 0.632981 1.600000 143 130 138
-0.142841 0.635782 1.600000 143 129 133
-0.142127 0.635390 1.592000 144 129 134
-0.140252 0.629758 1.571000 143 128 136
-0.140877 0.635327 1.578000 143 129 135
-0.139538 0.632023 1.563000 141 132 135
-0.138913 0.631917 1.556000 140 133 134
-0.138288 0.631785 1.549000 134 132 132
-0.137663 0.631630 1.542000 129 130 131
-0.137663 0.634329 1.542000 137 130 130
-0.137127 0.634549 1.536000 145 129 136
-0.135877 0.631430 1.522000 145 128 142
-0.134092 0.625762 1.502000 146 128 139
-0.132931 0.622952 1.489000 146 129 135
-0.245945 0.727998 2.810000 149 135 150
-0.244020 0.727179 2.788000 152 135 146
-0.242007 0.726020 2.765000 155 137 146
-0.240081 0.725045 2.743000 153 138 146
-0.238243 0.724259 2.722000 152 140 146
-0.238243 0.729024 2.722000 151 139 146
-0.236405 0.728128 2.701000 150 137 147
-0.234567 0.727158 2.680000 152 137 149
-0.234567 0.731849 2.680000 155 139 153
-0.234567 0.736540 2.680000 153 136 158
-0.222489 0.707514 2.542000 152 134 152
-0.222489 0.711963 2.542000 153 135 155
-0.220826 0.711058 2.523000 152 137 158
-0.217675 0.705266 2.487000 151 138 153
-0.217675 0.709620 2.487000 152 136 149
-0.214524 0.703638 2.451000 154 138 148
-0.213036 0.703018 2.434000 152 139 148
-0.213036 0.707279 2.434000 151 140 149
-0.213036 0.711540 2.434000 151 138 150
-0.211548 0.710801 2.417000 151 138 148
-0.210060 0.710003 2.400000 151 137 146
-0.205771 0.699623 2.351000 152 137 149
-0.203058 0.694459 2.320000 153 138 152
-0.201658 0.693702 2.304000 153 141 151
-0.200345 0.693193 2.289000 154 139 151
-0.199032 0.692631 2.274000 155 137 153
-0.197719 0.692017 2.259000 154 138 156
-0.196406 0.691350 2.244000 154 139 154
-0.193868 0.686292 2.215000 154 138 153
-0.192643 0.685808 2.201000 155 138 157
-0.191417 0.685274 2.187000 152 138 162
-0.190279 0.685006 2.174000 149 140 156
-0.189054 0.684376 2.160000 149 139 151
-0.189054 0.688157 2.160000 150 137 150
-0.185553 0.679124 2.120000 149 136 149
-0.184415 0.678648 2.107000 149 137 146
-0.183365 0.678450 2.095000 149 136 144
-0.182227 0.677885 2.082000 150 138 142
-0.177938 0.665489 2.033000 149 139 141
-0.177938 0.669048 2.033000 148 140 144
-0.177938 0.672607 2.033000 151 139 148
-0.176888 0.672175 2.021000 154 140 146
-0.175838 0.671700 2.009000 151 138 144
-0.174875 0.671520 1.998000 148 139 145
-0.173825 0.670963 1.986000 150 139 147
-0.172862 0.670704 1.975000 152 140 145
-0.169011 0.659142 1.931000 149 138 144
-0.168048 0.658748 1.920000 145 137 144
-0.168048 0.662109 1.920000 146 136 145
-0.167085 0.661658 1.909000 147 136 143
-0.165247 0.657684 1.888000 146 135 142
-0.165247 0.660989 1.888000 144 135 146
-0.164372 0.660775 1.878000 146 135 150
-0.164372 0.664063 1.878000 147 135 146
-0.161746 0.656690 1.848000 149 132 142
-0.160871 0.656354 1.838000 151 132 141
-0.159996 0.655982 1.828000 150 132 141
-0.158333 0.652331 1.809000 149 133 140
-0.158333 0.655498 1.809000 147 133 140
-0.156670 0.651746 1.790000 145 134 140
-0.154307 0.645002 1.763000 148 135 141
-0.152731 0.641471 1.745000 152 137 140
-0.151943 0.641201 1.736000 151 134 139
-0.151243 0.641271 1.728000 151 133 136
-0.150455 0.640940 1.719000 150 131 134
-0.149755 0.640953 1.711000 149 131 137
-0.148968 0.640561 1.702000 148 130 141
-0.148267 0.640515 1.694000 148 131 139
-0.146779 0.637023 1.677000 148 130 137
-0.146079 0.636906 1.669000 147 131 136
-0.145379 0.636760 1.661000 148 131 136
-0.144679 0.636587 1.653000 149 131 137
-0.143979 0.636386 1.645000 151 133 138
-0.143366 0.636545 1.638000 153 136 139
-0.141966 0.633166 1.622000 151 134 140
-0.141353 0.633261 1.615000 149 133 142
-0.140653 0.632937 1.607000 146 132 144
-0.140040 0.632981 1.600000 143 133 141
-0.139340 0.632603 1.592000 143 131 138
-0.139340 0.635390 1.592000 143 132 138
-0.137502 0.629758 1.571000 141 129 138
-0.137502 0.632508 1.571000 139 128 138
-0.136802 0.632023 1.563000 141 131 139
-0.135576 0.629074 1.549000 144 133 137
-0.135576 0.631785 1.549000 139 132 135
-0.134964 0.631630 1.542000 135 131 136
-0.134964 0.634329 1.542000 142 129 138
-0.134438 0.634549 1.536000 150 129 143
-0.132600 0.628526 1.515000 148 128 149
-0.131463 0.625762 1.502000 147 127 143
-0.130325 0.622952 1.489000 147 128 137
-0.241026 0.727998 2.810000 153 135 149
-0.241026 0.732917 2.810000 155 136 147
-0.237167 0.726020 2.765000 158 137 146
-0.235280 0.725045 2.743000 155 138 146
-0.235280 0.729847 2.743000 152 138 147
-0.233478 0.729024 2.722000 151 139 147
-0.233478 0.733789 2.722000 150 137 147
-0.231677 0.732856 2.701000 151 137 148
-0.229876 0.731849 2.680000 152 137 151
-0.229876 0.736540 2.680000 151 136 154
-0.218039 0.703064 2.542000 151 134 152
-0.218039 0.707514 2.542000 151 132 150
-0.216409 0.706642 2.523000 151 134 151
-0.214865 0.705986 2.505000 151 138 153
-0.214865 0.710371 2.505000 151 137 150
-0.213321 0.709620 2.487000 153 135 147
-0.210233 0.703638 2.451000 156 136 146
-0.208775 0.703018 2.434000 153 138 145
-0.208775 0.707279 2.434000 151 138 147
-0.208775 0.711540 2.434000 151 137 150
-0.207317 0.710801 2.417000 151 137 149
-0.207317 0.715032 2.417000 152 138 149
-0.203028 0.704384 2.367000 153 137 149
-0.198997 0.694459 2.320000 153 136 150
-0.196338 0.689186 2.289000 154 139 149
-0.196338 0.693193 2.289000 154 140 149
-0.195051 0.692631 2.274000 155 138 150
-0.193765 0.692017 2.259000 154 137 151
-0.192478 0.691350 2.244000 153 137 151
-0.189991 0.686292 2.215000 153 136 151
-0.187589 0.681445 2.187000 153 137 154
-0.186474 0.681200 2.174000 152 138 156
-0.185273 0.680595 2.160000 151 137 152
-0.185273 0.684376 2.160000 149 136 148
-0.184158 0.684015 2.147000 148 135 147
-0.181842 0.679124 2.120000 146 134 146
-0.180727 0.678648 2.107000 145 134 145
-0.179698 0.678450 2.095000 147 134 144
-0.178583 0.677885 2.082000 149 134 142
-0.175409 0.669418 2.045000 148 140 141
-0.174380 0.669048 2.033000 147 138 143
-0.173350 0.668637 2.021000 152 138 145
-0.173350 0.672175 2.021000 157 137 145
-0.171378 0.668023 1.998000 151 136 145
-0.171378 0.671520 1.998000 145 136 148
-0.170348 0.670963 1.986000 150 141 150
-0.169405 0.670704 1.975000 155 139 147
-0.165631 0.659142 1.931000 149 138 144
-0.164687 0.658748 1.920000 143 136 144
-0.164687 0.662109 1.920000 145 135 145
-0.162886 0.658192 1.899000 148 135 143
-0.161942 0.657684 1.888000 147 135 141
-0.161085 0.657488 1.878000 146 135 143
-0.161085 0.660775 1.878000 147 136 145
-0.160227 0.660527 1.868000 148 134 141
-0.158511 0.656690 1.848000 149 133 137
-0.157654 0.656354 1.838000 150 132 138
-0.156796 0.655982 1.828000 150 133 139
-0.155166 0.652331 1.809000 150 133 139
-0.154394 0.652236 1.800000 149 135 138
-0.153536 0.651746 1.790000 149 135 139
-0.150449 0.641709 1.754000 152 134 140
-0.149677 0.641471 1.745000 155 132 140
-0.149677 0.644525 1.745000 153 133 139
-0.148905 0.644240 1.736000 151 133 139
-0.148218 0.644296 1.728000 151 131 140
-0.146760 0.640953 1.711000 152 130 139
-0.145302 0.637550 1.694000 150 129 139
-0.145302 0.640515 1.694000 149 129 136
-0.143844 0.637023 1.677000 148 128 134
-0.143158 0.636906 1.669000 147 129 134
-0.143158 0.639827 1.669000 147 130 135
-0.142472 0.639668 1.661000 148 130 136
-0.141785 0.639481 1.653000 148 133 138
-0.140499 0.636545 1.638000 148 134 139
-0.138526 0.630434 1.615000 148 135 140
-0.137840 0.630124 1.607000 148 133 143
-0.137840 0.632937 1.607000 146 132 146
-0.137239 0.632981 1.600000 144 132 142
-0.136553 0.632603 1.592000 143 131 139
-0.135953 0.632596 1.585000 142 130 138
-0.135352 0.632564 1.578000 139 130 137
-0.134752 0.632508 1.571000 136 129 137
-0.133465 0.629193 1.556000 142 131 138
-0.132865 0.629074 1.549000 148 132 136
-0.132264 0.628930 1.542000 144 132 135
-0.132264 0.631630 1.542000 141 130 137
-0.131750 0.631861 1.536000 148 129 139
-0.131750 0.634549 1.536000 155 129 142
-0.130549 0.631430 1.522000 151 129 145
-0.129434 0.628678 1.509000 148 127 141
-0.127204 0.620442 1.483000 148 129 137
-0.236107 0.727998 2.810000 152 136 149
-0.234259 0.727179 2.788000 153 136 148
-0.232326 0.726020 2.765000 155 138 147
-0.230478 0.725045 2.743000 153 137 147
-0.230478 0.729847 2.743000 151 138 148
-0.228713 0.729024 2.722000 150 137 149
-0.228713 0.733789 2.722000 149 137 148
-0.226949 0.732856 2.701000 150 137 147
-0.225184 0.731849 2.680000 152 137 149
-0.225184 0.736540 2.680000 150 136 151
-0.216782 0.713574 2.580000 149 135 150
-0.213589 0.707514 2.542000 149 133 149
-0.211993 0.706642 2.523000 149 134 148
-0.210480 0.705986 2.505000 148 137 148
-0.208968 0.705266 2.487000 147 139 146
-0.208968 0.709620 2.487000 149 136 145
-0.207455 0.708806 2.469000 151 135 143
-0.204514 0.703018 2.434000 150 136 142
-0.204514 0.707279 2.434000 149 137 146
-0.204514 0.711540 2.434000 150 135 150
-0.203086 0.710801 2.417000 150 135 151
-0.203086 0.715032 2.417000 151 137 152
-0.200313 0.709443 2.384000 151 140 150
-0.193591 0.689669 2.304000 152 138 149
-0.192331 0.689186 2.289000 153 139 148
-0.192331 0.693193 2.289000 153 138 147
-0.191071 0.692631 2.274000 154 138 146
-0.189810 0.692017 2.259000 153 137 146
-0.188550 0.691350 2.244000 152 137 148
-0.186113 0.686292 2.215000 152 136 150
-0.182668 0.677395 2.174000 153 137 150
-0.182668 0.681200 2.174000 153 137 151
-0.181492 0.680595 2.160000 154 136 148
-0.180400 0.680257 2.147000 151 135 145
-0.178131 0.675413 2.120000 149 136 144
-0.178131 0.679124 2.120000 148 133 144
-0.177039 0.678648 2.107000 147 132 144
-0.176030 0.678450 2.095000 150 130 144
-0.174938 0.677885 2.082000 152 125 143
-0.170821 0.665489 2.033000 150 133 142
-0.170821 0.669048 2.033000 149 137 142
-0.169813 0.668637 2.021000 151 136 142
-0.169813 0.672175 2.021000 154 135 144
-0.167880 0.668023 1.998000 150 134 147
-0.166872 0.667487 1.986000 147 129 150
-0.165947 0.667247 1.975000 149 135 154
-0.165023 0.666969 1.964000 151 139 149
-0.162250 0.659142 1.931000 148 136 144
-0.161326 0.658748 1.920000 145 136 144
-0.161326 0.662109 1.920000 146 134 145
-0.159562 0.658192 1.899000 147 134 143
-0.158637 0.657684 1.888000 147 135 141
-0.157797 0.657488 1.878000 148 136 141
-0.157797 0.660775 1.878000 150 133 141
-0.156957 0.660527 1.868000 152 132 136
-0.155276 0.656690 1.848000 150 131 132
-0.154436 0.656354 1.838000 149 131 135
-0.153596 0.655982 1.828000 149 132 138
-0.151999 0.652331 1.809000 148 134 137
-0.151243 0.652236 1.800000 147 135 137
-0.149647 0.648469 1.781000 146 137 138
-0.147378 0.641709 1.754000 148 132 140
-0.146622 0.641471 1.745000 151 125 140
-0.146622 0.644525 1.745000 150 131 140
-0.145866 0.644240 1.736000 149 135 143
-0.145193 0.644296 1.728000 148 132 146
-0.144437 0.643950 1.719000 148 130 142
-0.143009 0.640561 1.702000 147 129 138
-0.140908 0.634087 1.677000 146 129 134
-0.140908 0.637023 1.677000 146 128 131
-0.140236 0.636906 1.669000 145 129 133
-0.139564 0.636760 1.661000 146 129 135
-0.138892 0.636587 1.653000 147 129 136
-0.138892 0.639481 1.653000 146 131 138
-0.137631 0.636545 1.638000 145 134 139
-0.135699 0.630434 1.615000 146 133 140
-0.135027 0.630124 1.607000 147 133 144
-0.134438 0.630180 1.600000 145 132 148
-0.133766 0.629816 1.592000 143 134 144
-0.133178 0.629821 1.585000 142 131 141
-0.132590 0.629802 1.578000 141 130 139
-0.132002 0.629758 1.571000 139 129 137
-0.131330 0.629287 1.563000 138 129 137
-0.130741 0.629193 1.556000 141 130 137
-0.130153 0.629074 1.549000 144 132 136
-0.129565 0.628930 1.542000 141 130 136
-0.129565 0.631630 1.542000 139 129 138
-0.129061 0.631861 1.536000 144 130 141
-0.128473 0.631658 1.529000 149 132 141
-0.126792 0.626037 1.509000 147 128 142
-0.125700 0.623262 1.496000 145 126 139
-0.125112 0.622952 1.489000 145 127 137
-0.229379 0.727179 2.788000 151 136 149
-0.227486 0.726020 2.765000 152 136 149
-0.227486 0.730860 2.765000 151 135 148
-0.225676 0.729847 2.743000 151 136 148
-0.223949 0.729024 2.722000 149 137 148
-0.223949 0.733789 2.722000 148 136 146
-0.222221 0.732856 2.701000 150 137 144
-0.220493 0.731849 2.680000 152 137 147
-0.218765 0.730769 2.659000 150 138 149
-0.212266 0.713574 2.580000 148 135 148
-0.210620 0.712524 2.560000 147 133 147
-0.209139 0.711963 2.542000 147 134 145
-0.209139 0.716413 2.542000 145 137 144
-0.206095 0.710371 2.505000 143 137 145
-0.204614 0.709620 2.487000 145 137 147
-0.203133 0.708806 2.469000 147 135 145
-0.201652 0.707929 2.451000 147 135 143
-0.200254 0.707279 2.434000 148 135 146
-0.200254 0.711540 2.434000 149 134 150
-0.198855 0.710801 2.417000 150 135 150
-0.197456 0.710003 2.400000 150 138 151
-0.193425 0.699623 2.351000 150 138 150
-0.189558 0.689669 2.304000 151 139 148
-0.188324 0.689186 2.289000 152 138 146
-0.188324 0.693193 2.289000 152 138 144
-0.187090 0.692631 2.274000 153 137 144
-0.187090 0.696612 2.274000 152 136 145
-0.185856 0.695971 2.259000 152 136 147
-0.182236 0.686292 2.215000 152 137 149
-0.179932 0.681445 2.187000 153 137 149
-0.178863 0.681200 2.174000 155 137 150
-0.177711 0.680595 2.160000 157 135 148
-0.176641 0.680257 2.147000 154 135 146
-0.174420 0.675413 2.120000 151 134 145
-0.174420 0.679124 2.120000 150 133 145
-0.173350 0.678648 2.107000 150 131 145
-0.172363 0.678450 2.095000 153 130 145
-0.171293 0.677885 2.082000 156 129 144
-0.167262 0.665489 2.033000 153 130 143
-0.167262 0.669048 2.033000 151 133 143
-0.166275 0.668637 2.021000 151 135 144
-0.165287 0.668183 2.009000 151 135 146
-0.164794 0.669694 2.003000 150 136 148
-0.163395 0.667487 1.986000 149 133 150
-0.162490 0.667247 1.975000 148 134 152
-0.161585 0.666969 1.964000 148 135 147
-0.158870 0.659142 1.931000 148 134 143
-0.157965 0.658748 1.920000 148 134 143
-0.157965 0.662109 1.920000 147 134 143
-0.157060 0.661658 1.909000 146 133 141
-0.155332 0.657684 1.888000 148 135 139
-0.155332 0.660989 1.888000 150 134 141
-0.154510 0.660775 1.878000 153 131 143
-0.152864 0.656991 1.858000 156 131 139
-0.151219 0.653136 1.838000 152 131 136
-0.150396 0.652783 1.828000 149 132 137
-0.150396 0.655982 1.828000 148 133 139
-0.148833 0.652331 1.809000 147 134 136
-0.147270 0.648613 1.790000 145 136 133
-0.145048 0.641916 1.763000 143 135 136
-0.143567 0.638416 1.745000 145 133 140
-0.143567 0.641471 1.745000 147 131 139
-0.143567 0.644525 1.745000 147 132 139
-0.142827 0.644240 1.736000 147 133 140
-0.142169 0.644296 1.728000 146 132 142
-0.141428 0.643950 1.719000 145 130 140
-0.140030 0.640561 1.702000 144 130 139
-0.138713 0.637490 1.686000 144 129 136
-0.137973 0.637023 1.677000 144 129 134
-0.137315 0.636906 1.669000 144 129 135
-0.136656 0.636760 1.661000 145 130 137
-0.135998 0.636587 1.653000 146 130 138
-0.135998 0.639481 1.653000 144 131 138
-0.133448 0.630327 1.622000 143 132 139
-0.132872 0.630434 1.615000 144 133 139
-0.132214 0.630124 1.607000 146 132 142
-0.132214 0.632937 1.607000 144 131 144
-0.130979 0.629816 1.592000 142 131 142
-0.130404 0.629821 1.585000 141 131 141
-0.129828 0.629802 1.578000 141 130 138
-0.129828 0.632564 1.578000 140 130 136
-0.128594 0.629287 1.563000 140 130 135
-0.127442 0.626362 1.549000 140 131 134
-0.127442 0.629074 1.549000 141 131 135
-0.126866 0.628930 1.542000 139 130 136
-0.126866 0.631630 1.542000 137 130 137
-0.126372 0.631861 1.536000 140 130 139
-0.125796 0.631658 1.529000 144 130 139
-0.124151 0.626037 1.509000 143 128 140
-0.123081 0.623262 1.496000 142 127 138
-0.122012 0.620442 1.483000 142 127 135
-0.224498 0.727179 2.788000 151 136 151
-0.222646 0.726020 2.765000 153 136 150
-0.222646 0.730860 2.765000 151 135 150
-0.220875 0.729847 2.743000 150 135 148
-0.219184 0.729024 2.722000 149 135 147
-0.219184 0.733789 2.722000 148 136 144
-0.217493 0.732856 2.701000 149 137 142
-0.215802 0.731849 2.680000 151 138 145
-0.214111 0.730769 2.659000 148 136 148
-0.210890 0.724361 2.619000 146 136 147
-0.206139 0.712524 2.560000 146 134 146
-0.206139 0.717005 2.560000 146 132 143
-0.204690 0.716413 2.542000 145 134 140
-0.201710 0.710371 2.505000 145 135 144
-0.201710 0.714756 2.505000 146 135 149
-0.198811 0.708806 2.469000 148 135 147
-0.197362 0.707929 2.451000 149 135 145
-0.195993 0.707279 2.434000 149 135 147
-0.195993 0.711540 2.434000 149 134 150
-0.194624 0.710801 2.417000 150 136 150
-0.193255 0.710003 2.400000 149 136 151
-0.190598 0.704384 2.367000 149 135 149
-0.184317 0.685179 2.289000 150 137 148
-0.184317 0.689186 2.289000 151 138 145
-0.183109 0.688650 2.274000 153 138 142
-0.183109 0.692631 2.274000 154 137 143
-0.181902 0.692017 2.259000 152 136 144
-0.180694 0.691350 2.244000 149 136 146
-0.177231 0.681955 2.201000 150 138 149
-0.176104 0.681445 2.187000 151 140 149
-0.175057 0.681200 2.174000 152 137 149
-0.173930 0.680595 2.160000 154 134 148
-0.172883 0.680257 2.147000 151 134 148
-0.170709 0.675413 2.120000 149 134 147
-0.170709 0.679124 2.120000 146 132 146
-0.168696 0.674783 2.095000 144 132 146
-0.167649 0.674240 2.082000 148 132 146
-0.165636 0.669745 2.057000 152 133 145
-0.164670 0.669418 2.045000 150 132 145
-0.163703 0.669048 2.033000 148 133 145
-0.162737 0.668637 2.021000 150 134 146
-0.162737 0.672175 2.021000 151 137 147
-0.161771 0.671700 2.009000 151 136 149
-0.159919 0.667487 1.986000 151 136 149
-0.159033 0.667247 1.975000 148 135 150
-0.158147 0.666969 1.964000 146 134 146
-0.155490 0.659142 1.931000 146 134 143
-0.154604 0.658748 1.920000 146 135 142
-0.154604 0.662109 1.920000 146 133 142
-0.153718 0.661658 1.909000 147 131 139
-0.152028 0.657684 1.888000 148 134 137
-0.151222 0.657488 1.878000 149 137 141
-0.150417 0.657257 1.868000 150 134 146
-0.148807 0.653455 1.848000 152 133 143
-0.148807 0.656690 1.848000 148 132 140
-0.148001 0.656354 1.838000 144 133 140
-0.146471 0.652753 1.819000 145 133 140
-0.145666 0.652331 1.809000 147 135 135
-0.144136 0.648613 1.790000 146 134 130
-0.141962 0.641916 1.763000 145 135 135
-0.140835 0.639880 1.749000 146 134 140
-0.140513 0.641471 1.745000 147 134 139
-0.140513 0.644525 1.745000 146 133 138
-0.139788 0.644240 1.736000 146 135 138
-0.139144 0.644296 1.728000 144 132 139
-0.138419 0.643950 1.719000 143 131 139
-0.137050 0.640561 1.702000 142 131 140
-0.135762 0.637490 1.686000 141 131 138
-0.135037 0.637023 1.677000 142 129 137
-0.135037 0.639958 1.677000 144 129 138
-0.133749 0.636760 1.661000 145 130 140
-0.133105 0.636587 1.653000 146 131 139
-0.133105 0.639481 1.653000 146 131 139
-0.130608 0.630327 1.622000 147 132 139
-0.130045 0.630434 1.615000 146 133 139
-0.129401 0.630124 1.607000 146 134 140
-0.128837 0.630180 1.600000 144 131 141
-0.128193 0.629816 1.592000 142 130 141
-0.127629 0.629821 1.585000 141 129 141
-0.127065 0.629802 1.578000 141 130 138
-0.126502 0.629758 1.571000 140 129 136
-0.125294 0.626469 1.556000 140 131 133
-0.124730 0.626362 1.549000 141 130 131
-0.124730 0.629074 1.549000 141 131 133
-0.124730 0.631785 1.549000 140 130 136
-0.124167 0.631630 1.542000 140 131 136
-0.124167 0.634329 1.542000 142 130 137
-0.123683 0.634549 1.536000 145 130 138
-0.120946 0.623133 1.502000 143 128 139
-0.120462 0.623262 1.496000 142 127 136
-0.119416 0.620442 1.483000 142 127 134
-0.219618 0.727179 2.788000 152 134 150
-0.219618 0.732059 2.788000 154 135 149
-0.219618 0.736940 2.788000 152 137 149
-0.217806 0.735700 2.765000 150 135 148
-0.216073 0.734648 2.743000 149 133 148
-0.214419 0.733789 2.722000 149 135 149
-0.212765 0.732856 2.701000 149 137 150
-0.209456 0.726115 2.659000 150 136 149
-0.209456 0.730769 2.659000 147 135 149
-0.206305 0.724361 2.619000 145 135 148
-0.201658 0.712524 2.560000 145 135 147
-0.201658 0.717005 2.560000 146 134 145
-0.200240 0.716413 2.542000 146 134 143
-0.198743 0.715475 2.523000 147 135 147
-0.195907 0.709620 2.487000 148 134 151
-0.194489 0.708806 2.469000 150 134 147
-0.193071 0.707929 2.451000 150 135 143
-0.193071 0.712219 2.451000 151 134 146
-0.190393 0.706570 2.417000 150 134 149
-0.190393 0.710801 2.417000 150 135 149
-0.189054 0.710003 2.400000 149 135 149
-0.185194 0.699623 2.351000 149 135 148
-0.180310 0.685179 2.289000 150 137 147
-0.179129 0.684670 2.274000 151 138 143
-0.179129 0.688650 2.274000 153 139 140
-0.179129 0.692631 2.274000 156 136 142
-0.177947 0.692017 2.259000 151 136 145
-0.177947 0.695971 2.259000 147 137 147
-0.174481 0.686292 2.215000 148 140 149
-0.172275 0.681445 2.187000 150 139 150
-0.171251 0.681200 2.174000 150 137 150
-0.170149 0.680595 2.160000 151 135 150
-0.169125 0.680257 2.147000 149 135 150
-0.166998 0.675413 2.120000 147 134 147
-0.166998 0.679124 2.120000 143 132 145
-0.165974 0.678648 2.107000 139 133 145
-0.165028 0.678450 2.095000 143 133 145
-0.162035 0.669745 2.057000 148 134 147
-0.161090 0.669418 2.045000 147 134 149
-0.160144 0.669048 2.033000 146 133 145
-0.159199 0.668637 2.021000 149 133 141
-0.159199 0.672175 2.021000 152 135 144
-0.158254 0.671700 2.009000 153 135 148
-0.156442 0.667487 1.986000 154 135 149
-0.155576 0.667247 1.975000 149 136 150
-0.154709 0.666969 1.964000 144 134 146
-0.152110 0.659142 1.931000 144 135 142
-0.151243 0.658748 1.920000 145 134 141
-0.151243 0.662109 1.920000 146 133 140
-0.150377 0.661658 1.909000 148 132 139
-0.148722 0.657684 1.888000 148 133 138
-0.147147 0.653987 1.868000 149 135 140
-0.146359 0.653738 1.858000 148 135 143
-0.145572 0.653455 1.848000 148 133 142
-0.144784 0.653136 1.838000 144 132 141
-0.143996 0.652783 1.828000 140 131 141
-0.143287 0.652753 1.819000 143 133 141
-0.142499 0.652331 1.809000 147 133 138
-0.141003 0.648613 1.790000 147 133 136
-0.139585 0.645192 1.772000 147 134 140
-0.138167 0.641709 1.754000 147 135 144
-0.137773 0.642941 1.749000 147 133 140
-0.137458 0.644525 1.745000 146 133 137
-0.136749 0.644240 1.736000 145 132 137
-0.136119 0.644296 1.728000 143 130 138
-0.135410 0.643950 1.719000 141 131 139
-0.134071 0.640561 1.702000 139 132 141
-0.133441 0.640515 1.694000 138 130 139
-0.132101 0.637023 1.677000 141 128 138
-0.132101 0.639958 1.677000 144 129 138
-0.131471 0.639827 1.669000 145 130 138
-0.130211 0.636587 1.653000 146 131 139
-0.130211 0.639481 1.653000 148 132 139
-0.127769 0.630327 1.622000 151 132 140
-0.127218 0.630434 1.615000 149 133 140
-0.126587 0.630124 1.607000 147 132 140
-0.126587 0.632937 1.607000 145 130 141
-0.125406 0.629816 1.592000 143 129 140
-0.124854 0.629821 1.585000 142 127 140
-0.124303 0.629802 1.578000 141 128 138
-0.123752 0.629758 1.571000 141 128 137
-0.123121 0.629287 1.563000 141 128 135
-0.122019 0.626362 1.549000 141 129 133
-0.122019 0.629074 1.549000 142 129 134
-0.122019 0.631785 1.549000 142 129 136
-0.121467 0.631630 1.542000 143 129 136
-0.121467 0.634329 1.542000 144 130 136
-0.119340 0.625874 1.515000 146 130 137
-0.118316 0.623133 1.502000 144 129 138
-0.117844 0.623262 1.496000 142 128 136
-0.117292 0.622952 1.489000 142 127 134
-0.216432 0.727998 2.810000 149 135 148
-0.214737 0.727179 2.788000 150 135 150
-0.212966 0.726020 2.765000 152 136 149
-0.212966 0.730860 2.765000 149 136 148
-0.212966 0.735700 2.765000 147 136 149
-0.211271 0.734648 2.743000 148 134 150
-0.209654 0.733789 2.722000 149 136 154
-0.208037 0.732856 2.701000 150 136 158
-0.204802 0.726115 2.659000 151 136 154
-0.203261 0.725272 2.639000 149 135 151
-0.200180 0.718829 2.599000 147 136 149
-0.198717 0.718090 2.580000 147 135 148
-0.197176 0.717005 2.560000 147 135 147
-0.197176 0.721486 2.560000 148 135 146
-0.195790 0.720863 2.542000 149 137 150
-0.192940 0.714756 2.505000 149 135 154
-0.191554 0.713973 2.487000 149 135 147
-0.188781 0.707929 2.451000 150 135 141
-0.188781 0.712219 2.451000 150 135 144
-0.186162 0.706570 2.417000 149 135 148
-0.186162 0.710801 2.417000 148 136 147
-0.184853 0.710003 2.400000 147 136 147
-0.182311 0.704384 2.367000 147 136 146
-0.176303 0.685179 2.289000 148 136 146
-0.176303 0.689186 2.289000 149 139 142
-0.175148 0.688650 2.274000 151 137 138
-0.173993 0.688062 2.259000 154 135 142
-0.172837 0.687422 2.244000 151 135 147
-0.171759 0.687036 2.230000 149 137 148
-0.169526 0.681955 2.201000 150 138 150
-0.168447 0.681445 2.187000 151 140 151
-0.167446 0.681200 2.174000 151 137 152
-0.166368 0.680595 2.160000 151 136 152
-0.165366 0.680257 2.147000 150 136 152
-0.164288 0.679555 2.133000 150 137 148
-0.163287 0.679124 2.120000 146 136 144
-0.162285 0.678648 2.107000 143 137 144
-0.161361 0.678450 2.095000 146 136 145
-0.159359 0.673652 2.069000 148 138 149
-0.158434 0.673346 2.057000 147 135 154
-0.156586 0.669048 2.033000 146 133 145
-0.155662 0.668637 2.021000 148 134 137
-0.155662 0.672175 2.021000 151 137 142
-0.154737 0.671700 2.009000 151 136 147
-0.152966 0.667487 1.986000 151 134 148
-0.152119 0.667247 1.975000 147 134 150
-0.149500 0.659158 1.941000 143 134 146
-0.148730 0.659142 1.931000 142 134 142
-0.148730 0.662522 1.931000 140 135 140
-0.147882 0.662109 1.920000 143 133 139
-0.147882 0.665470 1.920000 147 134 139
-0.145418 0.657684 1.888000 147 134 140
-0.143877 0.653987 1.868000 148 137 140
-0.143107 0.653738 1.858000 148 135 140
-0.142337 0.653455 1.848000 149 133 141
-0.140796 0.649583 1.828000 147 131 142
-0.140796 0.652783 1.828000 145 129 142
-0.139333 0.649164 1.809000 147 131 142
-0.138640 0.649086 1.800000 150 132 142
-0.137869 0.648613 1.790000 148 133 142
-0.136483 0.645192 1.772000 147 134 145
-0.135790 0.645002 1.763000 147 133 149
-0.135097 0.644779 1.754000 147 132 142
-0.134712 0.646003 1.749000 146 132 136
-0.133710 0.644240 1.736000 146 131 137
-0.133094 0.644296 1.728000 144 131 138
-0.133094 0.647321 1.728000 142 133 140
-0.131091 0.640561 1.702000 141 131 142
-0.130475 0.640515 1.694000 141 129 141
-0.129859 0.640442 1.686000 142 128 140
-0.129859 0.643393 1.686000 144 129 138
-0.128550 0.639827 1.669000 145 130 137
-0.127934 0.639668 1.661000 146 132 138
-0.126162 0.633678 1.638000 147 132 140
-0.124391 0.627607 1.615000 149 134 141
-0.124391 0.630434 1.615000 148 132 142
-0.123774 0.630124 1.607000 146 131 141
-0.123774 0.632937 1.607000 146 129 141
-0.123235 0.632981 1.600000 147 129 140
-0.122080 0.629821 1.585000 145 128 139
-0.121541 0.629802 1.578000 143 128 138
-0.121002 0.629758 1.571000 143 128 138
-0.120385 0.629287 1.563000 144 127 136
-0.119307 0.626362 1.549000 143 128 135
-0.119307 0.629074 1.549000 142 128 135
-0.119307 0.631785 1.549000 143 128 136
-0.118768 0.631630 1.542000 144 128 135
-0.118306 0.631861 1.536000 146 129 135
-0.116688 0.625874 1.515000 148 131 136
-0.115225 0.620643 1.496000 145 129 137
-0.114686 0.620346 1.489000 143 129 136
-0.114224 0.620442 1.483000 143 127 135
-0.210685 0.725148 2.799000 149 135 149
-0.209857 0.727179 2.788000 149 137 152
-0.208126 0.726020 2.765000 150 136 150
-0.208126 0.730860 2.765000 147 138 147
-0.208126 0.735700 2.765000 144 134 147
-0.206470 0.734648 2.743000 146 133 146
-0.204889 0.733789 2.722000 149 135 149
-0.203308 0.732856 2.701000 151 137 152
-0.200147 0.726115 2.659000 153 135 150
-0.198641 0.725272 2.639000 151 136 148
-0.195631 0.718829 2.599000 149 135 148
-0.194200 0.718090 2.580000 149 134 148
-0.194200 0.722607 2.580000 149 135 146
-0.192695 0.721486 2.560000 150 136 144
-0.189910 0.715475 2.523000 152 135 147
-0.188555 0.714756 2.505000 150 135 151
-0.185845 0.708806 2.469000 149 135 147
-0.184490 0.707929 2.451000 149 135 143
-0.183211 0.707279 2.434000 150 136 147
-0.181931 0.706570 2.417000 148 137 151
-0.180652 0.705802 2.400000 147 136 147
-0.179447 0.705270 2.384000 146 137 144
-0.176963 0.699623 2.351000 145 135 144
-0.172296 0.685179 2.289000 146 132 144
-0.172296 0.689186 2.289000 147 135 140
-0.171167 0.688650 2.274000 150 137 137
-0.170038 0.688062 2.259000 153 136 141
-0.168909 0.687422 2.244000 152 135 146
-0.167855 0.687036 2.230000 151 136 148
-0.165673 0.681955 2.201000 151 138 151
-0.164619 0.681445 2.187000 152 139 152
-0.163640 0.681200 2.174000 152 138 153
-0.162586 0.680595 2.160000 152 137 152
-0.161608 0.680257 2.147000 152 136 152
-0.159576 0.675413 2.120000 153 137 148
-0.159576 0.679124 2.120000 150 138 144
-0.158597 0.678648 2.107000 148 137 143
-0.157694 0.678450 2.095000 148 138 143
-0.155737 0.673652 2.069000 149 137 146
-0.155737 0.677274 2.069000 148 136 149
-0.153027 0.669048 2.033000 147 134 144
-0.152124 0.668637 2.021000 148 133 139
-0.152124 0.672175 2.021000 150 136 143
-0.151220 0.671700 2.009000 149 138 147
-0.150392 0.671520 1.998000 148 134 150
-0.149489 0.670963 1.986000 145 132 154
-0.146930 0.662893 1.952000 143 133 147
-0.145349 0.659142 1.931000 139 135 141
-0.145349 0.662522 1.931000 136 134 139
-0.144521 0.662109 1.920000 141 133 137
-0.144521 0.665470 1.920000 146 133 141
-0.141360 0.654201 1.878000 146 134 145
-0.139854 0.650486 1.858000 147 133 141
-0.139854 0.653738 1.858000 148 135 138
-0.139102 0.653455 1.848000 150 133 139
-0.137596 0.649583 1.828000 150 130 141
-0.137596 0.652783 1.828000 150 131 141
-0.136166 0.649164 1.809000 151 132 142
-0.136166 0.652331 1.809000 153 132 142
-0.134059 0.645352 1.781000 150 133 142
-0.133381 0.645192 1.772000 148 133 143
-0.132704 0.645002 1.763000 147 132 144
-0.132026 0.644779 1.754000 147 132 140
-0.132026 0.647850 1.754000 147 133 136
-0.130671 0.644240 1.736000 148 131 137
-0.130069 0.644296 1.728000 145 130 138
-0.129392 0.643950 1.719000 143 130 139
-0.128112 0.640561 1.702000 143 131 141
-0.128112 0.643540 1.702000 144 129 140
-0.127510 0.643480 1.694000 144 127 139
-0.126908 0.643393 1.686000 144 128 136
-0.126230 0.642894 1.677000 145 129 133
-0.125026 0.639668 1.661000 146 130 136
-0.122693 0.630583 1.630000 147 133 139
-0.121563 0.627607 1.615000 148 133 139
-0.121563 0.630434 1.615000 147 133 140
-0.120961 0.630124 1.607000 146 132 139
-0.120961 0.632937 1.607000 148 129 138
-0.120434 0.632981 1.600000 151 128 138
-0.119305 0.629821 1.585000 148 128 139
-0.118778 0.629802 1.578000 145 129 139
-0.118778 0.632564 1.578000 146 130 140
-0.117649 0.629287 1.563000 147 128 137
-0.116596 0.626362 1.549000 144 129 134
-0.116596 0.629074 1.549000 142 128 135
-0.116596 0.631785 1.549000 144 127 136
-0.116069 0.631630 1.542000 146 128 134
-0.115617 0.631861 1.536000 148 130 132
-0.114036 0.625874 1.515000 151 129 137
-0.112606 0.620643 1.496000 147 129 142
-0.112079 0.620346 1.489000 144 128 138
-0.111628 0.620442 1.483000 144 126 135
-0.204977 0.722299 2.788000 149 136 151
-0.203286 0.721180 2.765000 150 135 155
-0.203286 0.726020 2.765000 152 136 151
-0.203286 0.730860 2.765000 149 135 147
-0.203286 0.735700 2.765000 146 132 145
-0.201668 0.734648 2.743000 147 133 143
-0.200124 0.733789 2.722000 148 134 144
-0.198580 0.732856 2.701000 149 135 146
-0.195492 0.726115 2.659000 150 134 145
-0.191081 0.714279 2.599000 150 135 145
-0.189684 0.713574 2.580000 149 137 146
-0.188214 0.712524 2.560000 149 135 148
-0.188214 0.717005 2.560000 148 136 145
-0.188214 0.721486 2.560000 149 135 142
-0.186890 0.720863 2.542000 151 135 145
-0.184170 0.714756 2.505000 150 135 148
-0.181523 0.708806 2.469000 149 135 146
-0.178950 0.703018 2.434000 151 135 145
-0.177700 0.702339 2.417000 153 137 149
-0.176450 0.701601 2.400000 148 136 154
-0.176450 0.705802 2.400000 144 137 148
-0.175274 0.705270 2.384000 144 136 142
-0.174024 0.704384 2.367000 145 135 142
-0.168290 0.685179 2.289000 146 133 143
-0.168290 0.689186 2.289000 147 134 139
-0.167187 0.688650 2.274000 149 136 136
-0.166084 0.688062 2.259000 152 137 140
-0.164981 0.687422 2.244000 150 135 145
-0.163952 0.687036 2.230000 148 135 148
-0.161820 0.681955 2.201000 150 138 152
-0.160790 0.681445 2.187000 153 142 153
-0.159835 0.681200 2.174000 152 139 155
-0.158805 0.680595 2.160000 152 138 153
-0.157850 0.680257 2.147000 151 137 152
-0.156820 0.679555 2.133000 151 137 148
-0.155865 0.679124 2.120000 149 137 145
-0.155865 0.682835 2.120000 148 137 143
-0.154909 0.682336 2.107000 148 137 141
-0.153071 0.677885 2.082000 149 137 143
-0.152115 0.677274 2.069000 146 135 145
-0.151233 0.676947 2.057000 143 134 143
-0.148586 0.668637 2.021000 146 134 141
-0.148586 0.672175 2.021000 148 137 144
-0.147704 0.671700 2.009000 146 135 148
-0.145204 0.663790 1.975000 143 133 153
-0.145204 0.667247 1.975000 143 133 158
-0.142704 0.659158 1.941000 143 134 149
-0.141969 0.659142 1.931000 141 134 141
-0.141160 0.658748 1.920000 139 133 138
-0.141160 0.662109 1.920000 143 132 135
-0.140352 0.661658 1.909000 146 132 142
-0.138808 0.657684 1.888000 146 132 150
-0.136602 0.650486 1.858000 147 129 143
-0.136602 0.653738 1.858000 148 133 136
-0.135867 0.653455 1.848000 149 134 138
-0.134396 0.649583 1.828000 149 132 141
-0.133735 0.649569 1.819000 150 133 141
-0.133000 0.649164 1.809000 149 133 142
-0.133000 0.652331 1.809000 148 134 142
-0.130941 0.645352 1.781000 147 133 142
-0.130279 0.645192 1.772000 147 133 141
-0.129618 0.645002 1.763000 147 132 140
-0.128956 0.644779 1.754000 147 133 138
-0.128294 0.644525 1.745000 148 133 136
-0.127632 0.644240 1.736000 150 133 137
-0.127044 0.644296 1.728000 147 130 139
-0.127044 0.647321 1.728000 144 129 139
-0.125133 0.640561 1.702000 144 129 140
-0.124545 0.640515 1.694000 144 129 139
-0.124545 0.643480 1.694000 144 129 138
-0.123956 0.643393 1.686000 144 130 134
-0.123295 0.642894 1.677000 147 129 130
-0.122118 0.639668 1.661000 149 127 134
-0.119839 0.630583 1.630000 148 130 138
-0.119251 0.630327 1.622000 148 133 138
-0.118736 0.630434 1.615000 146 134 139
-0.118148 0.630124 1.607000 145 136 137
-0.118148 0.632937 1.607000 147 130 136
-0.117634 0.632981 1.600000 149 127 137
-0.116531 0.629821 1.585000 147 129 139
-0.116016 0.629802 1.578000 145 133 141
-0.115502 0.629758 1.571000 145 130 143
-0.114913 0.629287 1.563000 145 129 138
-0.114105 0.627575 1.552000 142 129 134
-0.113884 0.629074 1.549000 140 129 135
-0.113884 0.631785 1.549000 142 129 137
-0.113369 0.631630 1.542000 144 129 133
-0.113369 0.634329 1.542000 146 129 130
-0.110943 0.623395 1.509000 147 129 138
-0.109987 0.620643 1.496000 145 128 147
-0.109473 0.620346 1.489000 144 129 141
