ply
format ascii 1.0
element vertex 1272
property float x
property float y
property float z
property uchar red
property uchar green
property uchar blue
end_header
1.067353 -0.957317 3.143000 112 66 37
1.067353 -0.951815 3.143000 110 67 31
1.067353 -0.946313 3.143000 109 71 28
1.067353 -0.940812 3.143000 107 70 25
1.067353 -0.935310 3.143000 105 68 27
1.067353 -0.929808 3.143000 107 68 30
1.067353 -0.924306 3.143000 110 67 27
1.067353 -0.918804 3.143000 107 68 25
1.057845 -0.905166 3.115000 105 68 22
1.057845 -0.899713 3.115000 108 66 19
1.057845 -0.894260 3.115000 112 67 23
1.057845 -0.888808 3.115000 114 67 27
1.057845 -0.883355 3.115000 116 68 35
1.057845 -0.877902 3.115000 114 67 44
1.057845 -0.872449 3.115000 113 66 39
1.057845 -0.866997 3.115000 111 66 34
1.057845 -0.861544 3.115000 109 65 32
1.057845 -0.856091 3.115000 112 65 30
1.057845 -0.850638 3.115000 115 65 31
1.057845 -0.845185 3.115000 116 67 32
1.057845 -0.839732 3.115000 117 71 27
1.057845 -0.834280 3.115000 116 68 22
1.057845 -0.828827 3.115000 115 65 29
1.057845 -0.823374 3.115000 115 63 37
1.057845 -0.817921 3.115000 115 59 37
1.057845 -0.812468 3.115000 115 63 37
1.067353 -0.814270 3.143000 115 69 29
1.067353 -0.808768 3.143000 113 68 21
1.057845 -0.796110 3.115000 110 69 28
1.057845 -0.790657 3.115000 113 69 35
1.057845 -0.785204 3.115000 115 70 34
1.057845 -0.779752 3.115000 117 68 34
1.057845 -0.774299 3.115000 118 69 30
1.057845 -0.768846 3.115000 117 71 26
1.057845 -0.763393 3.115000 115 72 34
1.057845 -0.757940 3.115000 115 70 42
1.067353 -0.759251 3.143000 114 68 39
1.067353 -0.753750 3.143000 113 70 36
1.067353 -0.748248 3.143000 112 72 38
1.067353 -0.742746 3.143000 114 70 41
1.067353 -0.737244 3.143000 115 69 37
1.067353 -0.731742 3.143000 115 69 34
1.057845 -0.719771 3.115000 116 68 34
1.057845 -0.714318 3.115000 115 71 34
1.057845 -0.708865 3.115000 115 72 33
1.057845 -0.703412 3.115000 115 72 33
1.057845 -0.697959 3.115000 116 70 35
1.057845 -0.692507 3.115000 115 72 38
1.057845 -0.687054 3.115000 114 76 31
1.057845 -0.681601 3.115000 115 76 24
1.057845 -0.676148 3.115000 116 77 37
1.057845 -0.670695 3.115000 114 76 51
1.057845 -0.665243 3.115000 112 76 48
1.057845 -0.659790 3.115000 113 73 45
1.057845 -0.654337 3.115000 115 71 44
1.057845 -0.648884 3.115000 116 71 44
1.057845 -0.643431 3.115000 117 72 43
1.057845 -0.637978 3.115000 116 71 43
1.057845 -0.632526 3.115000 116 71 36
1.057845 -0.627073 3.115000 115 73 30
1.057845 -0.621620 3.115000 115 74 25
1.057845 -0.616167 3.115000 115 70 21
1.057845 -0.610714 3.115000 115 67 29
1.057845 -0.605262 3.115000 115 69 37
1.057845 -0.599809 3.115000 116 71 38
1.057845 -0.594356 3.115000 118 72 39
1.048336 -0.583610 3.087000 120 72 39
1.057845 -0.583450 3.115000 118 74 40
1.057845 -0.577998 3.115000 115 73 36
1.057845 -0.572545 3.115000 115 74 32
1.057845 -0.567092 3.115000 114 73 33
1.048336 -0.556591 3.087000 117 74 34
1.057845 -0.556186 3.115000 119 76 36
1.048336 -0.545783 3.087000 116 75 38
1.048336 -0.540379 3.087000 112 76 37
1.057845 -0.539828 3.115000 117 74 36
1.057845 -0.534375 3.115000 122 71 34
1.057845 -0.528922 3.115000 120 70 32
1.048336 -0.518764 3.087000 119 69 29
1.048336 -0.513360 3.087000 119 72 27
1.048336 -0.507957 3.087000 119 75 31
1.048336 -0.502553 3.087000 118 74 36
1.038827 -0.492640 3.059000 116 76 36
1.048336 -0.491745 3.087000 117 76 37
1.038827 -0.481930 3.059000 119 76 39
1.038827 -0.476575 3.059000 120 73 42
1.038827 -0.471221 3.059000 121 71 43
1.038827 -0.465866 3.059000 119 74 44
1.038827 -0.460511 3.059000 118 76 43
1.038827 -0.455156 3.059000 118 75 43
1.048336 -0.453919 3.087000 119 75 42
1.038827 -0.444447 3.059000 120 74 42
1.048336 -0.443111 3.087000 122 75 36
1.038827 -0.433737 3.059000 122 76 30
1.038827 -0.428382 3.059000 122 77 36
1.038827 -0.423028 3.059000 124 78 43
1.038827 -0.417673 3.059000 126 80 46
1.038827 -0.412318 3.059000 122 78 49
1.038827 -0.406963 3.059000 119 77 48
1.038827 -0.401608 3.059000 121 77 47
1.038827 -0.396254 3.059000 122 78 47
1.038827 -0.390899 3.059000 123 77 47
1.038827 -0.385544 3.059000 123 76 50
1.038827 -0.380189 3.059000 125 75 53
1.048336 -0.378266 3.087000 126 74 47
1.048336 -0.372862 3.087000 124 76 42
1.048336 -0.367458 3.087000 123 78 44
1.048336 -0.362054 3.087000 123 77 47
1.048336 -0.356650 3.087000 123 77 45
1.057845 -0.354432 3.115000 123 78 44
1.057845 -0.348980 3.115000 124 78 43
1.048336 -0.340439 3.087000 123 78 43
1.048336 -0.335035 3.087000 123 78 40
1.048336 -0.329631 3.087000 124 79 37
1.038827 -0.321287 3.059000 126 80 44
1.038827 -0.315932 3.059000 125 79 52
1.038827 -0.310577 3.059000 123 79 46
1.038827 -0.305222 3.059000 122 79 41
1.038827 -0.299868 3.059000 122 79 41
1.038827 -0.294513 3.059000 121 78 42
1.038827 -0.289158 3.059000 121 78 39
1.048336 -0.286401 3.087000 121 77 37
1.048336 -0.280997 3.087000 121 78 39
1.048336 -0.275593 3.087000 121 76 42
1.038827 -0.267739 3.059000 122 74 43
1.038827 -0.262384 3.059000 122 74 44
1.038827 -0.257029 3.059000 123 74 42
1.038827 -0.251675 3.059000 123 75 40
1.048336 -0.248574 3.087000 123 76 43
1.038827 -0.240965 3.059000 122 76 47
1.038827 -0.235610 3.059000 122 76 39
1.038827 -0.230255 3.059000 121 78 31
1.029998 -0.222989 3.033000 120 79 29
1.029998 -0.217680 3.033000 121 79 27
1.029998 -0.212371 3.033000 122 79 29
1.029998 -0.207061 3.033000 121 79 31
1.029998 -0.201752 3.033000 120 79 30
1.029998 -0.196443 3.033000 120 78 30
1.029998 -0.191134 3.033000 121 79 42
1.029998 -0.185824 3.033000 123 74 55
1.038827 -0.182063 3.059000 126 69 48
1.038827 -0.176708 3.059000 125 74 41
1.038827 -0.171353 3.059000 125 78 35
1.038827 -0.165998 3.059000 124 80 29
1.038827 -0.160643 3.059000 124 83 31
1.038827 -0.155289 3.059000 122 82 33
1.038827 -0.149934 3.059000 120 84 33
1.038827 -0.144579 3.059000 120 81 34
1.048336 -0.140499 3.087000 121 81 38
1.048336 -0.135095 3.087000 122 80 42
1.038827 -0.128515 3.059000 122 80 38
1.048336 -0.124287 3.087000 122 78 34
1.038827 -0.117805 3.059000 122 79 32
1.038827 -0.112450 3.059000 121 78 31
1.038827 -0.107096 3.059000 121 77 21
1.038827 -0.101741 3.059000 122 77 12
1.038827 -0.096386 3.059000 123 78 25
1.038827 -0.091031 3.059000 122 78 38
1.029998 -0.084948 3.033000 122 79 38
1.029998 -0.079639 3.033000 122 78 38
1.038827 -0.074967 3.059000 122 77 30
1.029998 -0.069020 3.033000 125 77 23
1.029998 -0.063711 3.033000 129 78 27
1.029998 -0.058402 3.033000 125 78 31
1.029998 -0.053093 3.033000 121 79 21
1.029998 -0.047783 3.033000 124 79 12
1.029998 -0.042474 3.033000 127 79 21
1.029998 -0.037165 3.033000 125 77 30
1.029998 -0.031856 3.033000 123 77 33
1.029998 -0.026546 3.033000 122 79 36
1.029998 -0.021237 3.033000 122 80 31
1.029998 -0.015928 3.033000 122 77 26
1.029998 -0.010618 3.033000 123 76 34
1.029998 -0.005309 3.033000 124 77 43
1.038827 -0.000000 3.059000 124 78 43
1.038827 0.005355 3.059000 122 78 43
1.029998 0.010619 3.033000 120 78 41
1.029998 0.015928 3.033000 122 79 40
1.029998 0.021237 3.033000 125 81 36
1.029998 0.026546 3.033000 124 79 33
1.029998 0.031856 3.033000 124 78 27
1.029998 0.037165 3.033000 127 80 21
1.029998 0.042474 3.033000 129 81 25
1.029998 0.047783 3.033000 129 81 30
1.029998 0.053093 3.033000 129 82 34
1.029998 0.058402 3.033000 129 81 39
1.029998 0.063711 3.033000 130 81 31
1.029998 0.069020 3.033000 126 82 24
1.029998 0.074330 3.033000 122 83 34
1.029998 0.079639 3.033000 124 82 44
1.029998 0.084948 3.033000 127 83 42
1.029998 0.090258 3.033000 127 82 40
1.029998 0.095567 3.033000 128 80 45
1.029998 0.100876 3.033000 127 80 51
1.029998 0.106185 3.033000 126 80 47
1.029998 0.111495 3.033000 125 81 44
1.029998 0.116804 3.033000 125 82 39
1.029998 0.122113 3.033000 126 81 34
1.029998 0.127422 3.033000 127 80 37
1.029998 0.132732 3.033000 127 81 41
1.029998 0.138041 3.033000 128 83 41
1.029998 0.143350 3.033000 127 82 42
1.029998 0.148659 3.033000 126 82 42
1.038827 0.155289 3.059000 128 81 43
1.038827 0.160643 3.059000 131 80 42
1.048336 0.167518 3.087000 129 81 42
1.048336 0.172922 3.087000 126 82 44
1.048336 0.178325 3.087000 127 82 46
1.038827 0.182063 3.059000 128 82 46
1.038827 0.187417 3.059000 130 81 46
1.029998 0.191134 3.033000 132 81 45
1.029998 0.196443 3.033000 130 83 44
1.029998 0.201752 3.033000 128 86 43
1.029998 0.207061 3.033000 128 85 42
1.029998 0.212371 3.033000 128 84 36
1.029998 0.217680 3.033000 129 84 31
1.029998 0.222989 3.033000 131 83 34
1.029998 0.228298 3.033000 128 84 38
1.029998 0.233608 3.033000 126 87 37
1.029998 0.238917 3.033000 128 86 36
1.029998 0.244226 3.033000 129 85 39
1.029998 0.249536 3.033000 128 84 42
1.029998 0.254845 3.033000 127 84 42
1.029998 0.260154 3.033000 128 85 43
1.038827 0.267739 3.059000 130 86 41
1.029998 0.270773 3.033000 131 85 39
1.029998 0.276082 3.033000 132 84 43
1.029998 0.281391 3.033000 131 85 47
1.029998 0.286700 3.033000 131 86 50
1.029998 0.292010 3.033000 131 87 53
1.029998 0.297319 3.033000 131 88 51
1.029998 0.302628 3.033000 132 86 50
1.029998 0.307938 3.033000 133 85 51
1.029998 0.313247 3.033000 131 85 52
1.029998 0.318556 3.033000 130 86 41
1.029998 0.323865 3.033000 131 87 30
1.029998 0.329175 3.033000 133 88 36
1.029998 0.334484 3.033000 131 87 42
1.029998 0.339793 3.033000 129 87 53
1.029998 0.345102 3.033000 128 87 64
1.029998 0.350412 3.033000 128 87 56
1.029998 0.355721 3.033000 129 86 48
1.029998 0.361030 3.033000 130 85 51
1.029998 0.366339 3.033000 129 86 55
1.029998 0.371649 3.033000 129 87 45
1.029998 0.376958 3.033000 131 86 36
1.029998 0.382267 3.033000 132 85 49
1.029998 0.387577 3.033000 132 85 62
1.029998 0.392886 3.033000 132 87 57
1.038827 0.401609 3.059000 130 86 53
1.038827 0.406963 3.059000 128 87 52
1.038827 0.412318 3.059000 131 88 51
1.038827 0.417673 3.059000 135 90 50
1.038827 0.423028 3.059000 132 88 49
1.029998 0.424741 3.033000 130 88 55
1.029998 0.430051 3.033000 131 88 61
1.029998 0.435360 3.033000 132 91 55
1.029998 0.440669 3.033000 131 88 49
1.029998 0.445978 3.033000 130 87 49
1.029998 0.451288 3.033000 131 88 49
1.029998 0.456597 3.033000 132 91 51
1.029998 0.461906 3.033000 132 89 53
1.029998 0.467216 3.033000 132 89 51
1.029998 0.472525 3.033000 133 88 49
1.029998 0.477834 3.033000 134 89 48
1.029998 0.483143 3.033000 130 88 47
1.029998 0.488453 3.033000 126 90 54
1.029998 0.493762 3.033000 128 89 61
1.029998 0.499071 3.033000 129 90 58
1.029998 0.504380 3.033000 129 86 56
1.029998 0.509690 3.033000 128 85 53
1.029998 0.514999 3.033000 130 85 51
1.029998 0.520308 3.033000 132 85 53
1.029998 0.525617 3.033000 130 85 55
1.029998 0.530927 3.033000 128 86 51
1.029998 0.536236 3.033000 129 85 48
1.029998 0.541545 3.033000 131 84 51
1.029998 0.546855 3.033000 132 82 54
1.029998 0.552164 3.033000 132 83 51
1.029998 0.557473 3.033000 130 85 49
1.029998 0.562782 3.033000 129 87 48
1.029998 0.568092 3.033000 128 87 47
1.029998 0.573401 3.033000 127 88 49
1.029998 0.578710 3.033000 128 87 52
1.038827 0.589026 3.059000 130 86 50
1.029998 0.589329 3.033000 130 86 48
1.038827 0.599735 3.059000 131 85 46
1.029998 0.599947 3.033000 130 83 44
1.029998 0.605256 3.033000 130 81 45
1.029998 0.610566 3.033000 130 82 47
1.029998 0.615875 3.033000 130 83 47
1.029998 0.621184 3.033000 128 85 47
1.029998 0.626494 3.033000 127 87 50
1.029998 0.631803 3.033000 127 89 53
1.029998 0.637112 3.033000 126 91 51
1.029998 0.642421 3.033000 89 76 49
1.029998 0.647731 3.033000 51 43 29
1.029998 0.653040 3.033000 35 15 10
1.029998 0.658349 3.033000 18 9 10
1.029998 0.663658 3.033000 21 12 11
0.762056 0.687422 2.244000 120 100 88
0.762056 0.691350 2.244000 123 98 91
0.762056 0.695278 2.244000 124 98 94
0.762056 0.699206 2.244000 126 99 92
0.757301 0.698747 2.230000 125 98 90
0.747453 0.693513 2.201000 125 97 90
0.747453 0.697366 2.201000 125 95 91
0.742699 0.696759 2.187000 126 95 91
0.738284 0.696423 2.174000 124 94 92
0.733530 0.695719 2.160000 122 93 90
0.724360 0.690756 2.133000 124 94 89
0.719946 0.690257 2.120000 126 96 90
0.715531 0.689713 2.107000 125 97 91
0.715531 0.693401 2.107000 125 98 90
0.711456 0.693119 2.095000 124 98 89
0.711456 0.696787 2.095000 123 99 90
0.702626 0.691761 2.069000 126 99 92
0.694476 0.687316 2.045000 130 100 90
0.690401 0.686842 2.033000 128 100 88
0.686326 0.686326 2.021000 126 100 88
0.674440 0.677916 1.986000 128 97 89
0.670704 0.677619 1.975000 130 97 91
0.670704 0.681076 1.975000 126 98 93
0.666969 0.680721 1.964000 123 101 93
0.662893 0.679978 1.952000 123 101 94
0.659158 0.679544 1.941000 123 101 93
0.655762 0.679423 1.931000 123 99 92
0.652026 0.678914 1.920000 123 99 93
0.648291 0.678366 1.909000 124 100 95
0.644895 0.678137 1.899000 125 101 93
0.641159 0.677514 1.888000 125 99 91
0.637763 0.677213 1.878000 125 98 91
0.630971 0.673253 1.858000 125 97 92
0.620783 0.665582 1.828000 126 100 90
0.617727 0.665489 1.819000 124 97 89
0.617727 0.668674 1.819000 122 97 87
0.614331 0.668164 1.809000 122 95 86
0.611275 0.667991 1.800000 122 96 90
0.611275 0.671142 1.800000 123 97 94
0.607879 0.670547 1.790000 125 99 93
0.595653 0.660131 1.754000 126 99 92
0.592597 0.659799 1.745000 127 99 92
0.589540 0.659435 1.736000 124 98 93
0.586824 0.659420 1.728000 121 97 95
0.581050 0.655928 1.711000 122 98 97
0.577994 0.655457 1.702000 124 100 97
0.575277 0.655342 1.694000 124 97 97
0.572561 0.655198 1.686000 124 96 95
0.569504 0.654636 1.677000 124 96 93
0.569504 0.657572 1.677000 125 96 92
0.566787 0.657357 1.669000 124 98 91
0.561354 0.653948 1.653000 124 101 98
0.558637 0.653663 1.645000 124 101 105
0.556260 0.653749 1.638000 125 101 102
0.553543 0.653409 1.630000 125 99 100
0.548449 0.650223 1.615000 126 99 98
0.545732 0.649815 1.607000 125 97 97
0.543355 0.649786 1.600000 124 97 97
0.535884 0.643613 1.578000 124 97 97
0.530790 0.640232 1.563000 124 98 96
0.530790 0.642968 1.563000 121 99 95
0.528413 0.642812 1.556000 119 100 95
0.526036 0.642631 1.549000 120 99 95
0.526036 0.645343 1.549000 122 99 94
0.523659 0.645126 1.542000 122 98 94
1.063298 -1.106920 3.115000 99 65 30
1.063298 -1.101467 3.115000 95 63 26
1.072855 -1.105866 3.143000 105 64 23
1.072855 -1.100364 3.143000 116 64 31
1.072855 -1.094863 3.143000 107 63 39
1.063298 -1.079656 3.115000 98 64 37
1.063298 -1.074203 3.115000 101 64 35
1.063298 -1.068750 3.115000 105 64 31
1.063298 -1.063298 3.115000 105 62 28
1.063298 -1.057845 3.115000 106 65 27
1.063298 -1.052392 3.115000 103 68 26
1.063298 -1.046939 3.115000 101 68 26
1.072855 -1.050848 3.143000 111 68 26
1.072855 -1.045346 3.143000 122 68 28
1.072855 -1.039844 3.143000 117 69 29
1.072855 -1.034343 3.143000 112 69 29
1.072855 -1.028841 3.143000 111 69 29
1.072855 -1.023339 3.143000 111 66 28
1.072855 -1.017837 3.143000 109 65 27
1.072855 -1.012335 3.143000 108 66 29
1.063298 -0.997864 3.115000 112 68 31
1.063298 -0.992411 3.115000 117 67 28
1.063298 -0.986958 3.115000 114 68 25
1.063298 -0.981505 3.115000 111 68 25
1.063298 -0.976053 3.115000 106 67 25
1.063298 -0.970600 3.115000 102 67 24
1.063298 -0.965147 3.115000 104 66 22
1.063298 -0.959694 3.115000 107 68 29
1.063298 -0.954241 3.115000 108 69 37
1.063298 -0.948789 3.115000 109 66 33
1.072855 -0.951815 3.143000 110 66 30
1.072855 -0.946313 3.143000 111 69 28
1.072855 -0.940812 3.143000 110 72 27
1.063298 -0.926977 3.115000 109 69 32
1.063298 -0.921525 3.115000 110 68 38
1.063298 -0.916072 3.115000 111 68 33
1.063298 -0.910619 3.115000 110 71 29
1.063298 -0.905166 3.115000 109 68 27
1.063298 -0.899713 3.115000 110 68 25
1.053740 -0.886222 3.087000 111 68 28
1.063298 -0.888808 3.115000 112 69 30
1.063298 -0.883355 3.115000 113 67 33
1.063298 -0.877902 3.115000 113 67 36
1.063298 -0.872449 3.115000 113 68 31
1.063298 -0.866997 3.115000 112 71 26
1.063298 -0.861544 3.115000 111 69 26
1.063298 -0.856091 3.115000 114 68 27
1.063298 -0.850638 3.115000 117 67 30
1.063298 -0.845185 3.115000 118 66 33
1.063298 -0.839732 3.115000 119 68 32
1.063298 -0.834280 3.115000 117 68 32
1.063298 -0.828827 3.115000 116 67 33
1.063298 -0.823374 3.115000 115 65 34
1.063298 -0.817921 3.115000 114 64 35
1.063298 -0.812468 3.115000 113 65 36
1.063298 -0.807016 3.115000 113 67 30
1.063298 -0.801563 3.115000 109 68 25
1.063298 -0.796110 3.115000 106 68 31
1.063298 -0.790657 3.115000 110 69 37
1.063298 -0.785204 3.115000 115 69 34
1.063298 -0.779752 3.115000 117 71 32
1.063298 -0.774299 3.115000 120 70 30
1.063298 -0.768846 3.115000 117 71 29
1.063298 -0.763393 3.115000 115 70 33
1.063298 -0.757940 3.115000 115 69 37
1.063298 -0.752487 3.115000 115 70 36
1.063298 -0.747035 3.115000 115 71 35
1.063298 -0.741582 3.115000 116 71 37
1.063298 -0.736129 3.115000 116 72 40
1.063298 -0.730676 3.115000 116 71 37
1.063298 -0.725223 3.115000 116 71 34
1.063298 -0.719771 3.115000 117 70 37
1.063298 -0.714318 3.115000 117 74 41
1.063298 -0.708865 3.115000 118 73 38
1.063298 -0.703412 3.115000 117 73 34
1.063298 -0.697959 3.115000 117 72 36
1.063298 -0.692507 3.115000 116 72 38
1.053740 -0.680878 3.087000 115 74 33
1.053740 -0.675474 3.087000 114 77 29
1.053740 -0.670070 3.087000 113 77 36
1.053740 -0.664667 3.087000 111 77 44
1.053740 -0.659263 3.087000 109 75 42
1.063298 -0.659790 3.115000 112 72 39
1.063298 -0.654337 3.115000 116 71 41
1.053740 -0.643051 3.087000 117 71 43
1.053740 -0.637648 3.087000 118 72 42
1.053740 -0.632244 3.087000 117 71 42
1.053740 -0.626840 3.087000 116 71 38
1.063298 -0.627073 3.115000 116 73 34
1.053740 -0.616032 3.087000 117 73 31
1.053740 -0.610629 3.087000 118 71 27
1.044182 -0.599735 3.059000 120 69 32
1.053740 -0.599821 3.087000 117 69 37
1.053740 -0.594417 3.087000 115 71 38
1.053740 -0.589014 3.087000 117 72 39
1.053740 -0.583610 3.087000 119 73 37
1.053740 -0.578206 3.087000 116 76 36
1.053740 -0.572802 3.087000 114 75 33
1.053740 -0.567398 3.087000 112 77 31
1.053740 -0.561994 3.087000 111 75 32
1.053740 -0.556591 3.087000 114 73 32
1.053740 -0.551187 3.087000 117 75 31
1.053740 -0.545783 3.087000 112 74 29
1.044182 -0.535478 3.059000 107 74 34
1.053740 -0.534976 3.087000 116 74 39
1.053740 -0.529572 3.087000 126 71 37
1.053740 -0.524168 3.087000 123 69 35
1.053740 -0.518764 3.087000 120 71 33
1.053740 -0.513360 3.087000 119 73 32
1.044182 -0.503349 3.059000 118 73 35
1.044182 -0.497995 3.059000 114 73 39
1.044182 -0.492640 3.059000 110 75 38
1.044182 -0.487285 3.059000 114 77 38
1.035307 -0.477834 3.033000 119 75 40
1.035307 -0.472525 3.033000 121 73 42
1.035307 -0.467215 3.033000 123 72 42
1.035307 -0.461906 3.033000 121 74 41
1.035307 -0.456597 3.033000 120 76 42
1.035307 -0.451288 3.033000 119 78 43
1.044182 -0.449802 3.059000 119 76 44
1.044182 -0.444447 3.059000 120 74 45
1.044182 -0.439092 3.059000 122 75 39
1.035307 -0.430051 3.033000 122 76 33
1.035307 -0.424741 3.033000 123 77 37
1.035307 -0.419432 3.033000 126 78 41
1.035307 -0.414123 3.033000 130 79 43
1.035307 -0.408814 3.033000 124 80 45
1.035307 -0.403504 3.033000 119 78 44
1.035307 -0.398195 3.033000 120 76 44
1.035307 -0.392886 3.033000 122 77 45
1.044182 -0.390899 3.059000 122 79 46
1.044182 -0.385544 3.059000 123 77 45
1.044182 -0.380189 3.059000 125 74 45
1.044182 -0.374835 3.059000 128 75 43
1.044182 -0.369480 3.059000 126 78 41
1.053740 -0.367458 3.087000 124 77 45
1.044182 -0.358770 3.059000 124 76 50
1.053740 -0.356650 3.087000 124 77 46
1.053740 -0.351247 3.087000 124 79 43
1.053740 -0.345843 3.087000 125 78 43
1.044182 -0.337351 3.059000 124 77 44
1.044182 -0.331996 3.059000 124 77 43
1.044182 -0.326641 3.059000 124 80 42
1.044182 -0.321287 3.059000 124 79 45
1.044182 -0.315932 3.059000 124 79 48
1.044182 -0.310577 3.059000 124 79 45
1.044182 -0.305222 3.059000 124 80 43
1.044182 -0.299868 3.059000 124 79 42
1.044182 -0.294513 3.059000 126 78 41
1.044182 -0.289158 3.059000 129 77 40
1.044182 -0.283803 3.059000 126 77 40
1.044182 -0.278449 3.059000 123 77 41
1.044182 -0.273094 3.059000 123 77 42
1.044182 -0.267739 3.059000 123 75 45
1.044182 -0.262384 3.059000 124 73 49
1.044182 -0.257029 3.059000 126 74 45
1.044182 -0.251675 3.059000 125 76 41
1.044182 -0.246320 3.059000 124 77 42
1.044182 -0.240965 3.059000 123 78 43
1.044182 -0.235610 3.059000 123 77 37
1.035307 -0.228298 3.033000 123 78 32
1.035307 -0.222989 3.033000 124 78 31
1.035307 -0.217680 3.033000 123 80 31
1.035307 -0.212371 3.033000 123 79 35
1.035307 -0.207061 3.033000 123 80 40
1.035307 -0.201752 3.033000 124 79 37
1.035307 -0.196443 3.033000 122 79 34
1.035307 -0.191134 3.033000 121 76 42
1.035307 -0.185824 3.033000 123 73 51
1.044182 -0.182063 3.059000 126 73 45
1.044182 -0.176708 3.059000 126 75 40
1.044182 -0.171353 3.059000 126 77 36
1.044182 -0.165998 3.059000 125 80 32
1.044182 -0.160643 3.059000 125 81 31
1.044182 -0.155289 3.059000 121 82 31
1.044182 -0.149934 3.059000 117 82 31
1.035307 -0.143350 3.033000 118 80 32
1.044182 -0.139224 3.059000 120 81 35
1.044182 -0.133869 3.059000 119 81 39
1.035307 -0.127422 3.033000 119 78 38
1.035307 -0.122113 3.033000 120 76 38
1.035307 -0.116804 3.033000 122 77 39
1.035307 -0.111495 3.033000 121 79 41
1.035307 -0.106185 3.033000 120 78 32
1.035307 -0.100876 3.033000 122 78 23
1.035307 -0.095567 3.033000 124 78 29
1.035307 -0.090257 3.033000 123 79 36
1.035307 -0.084948 3.033000 122 79 37
1.035307 -0.079639 3.033000 121 78 39
1.035307 -0.074330 3.033000 120 78 34
1.035307 -0.069020 3.033000 125 77 28
1.035307 -0.063711 3.033000 131 78 33
1.035307 -0.058402 3.033000 124 78 39
1.035307 -0.053093 3.033000 118 79 31
1.035307 -0.047783 3.033000 123 79 23
1.035307 -0.042474 3.033000 129 77 28
1.035307 -0.037165 3.033000 126 76 33
1.035307 -0.031856 3.033000 123 77 34
1.035307 -0.026546 3.033000 122 81 36
1.035307 -0.021237 3.033000 121 80 34
1.035307 -0.015928 3.033000 122 77 33
1.035307 -0.010618 3.033000 124 77 39
1.035307 -0.005309 3.033000 124 78 45
1.035307 -0.000000 3.033000 125 78 42
1.035307 0.005309 3.033000 124 79 40
1.035307 0.010619 3.033000 123 79 41
1.026091 0.015786 3.006000 124 80 43
1.026091 0.021048 3.006000 126 80 38
1.026091 0.026310 3.006000 125 80 33
1.026091 0.031572 3.006000 125 79 31
1.035307 0.037165 3.033000 129 79 29
1.026091 0.042096 3.006000 133 80 30
1.035307 0.047783 3.033000 131 82 32
1.035307 0.053093 3.033000 129 80 36
1.035307 0.058402 3.033000 130 80 40
1.035307 0.063711 3.033000 131 82 39
1.035307 0.069020 3.033000 124 83 37
1.026091 0.073668 3.006000 117 82 40
1.035307 0.079639 3.033000 122 81 43
1.026091 0.084192 3.006000 127 82 42
1.026091 0.089454 3.006000 127 82 41
1.035307 0.095567 3.033000 127 81 44
1.035307 0.100876 3.033000 125 81 48
1.035307 0.106185 3.033000 124 80 46
1.035307 0.111495 3.033000 122 80 44
1.035307 0.116804 3.033000 121 81 42
1.035307 0.122113 3.033000 123 83 40
1.026091 0.126288 3.006000 126 81 38
1.026091 0.131550 3.006000 126 80 37
1.026091 0.136812 3.006000 127 81 38
1.026091 0.142074 3.006000 125 80 39
1.035307 0.148659 3.033000 123 80 41
1.035307 0.153969 3.033000 125 78 43
1.035307 0.159278 3.033000 128 80 47
1.044182 0.165998 3.059000 128 80 51
1.044182 0.171353 3.059000 129 81 48
1.044182 0.176708 3.059000 129 82 45
1.044182 0.182063 3.059000 129 81 45
1.035307 0.185824 3.033000 132 82 46
1.035307 0.191134 3.033000 136 81 46
1.035307 0.196443 3.033000 132 81 46
1.035307 0.201752 3.033000 129 83 43
1.026091 0.205218 3.006000 128 84 40
1.026091 0.210480 3.006000 128 84 38
1.035307 0.217680 3.033000 131 86 36
1.035307 0.222989 3.033000 135 84 38
1.035307 0.228298 3.033000 131 84 39
1.035307 0.233608 3.033000 128 85 38
1.035307 0.238917 3.033000 128 85 37
1.035307 0.244226 3.033000 128 84 39
1.035307 0.249536 3.033000 128 84 40
1.035307 0.254845 3.033000 128 84 41
1.035307 0.260154 3.033000 129 85 43
1.035307 0.265463 3.033000 130 86 43
1.035307 0.270773 3.033000 129 86 43
1.026091 0.273624 3.006000 128 85 44
1.035307 0.281391 3.033000 129 85 45
1.026091 0.284148 3.006000 131 87 48
1.026091 0.289410 3.006000 131 88 51
1.026091 0.294672 3.006000 131 87 52
1.026091 0.299934 3.006000 133 86 53
1.026091 0.305196 3.006000 136 86 52
1.035307 0.313247 3.033000 133 85 51
1.035307 0.318556 3.033000 130 86 42
1.035307 0.323865 3.033000 130 89 34
1.035307 0.329175 3.033000 130 87 38
1.035307 0.334484 3.033000 129 86 43
1.026091 0.336768 3.006000 129 87 49
1.026091 0.342030 3.006000 127 88 56
1.026091 0.347292 3.006000 126 87 51
1.026091 0.352554 3.006000 124 88 47
1.026091 0.357816 3.006000 122 87 49
1.026091 0.363078 3.006000 125 88 52
1.026091 0.368340 3.006000 129 87 46
1.026091 0.373602 3.006000 131 88 40
1.026091 0.378864 3.006000 133 86 48
1.035307 0.387577 3.033000 132 87 56
1.035307 0.392886 3.033000 132 87 53
1.035307 0.398195 3.033000 131 86 50
1.035307 0.403504 3.033000 131 86 48
1.035307 0.408814 3.033000 131 88 46
1.035307 0.414123 3.033000 132 88 47
1.035307 0.419432 3.033000 131 89 48
1.035307 0.424741 3.033000 130 87 51
1.035307 0.430051 3.033000 131 87 54
1.035307 0.435360 3.033000 132 88 52
1.035307 0.440669 3.033000 131 88 50
1.035307 0.445978 3.033000 131 88 49
1.035307 0.451288 3.033000 132 89 49
1.035307 0.456597 3.033000 133 90 53
1.035307 0.461906 3.033000 132 90 57
1.035307 0.467216 3.033000 132 89 54
1.035307 0.472525 3.033000 132 90 51
1.035307 0.477834 3.033000 132 89 49
1.026091 0.478842 3.006000 130 88 48
1.035307 0.488453 3.033000 128 89 51
1.035307 0.493762 3.033000 129 90 55
1.026091 0.494628 3.006000 130 88 53
1.035307 0.504380 3.033000 130 85 51
1.035307 0.509690 3.033000 130 85 52
1.035307 0.514999 3.033000 132 86 54
1.026091 0.515676 3.006000 134 84 58
1.035307 0.525617 3.033000 130 83 63
1.026091 0.526200 3.006000 126 85 57
1.026091 0.531462 3.006000 128 85 51
1.026091 0.536724 3.006000 131 84 52
1.026091 0.541986 3.006000 131 82 52
1.035307 0.552164 3.033000 131 84 52
1.035307 0.557473 3.033000 130 86 52
1.026091 0.557772 3.006000 130 87 51
1.026091 0.563035 3.006000 128 89 49
1.035307 0.573401 3.033000 126 88 54
1.035307 0.578710 3.033000 128 88 58
1.035307 0.584019 3.033000 130 86 54
1.035307 0.589329 3.033000 130 86 49
1.035307 0.594638 3.033000 130 85 48
1.035307 0.599947 3.033000 129 85 47
1.035307 0.605256 3.033000 129 82 47
1.035307 0.610566 3.033000 128 82 48
1.035307 0.615875 3.033000 127 84 47
1.035307 0.621184 3.033000 128 87 47
1.035307 0.626494 3.033000 129 88 50
1.035307 0.631803 3.033000 129 94 53
1.035307 0.637112 3.033000 130 92 49
1.035307 0.642421 3.033000 110 94 45
1.035307 0.647731 3.033000 90 56 33
1.035307 0.653040 3.033000 48 8 22
1.026091 0.652489 3.006000 7 8 14
1.026091 0.657750 3.006000 15 12 6
0.765984 0.699206 2.244000 123 97 89
0.761205 0.698747 2.230000 123 97 89
0.746527 0.689102 2.187000 124 96 90
0.742089 0.688811 2.174000 124 96 91
0.742089 0.692617 2.174000 124 96 93
0.737311 0.691938 2.160000 122 94 95
0.732873 0.691532 2.147000 120 94 93
0.728094 0.690756 2.133000 122 94 90
0.723657 0.690257 2.120000 125 96 91
0.719219 0.689713 2.107000 125 97 91
0.719219 0.693401 2.107000 125 98 89
0.715123 0.693119 2.095000 123 100 88
0.715123 0.696787 2.095000 122 99 90
0.706248 0.691761 2.069000 124 98 92
0.693959 0.683283 2.033000 127 100 92
0.689863 0.682788 2.021000 126 102 92
0.685767 0.682250 2.009000 125 100 91
0.677916 0.677916 1.986000 129 98 90
0.674161 0.677619 1.975000 133 97 91
0.670407 0.677283 1.964000 127 98 92
0.670407 0.680721 1.964000 121 101 95
0.666310 0.679978 1.952000 122 102 98
0.662556 0.679544 1.941000 123 100 95
0.659142 0.679423 1.931000 124 101 92
0.655387 0.678914 1.920000 125 100 92
0.651632 0.678366 1.909000 125 100 93
0.648219 0.678137 1.899000 126 99 92
0.644464 0.677514 1.888000 125 98 92
0.641051 0.677213 1.878000 125 97 93
0.630810 0.669629 1.848000 126 96 94
0.623983 0.665582 1.828000 127 97 92
0.620911 0.665489 1.819000 124 97 90
0.620911 0.668674 1.819000 121 95 89
0.617498 0.668164 1.809000 120 94 88
0.614426 0.667991 1.800000 120 95 90
0.614426 0.671142 1.800000 122 98 91
0.611012 0.670547 1.790000 124 99 91
0.598724 0.660131 1.754000 127 98 90
0.595651 0.659799 1.745000 130 98 91
0.592579 0.659435 1.736000 124 99 91
0.589849 0.659420 1.728000 118 98 93
0.586776 0.658995 1.719000 121 97 96
0.584046 0.658923 1.711000 124 99 95
0.578243 0.655342 1.694000 124 99 95
0.575512 0.655198 1.686000 124 97 95
0.572440 0.654636 1.677000 124 96 94
0.569709 0.654435 1.669000 125 96 93
0.569709 0.657357 1.669000 124 96 93
0.564247 0.653948 1.653000 124 99 98
0.561517 0.653663 1.645000 124 101 103
0.559127 0.653749 1.638000 125 100 100
0.556396 0.653409 1.630000 125 100 97
0.556396 0.656263 1.630000 126 98 96
0.546156 0.646985 1.600000 125 97 96
0.543425 0.646537 1.592000 125 96 98
0.538646 0.643613 1.578000 124 95 100
0.533526 0.640232 1.563000 123 97 97
0.531137 0.640088 1.556000 119 99 95
0.531137 0.642812 1.556000 115 100 95
0.529771 0.643876 1.552000 118 100 95
0.528747 0.645343 1.549000 121 99 97
0.528747 0.648054 1.549000 121 97 99
1.068750 -1.106920 3.115000 102 65 30
1.068750 -1.101467 3.115000 100 63 28
1.068750 -1.096014 3.115000 106 65 27
1.068750 -1.090562 3.115000 112 65 29
1.068750 -1.085109 3.115000 108 63 32
1.068750 -1.079656 3.115000 104 62 34
1.068750 -1.074203 3.115000 105 62 37
1.068750 -1.068750 3.115000 107 62 32
1.068750 -1.063298 3.115000 109 65 28
1.068750 -1.057845 3.115000 111 67 23
1.068750 -1.052392 3.115000 108 68 19
1.068750 -1.046939 3.115000 105 68 21
1.068750 -1.041486 3.115000 110 68 23
1.068750 -1.036034 3.115000 116 68 24
1.068750 -1.030581 3.115000 115 69 26
1.068750 -1.025128 3.115000 113 71 26
1.068750 -1.019675 3.115000 114 70 27
1.078357 -1.023339 3.143000 116 67 27
1.068750 -1.008769 3.115000 113 65 28
1.068750 -1.003317 3.115000 110 64 30
1.059144 -0.988894 3.087000 112 67 32
1.068750 -0.992411 3.115000 115 68 32
1.059144 -0.978087 3.087000 113 68 33
1.059144 -0.972683 3.087000 111 69 28
1.059144 -0.967279 3.087000 108 68 23
1.059144 -0.961875 3.087000 105 69 24
1.059144 -0.956472 3.087000 106 69 26
1.059144 -0.951068 3.087000 108 71 28
1.068750 -0.954241 3.115000 109 69 30
1.068750 -0.948789 3.115000 109 65 30
1.068750 -0.943336 3.115000 112 68 30
1.068750 -0.937883 3.115000 115 70 29
1.068750 -0.932430 3.115000 111 70 29
1.068750 -0.926977 3.115000 107 69 38
1.068750 -0.921525 3.115000 109 67 47
1.068750 -0.916072 3.115000 112 67 40
1.068750 -0.910619 3.115000 111 68 33
1.068750 -0.905166 3.115000 110 68 32
1.068750 -0.899713 3.115000 111 67 32
1.059144 -0.886222 3.087000 112 68 33
1.068750 -0.888808 3.115000 112 67 34
1.068750 -0.883355 3.115000 112 67 31
1.068750 -0.877902 3.115000 112 68 29
1.059144 -0.864607 3.087000 112 68 23
1.059144 -0.859203 3.087000 112 71 18
1.059144 -0.853799 3.087000 112 74 21
1.059144 -0.848396 3.087000 114 70 24
1.059144 -0.842992 3.087000 116 69 29
1.059144 -0.837588 3.087000 116 68 35
1.059144 -0.832184 3.087000 117 69 38
1.068750 -0.834280 3.115000 116 70 42
1.068750 -0.828827 3.115000 115 71 36
1.068750 -0.823374 3.115000 114 69 31
1.068750 -0.817921 3.115000 114 70 33
1.068750 -0.812468 3.115000 114 68 35
1.068750 -0.807016 3.115000 114 69 32
1.068750 -0.801563 3.115000 112 69 30
1.068750 -0.796110 3.115000 110 69 34
1.068750 -0.790657 3.115000 112 69 39
1.068750 -0.785204 3.115000 115 69 34
1.068750 -0.779752 3.115000 116 70 30
1.059144 -0.767339 3.087000 118 72 31
1.068750 -0.768846 3.115000 117 71 33
1.068750 -0.763393 3.115000 116 71 32
1.068750 -0.757940 3.115000 116 71 32
1.068750 -0.752487 3.115000 116 72 33
1.059144 -0.740320 3.087000 117 72 34
1.068750 -0.741582 3.115000 118 72 36
1.068750 -0.736129 3.115000 117 71 39
1.068750 -0.730676 3.115000 116 74 36
1.068750 -0.725223 3.115000 117 72 34
1.059144 -0.713301 3.087000 117 69 41
1.059144 -0.707897 3.087000 118 73 49
1.059144 -0.702493 3.087000 120 76 42
1.059144 -0.697089 3.087000 118 73 36
1.059144 -0.691686 3.087000 117 73 37
1.059144 -0.686282 3.087000 116 73 39
1.059144 -0.680878 3.087000 116 74 36
1.059144 -0.675474 3.087000 114 75 34
1.059144 -0.670070 3.087000 113 78 36
1.059144 -0.664667 3.087000 114 77 38
1.059144 -0.659263 3.087000 114 75 36
1.059144 -0.653859 3.087000 115 73 34
1.059144 -0.648455 3.087000 117 72 38
1.059144 -0.643051 3.087000 119 73 42
1.059144 -0.637648 3.087000 121 76 42
1.049537 -0.626509 3.059000 118 73 42
1.049537 -0.621154 3.059000 116 70 40
1.059144 -0.621436 3.087000 116 73 39
1.049537 -0.610445 3.059000 116 75 36
1.049537 -0.605090 3.059000 117 72 34
1.049537 -0.599735 3.059000 119 70 36
1.059144 -0.599821 3.087000 117 70 38
1.059144 -0.594417 3.087000 115 74 38
1.059144 -0.589014 3.087000 117 74 39
1.059144 -0.583610 3.087000 120 74 35
1.049537 -0.572961 3.059000 117 76 32
1.059144 -0.572802 3.087000 115 77 31
1.049537 -0.562252 3.059000 115 76 31
1.049537 -0.556897 3.059000 115 77 31
1.049537 -0.551542 3.059000 116 76 31
1.049537 -0.546188 3.059000 118 77 26
1.049537 -0.540833 3.059000 115 76 21
1.049537 -0.535478 3.059000 111 75 31
1.049537 -0.530123 3.059000 117 74 42
1.049537 -0.524768 3.059000 123 73 40
1.059144 -0.524168 3.087000 120 72 38
1.049537 -0.514059 3.059000 118 74 37
1.049537 -0.508704 3.059000 118 73 37
1.049537 -0.503349 3.059000 118 72 39
1.040616 -0.493762 3.033000 116 74 42
1.040616 -0.488453 3.033000 114 77 40
1.040616 -0.483143 3.033000 116 76 39
1.040616 -0.477834 3.033000 119 75 41
1.040616 -0.472525 3.033000 120 74 43
1.040616 -0.467215 3.033000 121 73 41
1.040616 -0.461906 3.033000 120 75 39
1.040616 -0.456597 3.033000 118 78 41
1.040616 -0.451288 3.033000 118 78 44
1.040616 -0.445978 3.033000 118 78 46
1.040616 -0.440669 3.033000 119 75 49
1.040616 -0.435360 3.033000 121 75 43
1.040616 -0.430051 3.033000 121 76 37
1.040616 -0.424741 3.033000 121 77 38
1.040616 -0.419432 3.033000 123 78 39
1.040616 -0.414123 3.033000 126 81 40
1.040616 -0.408814 3.033000 123 79 41
1.040616 -0.403504 3.033000 121 79 41
1.040616 -0.398195 3.033000 121 78 42
1.040616 -0.392886 3.033000 121 77 43
1.040616 -0.387576 3.033000 122 78 45
1.040616 -0.382267 3.033000 123 79 41
1.040616 -0.376958 3.033000 124 76 37
1.049537 -0.374835 3.059000 125 76 39
1.049537 -0.369480 3.059000 123 77 41
1.049537 -0.364125 3.059000 122 78 47
1.049537 -0.358770 3.059000 123 77 53
1.049537 -0.353415 3.059000 124 77 47
1.049537 -0.348061 3.059000 126 77 42
1.049537 -0.342706 3.059000 128 78 43
1.049537 -0.337351 3.059000 127 76 45
1.040616 -0.329174 3.033000 125 76 46
1.040616 -0.323865 3.033000 124 77 47
1.040616 -0.318556 3.033000 123 78 45
1.040616 -0.313247 3.033000 123 78 44
1.040616 -0.307937 3.033000 124 78 44
1.040616 -0.302628 3.033000 124 79 45
1.040616 -0.297319 3.033000 124 80 43
1.040616 -0.292010 3.033000 125 78 41
1.040616 -0.286700 3.033000 126 76 42
1.040616 -0.281391 3.033000 124 76 43
1.040616 -0.276082 3.033000 122 76 43
1.040616 -0.270773 3.033000 122 77 43
1.040616 -0.265463 3.033000 122 78 48
1.040616 -0.260154 3.033000 122 76 54
1.040616 -0.254845 3.033000 122 76 48
1.040616 -0.249535 3.033000 122 76 43
1.040616 -0.244226 3.033000 122 78 41
1.040616 -0.238917 3.033000 123 78 39
1.040616 -0.233608 3.033000 123 78 36
1.040616 -0.228298 3.033000 124 77 33
1.040616 -0.222989 3.033000 125 78 34
1.040616 -0.217680 3.033000 124 79 35
1.040616 -0.212371 3.033000 123 80 42
1.040616 -0.207061 3.033000 122 80 49
1.040616 -0.201752 3.033000 122 80 44
1.040616 -0.196443 3.033000 122 78 39
1.040616 -0.191134 3.033000 122 76 43
1.040616 -0.185824 3.033000 125 75 47
1.040616 -0.180515 3.033000 128 76 43
1.040616 -0.175206 3.033000 127 75 39
1.040616 -0.169896 3.033000 126 76 37
1.040616 -0.164587 3.033000 125 78 35
1.040616 -0.159278 3.033000 124 80 32
1.040616 -0.153969 3.033000 121 81 30
1.040616 -0.148659 3.033000 119 82 30
1.031353 -0.142074 3.006000 120 81 30
1.040616 -0.138041 3.033000 121 83 33
1.040616 -0.132732 3.033000 122 80 37
1.031353 -0.126288 3.006000 123 77 39
1.031353 -0.121026 3.006000 123 76 42
1.031353 -0.115764 3.006000 122 77 46
1.031353 -0.110502 3.006000 121 79 51
1.031353 -0.105240 3.006000 120 81 42
1.031353 -0.099978 3.006000 122 79 34
1.031353 -0.094716 3.006000 123 79 34
1.040616 -0.090257 3.033000 123 79 34
1.040616 -0.084948 3.033000 123 80 37
1.040616 -0.079639 3.033000 122 80 41
1.040616 -0.074330 3.033000 121 81 37
1.040616 -0.069020 3.033000 124 79 34
1.040616 -0.063711 3.033000 128 79 40
1.040616 -0.058402 3.033000 124 79 47
1.040616 -0.053093 3.033000 120 81 40
1.040616 -0.047783 3.033000 123 78 34
1.040616 -0.042474 3.033000 126 76 35
1.031353 -0.036834 3.006000 124 76 37
1.031353 -0.031572 3.006000 123 76 36
1.031353 -0.026310 3.006000 122 79 36
1.031353 -0.021048 3.006000 122 82 38
1.040616 -0.015928 3.033000 125 79 40
1.031353 -0.010524 3.006000 127 77 43
1.031353 -0.005262 3.006000 127 78 47
1.031353 -0.000000 3.006000 127 80 42
1.031353 0.005262 3.006000 125 80 38
1.031353 0.010524 3.006000 123 81 42
1.031353 0.015786 3.006000 125 81 46
1.031353 0.021048 3.006000 127 82 39
1.031353 0.026310 3.006000 126 81 33
1.031353 0.031572 3.006000 124 82 35
1.031353 0.036834 3.006000 126 80 38
1.031353 0.042096 3.006000 129 80 36
1.031353 0.047358 3.006000 128 80 34
1.031353 0.052620 3.006000 128 79 38
1.031353 0.057882 3.006000 128 81 42
1.031353 0.063144 3.006000 129 84 46
1.031353 0.068406 3.006000 125 82 51
1.031353 0.073668 3.006000 122 82 46
1.031353 0.078930 3.006000 124 82 42
1.031353 0.084192 3.006000 127 82 42
1.031353 0.089454 3.006000 126 82 42
1.031353 0.094716 3.006000 126 83 44
1.031353 0.099978 3.006000 125 81 46
1.031353 0.105240 3.006000 125 80 45
1.031353 0.110502 3.006000 126 80 44
1.031353 0.115764 3.006000 127 80 45
1.031353 0.121026 3.006000 127 81 46
1.031353 0.126288 3.006000 127 81 40
1.031353 0.131550 3.006000 129 82 34
1.031353 0.136812 3.006000 130 83 35
1.031353 0.142074 3.006000 127 82 37
1.031353 0.147336 3.006000 125 82 40
1.040616 0.153969 3.033000 126 81 44
1.040616 0.159278 3.033000 127 82 52
1.040616 0.164587 3.033000 128 82 61
1.040616 0.169897 3.033000 130 82 53
1.040616 0.175206 3.033000 128 80 45
1.040616 0.180515 3.033000 127 80 45
1.040616 0.185824 3.033000 130 80 46
1.031353 0.189432 3.006000 132 81 47
1.031353 0.194694 3.006000 130 82 48
1.031353 0.199956 3.006000 127 84 43
1.031353 0.205218 3.006000 127 84 39
1.031353 0.210480 3.006000 127 85 40
1.031353 0.215742 3.006000 129 85 42
1.031353 0.221004 3.006000 131 85 41
1.031353 0.226266 3.006000 129 85 41
1.040616 0.233608 3.033000 128 87 40
1.040616 0.238917 3.033000 128 85 39
1.040616 0.244226 3.033000 128 84 39
1.040616 0.249536 3.033000 128 84 39
1.040616 0.254845 3.033000 128 86 41
1.031353 0.257838 3.006000 128 86 43
1.031353 0.263100 3.006000 129 87 45
1.031353 0.268362 3.006000 129 86 47
1.031353 0.273624 3.006000 129 86 45
1.031353 0.278886 3.006000 129 87 44
1.031353 0.284148 3.006000 129 89 47
1.031353 0.289410 3.006000 130 88 50
1.031353 0.294672 3.006000 130 89 53
1.031353 0.299934 3.006000 132 87 57
1.031353 0.305196 3.006000 133 88 53
1.031353 0.310458 3.006000 132 86 50
1.031353 0.315720 3.006000 131 87 44
1.031353 0.320982 3.006000 132 87 39
1.031353 0.326244 3.006000 132 87 41
1.031353 0.331506 3.006000 131 87 44
1.031353 0.336768 3.006000 129 89 46
1.031353 0.342030 3.006000 128 88 49
1.031353 0.347292 3.006000 127 87 47
1.031353 0.352554 3.006000 126 88 46
1.031353 0.357816 3.006000 125 90 47
1.022432 0.359938 2.980000 127 88 49
1.022432 0.365154 2.980000 129 88 47
1.031353 0.373602 3.006000 130 87 45
1.022432 0.375587 2.980000 131 87 47
1.031353 0.384126 3.006000 131 87 50
1.031353 0.389388 3.006000 131 89 48
1.031353 0.394650 3.006000 131 86 47
1.031353 0.399912 3.006000 130 86 44
1.031353 0.405174 3.006000 130 87 42
1.031353 0.410436 3.006000 130 88 44
1.031353 0.415698 3.006000 130 87 47
1.031353 0.420960 3.006000 131 86 47
1.031353 0.426222 3.006000 133 87 48
1.031353 0.431484 3.006000 135 87 49
1.031353 0.436746 3.006000 133 87 51
1.031353 0.442008 3.006000 131 89 50
1.040616 0.451288 3.033000 131 89 49
1.040616 0.456597 3.033000 132 90 55
1.040616 0.461906 3.033000 132 90 61
1.040616 0.467216 3.033000 132 90 57
1.040616 0.472525 3.033000 132 89 53
1.040616 0.477834 3.033000 133 90 51
1.031353 0.478842 3.006000 131 89 50
1.031353 0.484104 3.006000 130 90 49
1.031353 0.489366 3.006000 131 89 49
1.031353 0.494628 3.006000 133 88 48
1.031353 0.499890 3.006000 131 85 47
1.031353 0.505152 3.006000 130 84 52
1.031353 0.510414 3.006000 131 84 57
1.031353 0.515676 3.006000 132 85 64
1.031353 0.520938 3.006000 130 85 72
1.031353 0.526200 3.006000 128 86 63
1.031353 0.531462 3.006000 131 86 55
1.031353 0.536724 3.006000 134 87 53
1.031353 0.541986 3.006000 131 86 51
1.031353 0.547248 3.006000 129 87 53
1.031353 0.552510 3.006000 129 86 56
1.031353 0.557772 3.006000 130 87 54
1.031353 0.563035 3.006000 128 88 52
1.031353 0.568296 3.006000 127 90 58
1.031353 0.573559 3.006000 129 87 65
1.040616 0.584019 3.033000 131 86 58
1.031353 0.584082 3.006000 131 86 51
1.031353 0.589344 3.006000 130 86 51
1.031353 0.594606 3.006000 131 84 51
1.031353 0.599868 3.006000 132 83 50
1.031353 0.605130 3.006000 130 84 49
1.031353 0.610393 3.006000 128 86 48
1.031353 0.615654 3.006000 129 86 47
1.031353 0.620917 3.006000 131 87 50
1.031353 0.626178 3.006000 129 88 54
1.031353 0.631441 3.006000 127 90 48
1.031353 0.636702 3.006000 114 87 42
1.031353 0.641965 3.006000 102 79 38
1.031353 0.647226 3.006000 57 39 34
1.022432 0.646845 2.980000 11 3 18
1.013855 0.646591 2.955000 19 8 2
1.013855 0.651764 2.955000 28 15 17
0.745895 0.685006 2.174000 122 97 89
0.745895 0.688811 2.174000 122 97 91
0.745895 0.692617 2.174000 123 100 95
0.745895 0.696423 2.174000 122 97 99
0.741092 0.695719 2.160000 122 98 95
0.736631 0.695290 2.147000 123 96 92
0.731828 0.694490 2.133000 125 98 92
0.722907 0.689713 2.107000 126 97 92
0.718790 0.689452 2.095000 128 97 89
0.714330 0.688818 2.082000 124 99 87
0.714330 0.692463 2.082000 120 101 90
0.701635 0.683737 2.045000 123 100 93
0.697518 0.683283 2.033000 127 100 95
0.693401 0.682788 2.021000 126 101 97
0.693401 0.686326 2.021000 125 101 94
0.681393 0.677916 1.986000 127 98 91
0.677619 0.677619 1.975000 129 96 91
0.673845 0.677283 1.964000 125 98 92
0.669727 0.676561 1.952000 121 103 97
0.669727 0.679978 1.952000 122 100 102
0.665953 0.679544 1.941000 123 99 97
0.662522 0.679423 1.931000 124 100 93
0.662522 0.682804 1.931000 126 100 92
0.658748 0.682275 1.920000 127 99 91
0.654974 0.681708 1.909000 129 98 92
0.651543 0.681461 1.899000 126 98 93
0.644338 0.677213 1.878000 124 99 95
0.637476 0.673253 1.858000 125 97 97
0.624095 0.662305 1.819000 126 97 94
0.624095 0.665489 1.819000 124 96 92
0.620664 0.664998 1.809000 122 95 91
0.620664 0.668164 1.809000 121 93 91
0.617576 0.667991 1.800000 121 93 90
0.617576 0.671142 1.800000 122 97 89
0.614145 0.670547 1.790000 123 101 89
0.601794 0.660131 1.754000 125 99 89
0.598706 0.659799 1.745000 127 99 89
0.595618 0.659435 1.736000 124 99 90
0.592873 0.659420 1.728000 121 99 92
0.589785 0.658995 1.719000 122 99 95
0.587041 0.658923 1.711000 124 100 94
0.583953 0.658437 1.702000 124 100 94
0.578463 0.655198 1.686000 125 100 95
0.575375 0.654636 1.677000 126 98 96
0.575375 0.657572 1.677000 127 97 95
0.572631 0.657357 1.669000 123 98 95
0.569886 0.657113 1.661000 120 101 98
0.564396 0.653663 1.645000 122 101 101
0.561995 0.653749 1.638000 125 101 98
0.559250 0.653409 1.630000 127 99 95
0.559250 0.656263 1.630000 129 99 95
0.551359 0.649815 1.607000 127 97 95
0.546212 0.646537 1.592000 126 97 99
0.541409 0.643613 1.578000 125 96 103
0.536262 0.640232 1.563000 125 96 99
0.536262 0.642968 1.563000 122 98 95
0.533861 0.642812 1.556000 119 101 95
0.533861 0.645536 1.556000 121 101 95
0.531459 0.645343 1.549000 122 101 99
0.531459 0.648054 1.549000 122 99 104
1.064547 -1.096970 3.087000 105 65 31
1.064547 -1.091566 3.087000 106 66 32
1.064547 -1.086163 3.087000 107 70 33
1.064547 -1.080759 3.087000 109 66 30
1.074203 -1.085109 3.115000 109 64 27
1.074203 -1.079656 3.115000 110 63 29
1.074203 -1.074203 3.115000 110 62 31
1.074203 -1.068750 3.115000 110 64 25
1.074203 -1.063298 3.115000 113 69 19
1.064547 -1.048336 3.087000 117 69 19
1.064547 -1.042932 3.087000 113 72 19
1.074203 -1.046939 3.115000 109 70 19
1.074203 -1.041486 3.115000 110 69 20
1.074203 -1.036034 3.115000 111 69 19
1.074203 -1.030581 3.115000 113 70 19
1.074203 -1.025128 3.115000 115 71 24
1.064547 -1.010509 3.087000 118 73 29
1.083859 -1.023339 3.143000 121 69 29
1.064547 -0.999702 3.087000 116 65 29
1.054892 -0.985280 3.059000 112 65 30
1.054892 -0.979925 3.059000 112 68 31
1.054892 -0.974570 3.059000 113 67 33
1.054892 -0.969215 3.059000 112 67 36
1.054892 -0.963860 3.059000 111 67 26
1.054892 -0.958506 3.059000 109 68 17
1.054892 -0.953151 3.059000 108 70 21
1.054892 -0.947796 3.059000 109 72 25
1.064547 -0.951068 3.087000 110 72 26
1.064547 -0.945664 3.087000 110 74 27
1.074203 -0.948789 3.115000 110 70 26
1.074203 -0.943336 3.115000 114 71 24
1.074203 -0.937883 3.115000 119 71 25
1.074203 -0.932430 3.115000 112 72 25
1.074203 -0.926977 3.115000 105 70 31
1.074203 -0.921525 3.115000 109 67 38
1.074203 -0.916072 3.115000 114 68 35
1.064547 -0.902434 3.087000 112 68 33
1.064547 -0.897030 3.087000 111 67 32
1.064547 -0.891626 3.087000 112 67 32
1.064547 -0.886222 3.087000 113 67 36
1.064547 -0.880818 3.087000 112 66 40
1.064547 -0.875415 3.087000 112 68 36
1.064547 -0.870011 3.087000 112 71 31
1.064547 -0.864607 3.087000 112 71 26
1.064547 -0.859203 3.087000 112 74 21
1.064547 -0.853799 3.087000 113 73 24
1.064547 -0.848396 3.087000 114 71 26
1.064547 -0.842992 3.087000 115 70 28
1.064547 -0.837588 3.087000 115 71 31
1.054892 -0.824636 3.059000 115 71 30
1.064547 -0.826780 3.087000 115 73 29
1.064547 -0.821377 3.087000 115 72 27
1.064547 -0.815973 3.087000 114 73 26
1.064547 -0.810569 3.087000 114 70 30
1.064547 -0.805165 3.087000 114 69 34
1.054892 -0.792507 3.059000 115 69 29
1.054892 -0.787153 3.059000 115 72 25
1.064547 -0.788954 3.087000 115 71 28
1.054892 -0.776443 3.059000 115 72 32
1.064547 -0.778146 3.087000 115 71 31
1.054892 -0.765734 3.059000 115 70 31
1.054892 -0.760379 3.059000 116 72 35
1.054892 -0.755024 3.059000 116 72 40
1.054892 -0.749669 3.059000 117 70 35
1.054892 -0.744314 3.059000 117 72 30
1.064547 -0.745724 3.087000 117 72 34
1.054892 -0.733605 3.059000 119 73 39
1.064547 -0.734916 3.087000 121 71 37
1.064547 -0.729512 3.087000 119 69 35
1.064547 -0.724108 3.087000 117 73 33
1.064547 -0.718705 3.087000 117 76 32
1.064547 -0.713301 3.087000 118 73 33
1.064547 -0.707897 3.087000 120 76 35
1.064547 -0.702493 3.087000 122 75 34
1.064547 -0.697089 3.087000 119 73 33
1.054892 -0.685412 3.059000 117 74 37
1.064547 -0.686282 3.087000 117 74 40
1.054892 -0.674702 3.059000 117 74 35
1.054892 -0.669348 3.059000 115 74 30
1.054892 -0.663993 3.059000 114 77 34
1.054892 -0.658638 3.059000 117 78 38
1.054892 -0.653283 3.059000 120 76 37
1.054892 -0.647928 3.059000 119 76 36
1.054892 -0.642574 3.059000 118 75 39
1.054892 -0.637219 3.059000 121 75 43
1.054892 -0.631864 3.059000 124 76 42
1.054892 -0.626509 3.059000 120 75 40
1.054892 -0.621154 3.059000 117 74 37
1.054892 -0.615800 3.059000 116 75 35
1.054892 -0.610445 3.059000 115 75 35
1.045926 -0.599947 3.033000 116 75 35
1.045926 -0.594638 3.033000 118 71 38
1.045926 -0.589329 3.033000 116 69 41
1.054892 -0.589026 3.059000 115 73 39
1.054892 -0.583671 3.059000 118 77 38
1.045926 -0.573401 3.033000 122 75 38
1.045926 -0.568092 3.033000 119 77 38
1.045926 -0.562782 3.033000 116 77 35
1.045926 -0.557473 3.033000 117 76 32
1.045926 -0.552164 3.033000 119 76 32
1.045926 -0.546854 3.033000 119 78 32
1.045926 -0.541545 3.033000 120 77 30
1.045926 -0.536236 3.033000 118 78 27
1.045926 -0.530927 3.033000 116 76 34
1.054892 -0.530123 3.059000 118 74 41
1.054892 -0.524768 3.059000 120 73 40
1.054892 -0.519414 3.059000 118 72 40
1.054892 -0.514059 3.059000 116 73 39
1.045926 -0.504380 3.033000 117 73 39
1.045926 -0.499071 3.033000 118 74 41
1.045926 -0.493762 3.033000 118 76 43
1.045926 -0.488453 3.033000 119 77 39
1.045926 -0.483143 3.033000 119 76 36
1.045926 -0.477834 3.033000 119 76 36
1.045926 -0.472525 3.033000 119 75 37
1.045926 -0.467215 3.033000 120 75 34
1.045926 -0.461906 3.033000 118 78 32
1.045926 -0.456597 3.033000 117 78 36
1.045926 -0.451288 3.033000 117 79 40
1.045926 -0.445978 3.033000 117 77 41
1.045926 -0.440669 3.033000 119 75 42
1.045926 -0.435360 3.033000 121 75 38
1.045926 -0.430051 3.033000 120 78 33
1.045926 -0.424741 3.033000 119 77 36
1.036615 -0.415698 3.006000 121 78 38
1.036615 -0.410436 3.006000 123 79 38
