ply
format ascii 1.0
element vertex 1223
property float x
property float y
property float z
property uchar red
property uchar green
property uchar blue
end_header
-0.653749 0.642280 1.638000 168 163 175
-0.650556 0.641996 1.630000 173 167 175
-0.641376 0.635750 1.607000 177 170 176
-0.638582 0.635782 1.600000 177 167 178
-0.638582 0.638582 1.600000 177 167 177
-0.632596 0.635370 1.585000 176 167 177
-0.629802 0.635327 1.578000 175 170 178
-0.627008 0.635258 1.571000 177 171 180
-0.627008 0.638008 1.571000 180 171 180
-0.627008 0.640758 1.571000 178 170 180
-0.623815 0.640232 1.563000 176 170 179
-0.618228 0.637208 1.549000 180 171 179
-0.613039 0.634549 1.536000 185 176 185
-0.607452 0.631430 1.522000 182 175 191
-0.599469 0.625762 1.502000 180 168 188
-0.597075 0.625881 1.496000 180 168 186
-1.461900 -0.115922 3.679000 166 138 82
-1.461900 -0.109481 3.679000 170 165 87
-1.461900 -0.103041 3.679000 175 157 90
-1.461900 -0.096601 3.679000 188 190 94
-1.493690 0.072381 3.759000 81 42 31
-1.509981 0.079823 3.800000 81 41 26
-1.509981 0.086475 3.800000 80 43 21
-1.509981 0.093127 3.800000 79 41 18
-1.509981 0.099779 3.800000 81 40 15
-1.509981 0.106431 3.800000 84 41 15
-1.509981 0.113082 3.800000 80 41 16
-1.509981 0.119734 3.800000 76 41 15
-1.509981 0.126386 3.800000 76 42 15
-1.509981 0.133038 3.800000 76 41 16
-1.509981 0.139690 3.800000 76 40 18
-1.509981 0.146342 3.800000 77 38 15
-1.509981 0.152994 3.800000 77 37 13
-1.509981 0.159646 3.800000 77 40 13
-1.509981 0.166298 3.800000 77 42 13
-1.509981 0.172949 3.800000 78 41 11
-1.509981 0.179601 3.800000 78 40 10
-1.509981 0.186253 3.800000 79 42 13
-1.493690 0.190824 3.759000 79 42 17
-1.493690 0.197404 3.759000 79 41 19
-1.509981 0.206209 3.800000 79 42 22
-1.509981 0.212861 3.800000 79 44 21
-1.509981 0.219513 3.800000 72 50 21
-1.509981 0.226165 3.800000 65 55 33
-1.509981 0.232817 3.800000 68 58 45
-1.509981 0.239469 3.800000 71 55 44
-1.543757 0.251626 3.885000 71 56 43
-1.561639 0.261420 3.930000 72 54 45
-1.561639 0.268299 3.930000 71 54 47
-1.561639 0.275179 3.930000 71 55 46
-1.579520 0.285288 3.975000 71 54 45
-1.579520 0.292246 3.975000 72 51 44
-1.579520 0.299204 3.975000 65 48 42
-1.579520 0.306163 3.975000 59 48 42
-1.579520 0.313121 3.975000 62 48 41
-1.579520 0.320079 3.975000 65 46 39
-1.579520 0.327037 3.975000 71 44 38
-1.579520 0.333995 3.975000 78 46 36
-1.579520 0.340954 3.975000 71 49 34
-1.579520 0.347912 3.975000 65 51 37
-1.579520 0.354870 3.975000 65 51 41
-1.579520 0.361828 3.975000 65 49 41
-1.579520 0.368787 3.975000 66 47 41
-1.579520 0.375745 3.975000 68 47 40
-1.579520 0.382703 3.975000 68 49 39
-1.579520 0.549701 3.975000 51 35 28
-1.579520 0.556659 3.975000 47 33 26
-1.579520 0.661033 3.975000 41 28 13
-1.579520 0.667991 3.975000 36 28 14
-1.579520 0.674949 3.975000 42 26 15
-1.579520 0.681907 3.975000 49 24 19
-1.579520 0.688866 3.975000 47 26 24
-1.579520 0.695824 3.975000 45 22 18
-1.579520 0.702782 3.975000 49 21 13
-1.579520 0.737573 3.975000 35 19 8
-1.579520 0.744532 3.975000 36 21 8
-1.579520 0.751490 3.975000 38 18 6
-1.579520 0.814114 3.975000 22 7 5
-1.073279 0.732856 2.701000 138 130 144
-1.073279 0.737584 2.701000 141 129 146
-1.064934 0.736540 2.680000 142 129 147
-1.048642 0.729892 2.639000 144 132 149
-1.048642 0.734512 2.639000 144 136 151
-0.947315 0.692750 2.384000 152 143 162
-0.953673 0.701601 2.400000 153 144 168
-0.953673 0.705802 2.400000 154 143 166
-0.953673 0.710003 2.400000 154 143 164
-0.947315 0.709443 2.384000 154 145 164
-0.940559 0.708527 2.367000 155 146 164
-0.934202 0.707853 2.351000 157 146 166
-0.927844 0.707123 2.335000 159 148 168
-0.921884 0.706642 2.320000 162 150 168
-0.891684 0.687422 2.244000 161 152 168
-0.886121 0.687036 2.230000 161 154 168
-0.880160 0.686292 2.215000 163 155 169
-0.874597 0.685808 2.201000 166 154 170
-0.874597 0.689660 2.201000 165 156 171
-0.869034 0.689102 2.187000 165 153 170
-0.847576 0.675821 2.133000 165 153 170
-0.842411 0.675413 2.120000 165 153 172
-0.842411 0.679124 2.120000 166 154 174
-0.832477 0.674783 2.095000 167 155 177
-0.827311 0.674240 2.082000 168 158 180
-0.822145 0.673652 2.069000 169 157 177
-0.817377 0.673346 2.057000 173 154 174
-0.807840 0.669048 2.033000 177 155 174
-0.803072 0.668637 2.021000 172 162 175
-0.798303 0.668183 2.009000 168 158 177
-0.793932 0.668023 1.998000 169 155 178
-0.789164 0.667487 1.986000 170 156 176
-0.789164 0.670963 1.986000 172 159 173
-0.784793 0.670704 1.975000 175 159 175
-0.775654 0.666310 1.952000 172 160 177
-0.767309 0.662522 1.931000 169 161 179
-0.762938 0.662109 1.920000 167 161 180
-0.758567 0.661658 1.909000 166 158 176
-0.754593 0.661516 1.899000 166 162 173
-0.750222 0.660989 1.888000 167 161 175
-0.746249 0.660775 1.878000 169 161 178
-0.742275 0.660527 1.868000 171 161 177
-0.738301 0.660243 1.858000 170 161 177
-0.734328 0.659925 1.848000 170 161 175
-0.722804 0.652753 1.819000 170 161 173
-0.718831 0.652331 1.809000 171 162 176
-0.718831 0.655498 1.809000 170 164 179
-0.715254 0.655387 1.800000 169 165 179
-0.711281 0.654880 1.790000 169 163 179
-0.711281 0.658013 1.790000 170 162 178
-0.707704 0.657822 1.781000 175 163 178
-0.700552 0.654260 1.763000 181 162 177
-0.686644 0.644296 1.728000 177 159 177
-0.683068 0.643950 1.719000 174 161 176
-0.679889 0.643948 1.711000 173 163 176
-0.676313 0.643540 1.702000 173 164 176
-0.673134 0.643480 1.694000 173 168 176
-0.673134 0.646446 1.694000 174 165 176
-0.669955 0.646344 1.686000 176 162 177
-0.666379 0.645830 1.677000 178 162 176
-0.660021 0.642576 1.661000 176 166 175
-0.656842 0.642374 1.653000 175 165 174
-0.650882 0.639412 1.638000 168 161 173
-0.650882 0.642280 1.638000 161 162 172
-0.647703 0.641996 1.630000 169 172 171
-0.641742 0.638915 1.615000 177 169 175
-0.638563 0.638563 1.607000 177 167 178
-0.638563 0.641376 1.607000 177 166 176
-0.632603 0.638176 1.592000 175 169 174
-0.629821 0.638145 1.585000 173 169 177
-0.627040 0.638089 1.578000 177 171 180
-0.624258 0.638008 1.571000 181 170 181
-0.624258 0.640758 1.571000 181 168 183
-0.615516 0.634497 1.549000 181 169 180
-0.612735 0.634329 1.542000 182 172 178
-0.610350 0.634549 1.536000 183 174 181
-0.607569 0.634334 1.529000 183 176 183
-0.602006 0.631178 1.515000 183 171 183
-0.599622 0.631320 1.509000 183 171 184
-1.503330 0.079823 3.800000 83 42 27
-1.503330 0.086475 3.800000 81 41 17
-1.503330 0.093127 3.800000 79 40 13
-1.503330 0.099779 3.800000 80 40 9
-1.503330 0.106431 3.800000 81 41 12
-1.503330 0.113082 3.800000 78 40 15
-1.503330 0.119734 3.800000 75 40 14
-1.503330 0.126386 3.800000 75 42 14
-1.503330 0.133038 3.800000 76 41 16
-1.503330 0.139690 3.800000 76 39 19
-1.503330 0.146342 3.800000 77 39 12
-1.503330 0.152994 3.800000 77 38 6
-1.503330 0.159646 3.800000 77 41 8
-1.503330 0.166298 3.800000 77 41 11
-1.503330 0.172949 3.800000 77 41 10
-1.503330 0.179601 3.800000 76 42 9
-1.503330 0.186253 3.800000 75 46 13
-1.487110 0.190824 3.759000 76 43 17
-1.503330 0.199557 3.800000 78 42 18
-1.503330 0.206209 3.800000 78 42 19
-1.503330 0.212861 3.800000 79 42 15
-1.503330 0.219513 3.800000 74 48 12
-1.503330 0.226165 3.800000 69 56 28
-1.503330 0.232817 3.800000 70 56 45
-1.503330 0.239469 3.800000 72 54 43
-1.536957 0.251626 3.885000 72 54 41
-1.554760 0.261420 3.930000 72 54 45
-1.554760 0.268299 3.930000 72 54 49
-1.572562 0.278330 3.975000 71 58 47
-1.572562 0.285288 3.975000 73 54 45
-1.572562 0.292246 3.975000 76 51 43
-1.572562 0.299204 3.975000 70 51 41
-1.572562 0.306163 3.975000 65 50 40
-1.572562 0.327037 3.975000 69 46 39
-1.572562 0.333995 3.975000 72 45 39
-1.572562 0.340954 3.975000 70 49 40
-1.572562 0.347912 3.975000 68 53 40
-1.572562 0.354870 3.975000 69 51 41
-1.572562 0.361828 3.975000 70 50 42
-1.572562 0.368787 3.975000 70 48 44
-1.572562 0.375745 3.975000 69 48 41
-1.572562 0.382703 3.975000 68 48 39
-1.572562 0.556659 3.975000 55 32 27
-1.572562 0.661033 3.975000 43 28 12
-1.572562 0.667991 3.975000 40 30 13
-1.572562 0.674949 3.975000 44 24 14
-1.572562 0.681907 3.975000 48 21 20
-0.949471 0.701601 2.400000 152 144 165
-0.949471 0.705802 2.400000 153 146 165
-0.943142 0.705270 2.384000 154 145 165
-0.943142 0.709443 2.384000 155 148 165
-0.943142 0.713616 2.384000 156 146 166
-0.930086 0.707853 2.351000 157 147 167
-0.923756 0.707123 2.335000 159 148 169
-0.911493 0.701769 2.304000 160 151 169
-0.882217 0.683133 2.230000 159 153 169
-0.876283 0.682415 2.215000 159 156 169
-0.876283 0.686292 2.215000 161 155 169
-0.876283 0.690170 2.215000 164 156 169
-0.870744 0.689660 2.201000 164 154 170
-0.865206 0.689102 2.187000 163 153 170
-0.838700 0.671702 2.120000 164 153 171
-0.838700 0.675413 2.120000 165 154 173
-0.833557 0.674960 2.107000 168 155 175
-0.823666 0.670596 2.082000 171 156 179
-0.818523 0.670030 2.069000 170 157 184
-0.818523 0.673652 2.069000 169 160 179
-0.813776 0.673346 2.057000 169 156 174
-0.809029 0.672997 2.045000 170 149 175
-0.804281 0.672607 2.033000 168 156 176
-0.794787 0.668183 2.009000 167 158 176
-0.790435 0.668023 1.998000 168 157 177
-0.785688 0.667487 1.986000 169 154 173
-0.781336 0.667247 1.975000 170 157 170
-0.781336 0.670704 1.975000 172 161 174
-0.772237 0.666310 1.952000 168 161 179
-0.759577 0.658748 1.920000 165 162 181
-0.759577 0.662109 1.920000 165 158 184
-0.755225 0.661658 1.909000 166 148 177
-0.751269 0.661516 1.899000 167 156 171
-0.746917 0.660989 1.888000 169 160 173
-0.742961 0.660775 1.878000 170 162 175
-0.739005 0.660527 1.868000 172 164 176
-0.731093 0.656690 1.848000 170 161 177
-0.727137 0.656354 1.838000 169 161 177
-0.719620 0.652753 1.819000 169 161 178
-0.715664 0.652331 1.809000 169 161 178
-0.715664 0.655498 1.809000 166 163 178
-0.715664 0.658664 1.809000 163 165 178
-0.712103 0.658538 1.800000 166 163 179
-0.708147 0.658013 1.790000 169 162 179
-0.704587 0.657822 1.781000 173 163 179
-0.690345 0.647580 1.745000 177 165 178
-0.683619 0.644296 1.728000 175 164 178
-0.680059 0.643950 1.719000 174 165 177
-0.676894 0.643948 1.711000 173 164 176
-0.673333 0.643540 1.702000 173 161 176
-0.673333 0.646519 1.702000 174 165 176
-0.670169 0.646446 1.694000 175 167 174
-0.667004 0.646344 1.686000 177 163 172
-0.663443 0.645830 1.677000 179 162 174
-0.657113 0.642576 1.661000 179 163 176
-0.653948 0.642374 1.653000 179 165 174
-0.648014 0.639412 1.638000 173 161 172
-0.648014 0.642280 1.638000 168 155 170
-0.641684 0.638845 1.622000 173 165 168
-0.635750 0.635750 1.607000 178 168 173
-0.635750 0.638563 1.607000 178 167 179
-0.632981 0.638582 1.600000 178 164 175
-0.627047 0.635370 1.585000 177 167 171
-0.624277 0.635327 1.578000 177 169 175
-0.621508 0.635258 1.571000 180 170 180
-0.621508 0.638008 1.571000 183 172 183
-0.615574 0.634640 1.556000 183 169 186
-0.612805 0.634497 1.549000 183 169 182
-0.607662 0.631861 1.536000 184 172 178
-0.604892 0.631658 1.529000 185 175 177
-0.602123 0.631430 1.522000 184 174 176
-0.599354 0.631178 1.515000 184 172 179
-0.599354 0.633830 1.515000 184 172 182
-1.496678 0.079823 3.800000 86 43 25
-1.496678 0.086475 3.800000 82 40 20
-1.496678 0.093127 3.800000 79 41 16
-1.496678 0.099779 3.800000 79 42 13
-1.496678 0.106431 3.800000 79 41 16
-1.496678 0.113082 3.800000 76 41 20
-1.496678 0.119734 3.800000 74 41 16
-1.513220 0.127783 3.842000 75 45 13
-1.496678 0.133038 3.800000 76 41 15
-1.513220 0.141234 3.842000 76 39 18
-1.496678 0.146342 3.800000 77 38 18
-1.496678 0.152994 3.800000 77 35 18
-1.496678 0.159646 3.800000 78 38 17
-1.496678 0.166298 3.800000 77 42 16
-1.496678 0.172949 3.800000 77 42 13
-1.496678 0.179601 3.800000 74 44 10
-1.496678 0.186253 3.800000 72 43 17
-1.496678 0.192905 3.800000 74 43 23
-1.496678 0.199557 3.800000 77 43 21
-1.513220 0.208488 3.842000 78 44 19
-1.513220 0.215214 3.842000 79 43 19
-1.513220 0.221939 3.842000 76 47 19
-1.513220 0.228665 3.842000 73 53 34
-1.513220 0.235390 3.842000 73 57 50
-1.513220 0.242115 3.842000 73 54 46
-1.547880 0.254540 3.930000 73 52 43
-1.547880 0.261420 3.930000 73 52 47
-1.565603 0.271371 3.975000 72 52 52
-1.565603 0.278330 3.975000 72 53 49
-1.565603 0.292246 3.975000 80 52 46
-1.565603 0.299204 3.975000 76 55 46
-1.565603 0.306163 3.975000 72 51 39
-1.565603 0.556659 3.975000 64 33 29
-1.565603 0.667991 3.975000 45 24 14
-1.565603 0.674949 3.975000 46 19 14
-0.951966 0.706570 2.417000 152 145 165
-0.945270 0.705802 2.400000 153 145 167
-0.945270 0.710003 2.400000 155 146 169
-0.938968 0.709443 2.384000 157 146 168
-0.932273 0.708527 2.367000 157 146 167
-0.932273 0.712671 2.367000 158 147 167
-0.925971 0.711969 2.351000 158 149 168
-0.913761 0.706642 2.320000 159 152 169
-0.878313 0.683133 2.230000 158 155 171
-0.872406 0.682415 2.215000 157 155 171
-0.872406 0.686292 2.215000 160 154 170
-0.872406 0.690170 2.215000 163 154 170
-0.872406 0.694047 2.215000 162 153 170
-0.866891 0.693513 2.201000 162 153 171
-0.850743 0.684376 2.160000 163 152 172
-0.840109 0.679555 2.133000 165 154 173
-0.834989 0.679124 2.120000 170 156 174
-0.820022 0.670596 2.082000 175 156 177
-0.814902 0.670030 2.069000 172 157 180
-0.814902 0.673652 2.069000 169 159 176
-0.810175 0.673346 2.057000 166 161 173
-0.805449 0.672997 2.045000 163 154 174
-0.795996 0.668637 2.021000 165 156 174
-0.791270 0.668183 2.009000 167 158 176
-0.782211 0.664010 1.986000 168 163 179
-0.782211 0.667487 1.986000 169 157 175
-0.777879 0.667247 1.975000 169 156 172
-0.773546 0.666969 1.964000 169 159 175
-0.768820 0.666310 1.952000 165 163 178
-0.760549 0.662522 1.931000 162 162 179
-0.756216 0.662109 1.920000 164 162 181
-0.751884 0.661658 1.909000 166 156 177
-0.747945 0.661516 1.899000 168 154 173
-0.743613 0.660989 1.888000 171 159 176
-0.739674 0.660775 1.878000 172 163 179
-0.735735 0.660527 1.868000 173 162 178
-0.727858 0.656690 1.848000 171 160 177
-0.716436 0.649569 1.819000 169 161 178
-0.716436 0.652753 1.819000 168 161 178
-0.712497 0.652331 1.809000 168 161 175
-0.712497 0.655498 1.809000 163 163 173
-0.712497 0.658664 1.809000 158 163 176
-0.708953 0.658538 1.800000 163 164 179
-0.705014 0.658013 1.790000 169 163 180
-0.701469 0.657822 1.781000 171 165 181
-0.683745 0.644240 1.736000 174 166 180
-0.680594 0.644296 1.728000 174 168 178
-0.677050 0.643950 1.719000 174 166 177
-0.677050 0.646959 1.719000 173 167 176
-0.673899 0.646943 1.711000 173 165 175
-0.670354 0.646519 1.702000 175 167 175
-0.667203 0.646446 1.694000 177 165 174
-0.664052 0.646344 1.686000 178 163 174
-0.657357 0.642749 1.669000 180 161 176
-0.654206 0.642576 1.661000 181 162 179
-0.651055 0.642374 1.653000 183 164 176
-0.645147 0.639412 1.638000 179 165 173
-0.645147 0.642280 1.638000 176 163 172
-0.645147 0.645147 1.638000 178 167 171
-0.638845 0.641684 1.622000 180 167 179
-0.630180 0.635782 1.600000 179 169 187
-0.630180 0.638582 1.600000 179 167 181
-0.621515 0.632564 1.578000 180 166 176
-0.621515 0.635327 1.578000 181 168 178
-0.618758 0.635258 1.571000 183 169 181
-0.615607 0.634759 1.563000 185 171 183
-0.612850 0.634640 1.556000 185 170 184
-0.610093 0.634497 1.549000 186 170 182
-0.604973 0.631861 1.536000 186 173 180
-0.602216 0.631658 1.529000 187 176 179
-0.599459 0.631430 1.522000 186 175 179
-0.596702 0.631178 1.515000 186 173 181
-0.596702 0.633830 1.515000 186 173 183
-1.506495 0.080705 3.842000 83 44 23
-1.490026 0.086475 3.800000 81 42 23
-1.490026 0.093127 3.800000 80 42 20
-1.490026 0.099779 3.800000 82 41 18
-1.506495 0.107607 3.842000 83 40 21
-1.506495 0.114332 3.842000 80 40 25
-1.506495 0.121058 3.842000 77 40 19
-1.506495 0.127783 3.842000 78 41 13
-1.506495 0.134508 3.842000 79 41 15
-1.506495 0.141234 3.842000 78 39 17
-1.506495 0.147959 3.842000 77 39 24
-1.490026 0.152994 3.800000 77 37 31
-1.490026 0.159646 3.800000 77 36 26
-1.490026 0.166298 3.800000 77 39 21
-1.490026 0.172949 3.800000 77 41 16
-1.490026 0.179601 3.800000 76 43 12
-1.490026 0.186253 3.800000 74 42 21
-1.490026 0.192905 3.800000 75 42 30
-1.506495 0.201763 3.842000 77 44 24
-1.506495 0.208488 3.842000 77 43 19
-1.523355 0.217622 3.885000 78 42 23
-1.506495 0.221939 3.842000 76 46 27
-1.506495 0.228665 3.842000 74 52 41
-1.506495 0.235390 3.842000 75 53 55
-1.541000 0.247661 3.930000 77 53 50
-1.541000 0.254540 3.930000 74 52 45
-1.558645 0.264413 3.975000 72 53 50
-1.558645 0.271371 3.975000 71 50 55
-1.558645 0.278330 3.975000 70 49 51
-1.558645 0.292246 3.975000 74 49 49
-1.558645 0.299204 3.975000 73 50 51
-1.558645 0.306163 3.975000 71 51 39
-1.558645 0.556659 3.975000 59 39 32
-0.941069 0.701601 2.400000 152 144 165
-0.934795 0.701096 2.384000 151 146 169
-0.934795 0.705270 2.384000 154 146 174
-0.928129 0.704384 2.367000 156 146 171
-0.921856 0.703738 2.351000 157 146 168
-0.921856 0.707853 2.351000 158 147 167
-0.915582 0.707123 2.335000 159 149 167
-0.879900 0.683493 2.244000 160 153 170
-0.874410 0.683133 2.230000 159 154 174
-0.868528 0.682415 2.215000 159 156 173
-0.868528 0.686292 2.215000 163 155 172
-0.868528 0.690170 2.215000 168 155 171
-0.863039 0.689660 2.201000 165 154 171
-0.857549 0.689102 2.187000 162 154 172
-0.846962 0.684376 2.160000 162 154 173
-0.836375 0.679555 2.133000 162 155 173
-0.831278 0.679124 2.120000 166 156 173
-0.816377 0.670596 2.082000 171 157 174
-0.811280 0.670030 2.069000 169 158 176
-0.811280 0.673652 2.069000 167 160 174
-0.806575 0.673346 2.057000 166 158 173
-0.806575 0.676947 2.057000 164 153 173
-0.792459 0.668637 2.021000 166 154 173
-0.787753 0.668183 2.009000 167 156 177
-0.778735 0.664010 1.986000 167 158 181
-0.774421 0.663790 1.975000 168 158 178
-0.770108 0.663531 1.964000 168 157 175
-0.770108 0.666969 1.964000 169 159 176
-0.761090 0.662556 1.941000 166 161 177
-0.757168 0.662522 1.931000 163 162 177
-0.752855 0.662109 1.920000 165 161 178
-0.748542 0.661658 1.909000 167 160 177
-0.744621 0.661516 1.899000 171 158 176
-0.740308 0.660989 1.888000 174 159 179
-0.736386 0.660775 1.878000 174 160 183
-0.732465 0.660527 1.868000 174 162 180
-0.724623 0.656690 1.848000 171 161 178
-0.713252 0.649569 1.819000 168 162 178
-0.713252 0.652753 1.819000 167 162 179
-0.709331 0.652331 1.809000 167 161 173
-0.709331 0.655498 1.809000 164 160 168
-0.709331 0.658664 1.809000 162 161 173
-0.705802 0.658538 1.800000 165 164 179
-0.705802 0.661689 1.800000 169 163 181
-0.701881 0.661146 1.790000 171 163 184
-0.684236 0.647580 1.745000 174 167 181
-0.680707 0.647279 1.736000 174 166 179
-0.677570 0.647321 1.728000 175 167 177
-0.674041 0.646959 1.719000 173 165 176
-0.670904 0.646943 1.711000 171 166 175
-0.667375 0.646519 1.702000 174 165 175
-0.664238 0.646446 1.694000 177 165 175
-0.657572 0.642894 1.677000 176 162 176
-0.651298 0.639668 1.661000 176 158 179
-0.648161 0.639481 1.653000 178 162 182
-0.645024 0.639265 1.645000 180 164 178
-0.642280 0.639412 1.638000 178 165 174
-0.642280 0.642280 1.638000 177 167 174
-0.642280 0.645147 1.638000 179 166 175
-0.636006 0.641684 1.622000 181 166 185
-0.630124 0.638563 1.607000 181 169 195
-0.630124 0.641376 1.607000 182 171 188
-0.616008 0.629758 1.571000 183 169 181
-0.616008 0.632508 1.571000 185 168 182
-0.612871 0.632023 1.563000 185 171 183
-0.610126 0.631917 1.556000 185 175 183
-0.610126 0.634640 1.556000 186 171 183
-0.607382 0.634497 1.549000 188 170 182
-0.604637 0.634329 1.542000 189 174 182
-0.602284 0.634549 1.536000 191 183 182
-0.596795 0.631430 1.522000 189 176 182
-0.594050 0.631178 1.515000 188 172 183
-0.591697 0.631320 1.509000 188 173 185
-1.483374 0.079823 3.800000 80 44 18
-1.483374 0.086475 3.800000 81 43 18
-1.483374 0.093127 3.800000 82 42 16
-1.499769 0.100881 3.842000 85 42 14
-1.499769 0.107607 3.842000 88 40 17
-1.499769 0.114332 3.842000 84 39 21
-1.499769 0.121058 3.842000 80 38 17
-1.516554 0.129213 3.885000 81 38 13
-1.516554 0.136014 3.885000 82 38 14
-1.516554 0.142815 3.885000 79 38 15
-1.516554 0.149615 3.885000 77 38 18
-1.499769 0.154685 3.842000 77 39 22
-1.483374 0.159646 3.800000 77 38 18
-1.483374 0.166298 3.800000 77 40 14
-1.483374 0.172949 3.800000 78 42 14
-1.483374 0.179601 3.800000 77 45 14
-1.483374 0.186253 3.800000 77 43 18
-1.483374 0.192905 3.800000 77 42 22
-1.499769 0.201763 3.842000 77 42 20
-1.499769 0.208488 3.842000 77 42 19
-1.516554 0.217622 3.885000 78 42 23
-1.499769 0.221939 3.842000 77 45 27
-1.499769 0.228665 3.842000 76 49 38
-1.499769 0.235390 3.842000 78 50 49
-1.534121 0.247661 3.930000 81 50 46
-1.551687 0.257455 3.975000 76 51 44
-1.551687 0.271371 3.975000 70 49 49
-1.551687 0.278330 3.975000 69 49 47
-1.551687 0.292246 3.975000 69 46 47
-1.551687 0.299204 3.975000 70 45 49
-1.551687 0.306163 3.975000 71 47 41
-1.022357 0.719776 2.619000 147 131 146
-1.014550 0.718829 2.599000 145 133 149
-1.007133 0.718090 2.580000 147 136 152
-0.930622 0.696923 2.384000 152 145 165
-0.923986 0.696097 2.367000 150 144 167
-0.923986 0.700240 2.367000 153 146 170
-0.917740 0.699623 2.351000 156 146 169
-0.917740 0.703738 2.351000 157 146 168
-0.911494 0.703036 2.335000 159 147 165
-0.905639 0.702581 2.320000 160 148 163
-0.881827 0.688062 2.259000 161 151 167
-0.875971 0.687422 2.244000 161 155 171
-0.870506 0.687036 2.230000 162 155 170
-0.864651 0.686292 2.215000 167 155 170
-0.864651 0.690170 2.215000 173 155 170
-0.859186 0.689660 2.201000 168 155 171
-0.848646 0.685006 2.174000 163 154 172
-0.832641 0.675821 2.133000 161 155 173
-0.827566 0.675413 2.120000 159 156 173
-0.827566 0.679124 2.120000 163 157 173
-0.822492 0.678648 2.107000 167 159 174
-0.812733 0.674240 2.082000 166 160 175
-0.807658 0.673652 2.069000 166 160 177
-0.802974 0.673346 2.057000 166 160 178
-0.802974 0.676947 2.057000 166 156 176
-0.793605 0.672607 2.033000 167 154 174
-0.784236 0.668183 2.009000 168 155 176
-0.775258 0.664010 1.986000 167 156 179
-0.770964 0.663790 1.975000 167 157 176
-0.766670 0.663531 1.964000 168 158 173
-0.761986 0.662893 1.952000 169 159 173
-0.757692 0.662556 1.941000 166 160 173
-0.749494 0.658748 1.920000 164 160 175
-0.749494 0.662109 1.920000 166 161 177
-0.745200 0.661658 1.909000 169 160 177
-0.741296 0.661516 1.899000 173 160 176
-0.737003 0.660989 1.888000 178 158 179
-0.733099 0.660775 1.878000 176 158 181
-0.729195 0.660527 1.868000 175 159 178
-0.721388 0.656690 1.848000 171 160 176
-0.710068 0.649569 1.819000 168 160 179
-0.710068 0.652753 1.819000 167 164 183
-0.706164 0.652331 1.809000 166 161 177
-0.706164 0.655498 1.809000 166 158 171
-0.706164 0.658664 1.809000 166 162 174
-0.702651 0.658538 1.800000 167 168 178
-0.698747 0.658013 1.790000 169 164 179
-0.695234 0.657822 1.781000 172 160 181
-0.681181 0.647580 1.745000 175 161 179
-0.674545 0.644296 1.728000 175 163 178
-0.671031 0.643950 1.719000 176 163 176
-0.667909 0.643948 1.711000 172 163 173
-0.667909 0.646943 1.711000 169 163 174
-0.664395 0.646519 1.702000 173 164 175
-0.661272 0.646446 1.694000 178 164 176
-0.654636 0.642894 1.677000 175 163 176
-0.651513 0.642749 1.669000 172 163 178
-0.648391 0.642576 1.661000 174 165 179
-0.642145 0.639265 1.645000 177 165 178
-0.639412 0.639412 1.638000 177 165 176
-0.636289 0.639143 1.630000 178 166 177
-0.636289 0.641996 1.630000 180 167 177
-0.630434 0.638915 1.615000 182 168 183
-0.624578 0.635782 1.600000 183 171 188
-0.624578 0.638582 1.600000 185 171 185
-0.615991 0.632564 1.578000 187 171 182
-0.613258 0.632508 1.571000 189 171 184
-0.610135 0.632023 1.563000 187 175 187
-0.607403 0.631917 1.556000 186 174 185
-0.607403 0.634640 1.556000 188 172 184
-0.604670 0.634497 1.549000 190 172 183
-0.601937 0.634329 1.542000 192 172 182
-0.596863 0.631658 1.529000 195 175 182
-0.594130 0.631430 1.522000 192 175 183
-0.594130 0.634094 1.522000 190 174 184
-0.589056 0.631320 1.509000 190 177 185
-1.509754 0.081608 3.885000 80 46 14
-1.493044 0.087430 3.842000 80 44 14
-1.493044 0.094156 3.842000 81 42 12
-1.493044 0.100881 3.842000 81 41 10
-1.493044 0.107607 3.842000 82 42 13
-1.493044 0.114332 3.842000 81 39 17
-1.509754 0.122413 3.885000 80 38 15
-1.509754 0.129213 3.885000 78 37 14
-1.509754 0.136014 3.885000 77 36 13
-1.509754 0.142815 3.885000 77 38 13
-1.509754 0.149615 3.885000 77 39 13
-1.509754 0.156416 3.885000 77 38 14
-1.509754 0.163217 3.885000 77 40 10
-1.509754 0.170017 3.885000 77 41 7
-1.509754 0.176818 3.885000 77 44 12
-1.509754 0.183619 3.885000 75 44 17
-1.509754 0.190419 3.885000 73 44 15
-1.509754 0.197220 3.885000 75 41 14
-1.527241 0.206384 3.930000 77 41 16
-1.527241 0.213264 3.930000 77 39 19
-1.509754 0.217622 3.885000 78 40 23
-1.493044 0.221939 3.842000 75 45 27
-1.493044 0.228665 3.842000 73 51 35
-1.493044 0.235390 3.842000 74 50 43
-1.527241 0.247661 3.930000 75 49 43
-1.527241 0.254540 3.930000 71 48 44
-1.544729 0.271371 3.975000 66 48 44
-1.544729 0.278330 3.975000 66 50 43
-1.544729 0.292246 3.975000 66 44 45
-1.544729 0.299204 3.975000 67 42 47
-1.544729 0.306163 3.975000 68 42 43
-1.017772 0.719776 2.619000 147 131 146
-1.017772 0.724361 2.619000 146 133 150
-1.010000 0.723379 2.599000 148 136 154
-0.919842 0.691954 2.367000 153 142 165
-0.919842 0.696097 2.367000 152 140 165
-0.913625 0.695507 2.351000 155 144 166
-0.907407 0.694861 2.335000 158 149 167
-0.907407 0.698949 2.335000 158 148 168
-0.907407 0.703036 2.335000 159 148 164
-0.895360 0.697735 2.304000 160 149 160
-0.877872 0.688062 2.259000 162 151 164
-0.872043 0.687422 2.244000 162 153 168
-0.866603 0.687036 2.230000 163 155 168
-0.866603 0.690940 2.230000 166 154 169
-0.860773 0.690170 2.215000 169 155 170
-0.855333 0.689660 2.201000 166 154 171
-0.839400 0.680595 2.160000 164 154 172
-0.828907 0.675821 2.133000 162 155 174
-0.823855 0.675413 2.120000 161 158 173
-0.823855 0.679124 2.120000 164 159 173
-0.809088 0.670596 2.082000 166 163 174
-0.804036 0.670030 2.069000 165 161 175
-0.804036 0.673652 2.069000 164 162 179
-0.799373 0.673346 2.057000 164 161 184
-0.794710 0.672997 2.045000 165 160 180
-0.790046 0.672607 2.033000 166 156 176
-0.780720 0.668183 2.009000 166 156 176
-0.776445 0.668023 1.998000 167 156 177
-0.771782 0.667487 1.986000 167 156 174
-0.767507 0.667247 1.975000 168 158 172
-0.758569 0.662893 1.952000 169 161 170
-0.750408 0.659142 1.931000 165 159 169
-0.741858 0.654974 1.909000 162 159 173
-0.741858 0.658316 1.909000 165 160 177
-0.737972 0.658192 1.899000 168 160 177
-0.733698 0.657684 1.888000 171 159 177
-0.729812 0.657488 1.878000 175 158 178
-0.725925 0.657257 1.868000 174 159 180
-0.725925 0.660527 1.868000 173 159 177
-0.710381 0.649583 1.828000 171 157 174
-0.710381 0.652783 1.828000 169 156 181
-0.706884 0.652753 1.819000 168 161 188
-0.702997 0.652331 1.809000 167 163 181
-0.702997 0.655498 1.809000 167 161 175
-0.699500 0.655387 1.800000 168 163 176
-0.695614 0.654880 1.790000 169 165 177
-0.695614 0.658013 1.790000 170 165 177
-0.685121 0.651174 1.763000 173 160 178
-0.678126 0.647580 1.745000 175 157 178
-0.671520 0.644296 1.728000 176 159 178
-0.664914 0.640953 1.711000 177 162 174
-0.661416 0.640561 1.702000 175 162 171
-0.661416 0.643540 1.702000 173 159 173
-0.661416 0.646519 1.702000 177 162 176
-0.658307 0.646446 1.694000 181 166 176
-0.655198 0.646344 1.686000 178 164 177
-0.648592 0.642749 1.669000 175 166 177
-0.645483 0.642576 1.661000 176 165 177
-0.639265 0.639265 1.645000 178 166 178
-0.636545 0.639412 1.638000 179 166 179
-0.636545 0.642280 1.638000 179 167 179
-0.633436 0.641996 1.630000 180 168 180
-0.630327 0.641684 1.622000 182 171 181
-0.621778 0.635782 1.600000 183 171 182
-0.624498 0.641376 1.607000 184 172 183
-0.621778 0.641383 1.600000 185 172 184
-0.610508 0.632508 1.571000 186 173 187
-0.607399 0.632023 1.563000 185 177 191
-0.604679 0.631917 1.556000 184 177 188
-0.604679 0.634640 1.556000 186 174 185
-0.603124 0.635726 1.552000 189 175 183
-0.601959 0.637208 1.549000 191 173 182
-0.596907 0.634549 1.536000 193 170 183
-0.594186 0.634334 1.529000 191 175 185
-0.594186 0.637011 1.529000 190 175 185
-0.588746 0.633830 1.515000 190 176 185
-1.520362 0.082554 3.930000 80 46 17
-1.502953 0.088409 3.885000 80 45 17
-1.502953 0.095210 3.885000 80 41 15
-1.502953 0.102010 3.885000 78 39 13
-1.502953 0.108811 3.885000 77 40 15
-1.502953 0.115612 3.885000 78 40 17
-1.502953 0.122413 3.885000 80 38 17
-1.502953 0.129213 3.885000 76 37 18
-1.502953 0.136014 3.885000 73 38 16
-1.502953 0.142815 3.885000 75 41 15
-1.502953 0.149615 3.885000 77 39 14
-1.502953 0.156416 3.885000 77 37 14
-1.520362 0.165107 3.930000 77 39 18
-1.520362 0.171987 3.930000 76 40 23
-1.520362 0.178866 3.930000 76 42 21
-1.520362 0.185746 3.930000 72 43 20
-1.520362 0.192625 3.930000 69 41 19
-1.520362 0.199505 3.930000 73 39 17
-1.520362 0.206384 3.930000 77 38 19
-1.520362 0.213264 3.930000 77 34 20
-1.520362 0.220143 3.930000 78 40 24
-1.520362 0.227022 3.930000 74 46 28
-1.520362 0.233902 3.930000 71 48 34
-1.520362 0.240781 3.930000 70 51 41
-1.537771 0.250497 3.975000 69 48 41
-1.537771 0.257455 3.975000 66 46 42
-1.020925 0.725272 2.639000 147 132 150
-1.013188 0.724361 2.619000 148 134 151
-1.005451 0.723379 2.599000 150 138 153
-1.005451 0.727928 2.599000 152 138 155
-0.915699 0.691954 2.367000 155 142 168
-0.909509 0.691392 2.351000 155 142 167
-0.909509 0.695507 2.351000 157 144 166
-0.903319 0.694861 2.335000 160 146 168
-0.903319 0.698949 2.335000 160 149 170
-0.897517 0.698520 2.320000 160 149 167
-0.891327 0.697735 2.304000 161 151 164
-0.868115 0.683493 2.244000 163 152 166
-0.862699 0.683133 2.230000 164 154 168
-0.862699 0.687036 2.230000 165 154 168
-0.862699 0.690940 2.230000 165 154 169
-0.856896 0.690170 2.215000 166 154 170
-0.856896 0.694047 2.215000 165 154 171
-0.851480 0.693513 2.201000 165 154 172
-0.825174 0.675821 2.133000 164 155 172
-0.825174 0.679555 2.133000 164 158 171
-0.820144 0.679124 2.120000 165 161 170
-0.800415 0.666408 2.069000 166 160 172
-0.800415 0.670030 2.069000 164 161 174
-0.800415 0.673652 2.069000 162 162 177
-0.795772 0.673346 2.057000 163 165 179
-0.791130 0.672997 2.045000 165 159 177
-0.786487 0.672607 2.033000 165 154 175
-0.781845 0.672175 2.021000 165 155 175
-0.774882 0.669694 2.003000 166 156 176
-0.772947 0.671520 1.998000 168 157 175
-0.768305 0.670963 1.986000 168 160 174
-0.750896 0.659158 1.941000 169 159 175
-0.747028 0.659142 1.931000 164 157 176
-0.738517 0.654974 1.909000 160 158 177
-0.738517 0.658316 1.909000 164 160 179
-0.738517 0.661658 1.909000 168 159 178
-0.730393 0.657684 1.888000 170 159 178
-0.726524 0.657488 1.878000 172 159 181
-0.722656 0.657257 1.868000 172 161 184
-0.718787 0.656991 1.858000 172 159 180
-0.711050 0.653136 1.838000 171 156 177
-0.707181 0.652783 1.828000 171 160 180
-0.707181 0.655982 1.828000 170 164 184
-0.703699 0.655937 1.819000 169 163 180
-0.699831 0.655498 1.809000 169 162 176
-0.696349 0.655387 1.800000 170 164 176
-0.692480 0.654880 1.790000 171 166 176
-0.692480 0.658013 1.790000 172 163 177
-0.682035 0.651174 1.763000 174 160 178
-0.676619 0.649065 1.749000 176 158 178
-0.661918 0.637958 1.711000 177 157 177
-0.661918 0.640953 1.711000 178 160 175
-0.658437 0.640561 1.702000 178 164 173
-0.658437 0.643540 1.702000 178 162 176
-0.655342 0.643480 1.694000 181 161 178
-0.655342 0.646446 1.694000 185 163 177
-0.652247 0.646344 1.686000 181 164 176
-0.645670 0.642749 1.669000 178 164 176
-0.642576 0.642576 1.661000 179 164 177
-0.636386 0.639265 1.645000 180 164 177
-0.633678 0.639412 1.638000 180 166 178
-0.630583 0.639143 1.630000 181 167 179
-0.630583 0.641996 1.630000 181 170 180
-0.624780 0.638915 1.615000 182 171 181
-0.618977 0.635782 1.600000 182 172 182
-0.618977 0.638582 1.600000 183 172 183
-0.613174 0.635370 1.585000 183 172 184
-0.610466 0.635327 1.578000 184 176 186
-0.604663 0.632023 1.563000 183 185 188
-0.601955 0.631917 1.556000 183 177 186
-0.601955 0.634640 1.556000 185 173 184
-0.601955 0.637364 1.556000 188 173 184
-0.596539 0.634329 1.542000 189 175 184
-0.591510 0.631658 1.529000 191 176 186
-0.591510 0.634334 1.529000 191 183 189
-0.588802 0.634094 1.522000 191 177 187
-0.586094 0.633830 1.515000 191 177 185
-1.530812 0.083499 3.975000 80 45 21
-1.513482 0.089433 3.930000 80 43 20
-1.513482 0.096313 3.930000 81 40 18
-1.513482 0.103192 3.930000 80 40 17
-1.513482 0.110072 3.930000 80 42 17
-1.513482 0.116951 3.930000 80 40 18
-1.513482 0.123830 3.930000 81 39 20
-1.513482 0.130710 3.930000 78 39 22
-1.496152 0.136014 3.885000 76 41 19
-1.496152 0.142815 3.885000 77 40 17
-1.496152 0.149615 3.885000 79 40 15
-1.496152 0.156416 3.885000 79 39 14
-1.513482 0.165107 3.930000 80 40 26
-1.513482 0.171987 3.930000 79 39 39
-1.513482 0.178866 3.930000 77 42 31
-1.513482 0.185746 3.930000 76 40 24
-1.513482 0.192625 3.930000 74 38 22
-1.530812 0.201789 3.975000 78 39 21
-1.530812 0.208747 3.975000 81 41 21
-1.530812 0.215705 3.975000 80 38 22
-1.513482 0.220143 3.930000 78 40 26
-1.513482 0.227022 3.930000 74 42 30
-1.513482 0.233902 3.930000 69 45 34
-1.530812 0.243538 3.975000 67 47 39
-1.530812 0.250497 3.975000 66 48 40
-1.008603 0.719776 2.619000 147 134 154
-1.000901 0.718829 2.599000 148 136 153
-1.000901 0.723379 2.599000 150 137 153
-1.000901 0.727928 2.599000 153 139 155
-0.918102 0.696923 2.384000 156 145 172
-0.911555 0.696097 2.367000 156 145 169
-0.905394 0.695507 2.351000 160 144 167
-0.899232 0.694861 2.335000 164 143 170
-0.899232 0.698949 2.335000 162 149 173
-0.893455 0.698520 2.320000 161 151 171
-0.887294 0.697735 2.304000 163 151 169
-0.869964 0.688062 2.259000 164 152 168
-0.864187 0.687422 2.244000 166 153 168
-0.864187 0.691350 2.244000 168 154 168
-0.858795 0.690940 2.230000 166 154 169
-0.858795 0.694844 2.230000 165 155 170
-0.853019 0.694047 2.215000 164 155 172
-0.853019 0.697925 2.215000 164 156 171
-0.821440 0.675821 2.133000 163 156 171
-0.821440 0.679555 2.133000 162 158 169
-0.816433 0.679124 2.120000 165 158 168
-0.796793 0.666408 2.069000 168 157 171
-0.796793 0.670030 2.069000 166 159 174
-0.792171 0.669745 2.057000 164 160 174
-0.792171 0.673346 2.057000 164 160 175
-0.787550 0.672997 2.045000 165 159 174
-0.782929 0.672607 2.033000 165 155 174
-0.778307 0.672175 2.021000 166 154 175
-0.773686 0.671700 2.009000 167 156 176
-0.769450 0.671520 1.998000 168 158 176
-0.760592 0.667247 1.975000 169 160 176
-0.747499 0.659158 1.941000 170 161 180
-0.743647 0.659142 1.931000 167 159 184
-0.739411 0.658748 1.920000 165 159 182
-0.735175 0.658316 1.909000 167 159 181
-0.735175 0.661658 1.909000 170 159 180
-0.731324 0.661516 1.899000 171 160 180
-0.727088 0.660989 1.888000 172 160 184
-0.723237 0.660775 1.878000 172 160 189
-0.715534 0.656991 1.858000 173 160 184
-0.707832 0.653136 1.838000 172 161 180
-0.703981 0.652783 1.828000 172 164 180
-0.703981 0.655982 1.828000 172 164 180
-0.700515 0.655937 1.819000 171 163 179
-0.696664 0.655498 1.809000 171 163 178
-0.693198 0.655387 1.800000 171 165 177
-0.689347 0.654880 1.790000 171 165 176
-0.689347 0.658013 1.790000 172 164 177
-0.682415 0.654498 1.772000 173 162 179
-0.675483 0.650920 1.754000 175 161 178
-0.672017 0.650635 1.745000 175 159 177
-0.662004 0.643950 1.719000 176 160 176
-0.655457 0.640561 1.702000 177 163 176
-0.655457 0.643540 1.702000 178 165 178
-0.652376 0.643480 1.694000 179 163 181
-0.649296 0.643393 1.686000 181 164 178
-0.645829 0.642894 1.677000 179 164 176
-0.642749 0.642749 1.669000 178 163 176
-0.639668 0.642576 1.661000 179 163 177
-0.633506 0.639265 1.645000 181 163 177
-0.630810 0.639412 1.638000 183 165 178
-0.630810 0.642280 1.638000 185 167 179
-0.627729 0.641996 1.630000 183 170 181
-0.624648 0.641684 1.622000 182 174 182
-0.616176 0.635782 1.600000 181 174 183
-0.616176 0.638582 1.600000 180 174 183
-0.607704 0.632564 1.578000 182 173 184
-0.607704 0.635327 1.578000 184 175 185
-0.601927 0.632023 1.563000 184 177 186
-0.601927 0.634759 1.563000 184 176 184
-0.599231 0.634640 1.556000 185 174 183
-0.599231 0.637364 1.556000 187 171 184
-0.591529 0.631861 1.536000 189 174 186
-0.588833 0.631658 1.529000 190 178 189
-0.588833 0.634334 1.529000 190 178 193
-0.588833 0.637011 1.529000 189 174 189
-0.586137 0.636759 1.522000 189 174 185
-1.523854 0.083499 3.975000 80 44 21
-1.523854 0.090457 3.975000 81 45 20
-1.506603 0.096313 3.930000 82 43 18
-1.506603 0.103192 3.930000 82 42 17
-1.506603 0.110072 3.930000 83 41 16
-1.506603 0.116951 3.930000 82 39 16
-1.506603 0.123830 3.930000 82 39 20
-1.506603 0.130710 3.930000 81 39 23
-1.489352 0.136014 3.885000 80 38 19
-1.506603 0.144469 3.930000 80 41 16
-1.506603 0.151348 3.930000 81 40 13
-1.506603 0.158228 3.930000 82 41 10
-1.506603 0.165107 3.930000 84 39 18
-1.523854 0.173956 3.975000 81 36 27
-1.523854 0.180914 3.975000 79 38 24
-1.523854 0.187873 3.975000 79 38 22
-1.523854 0.194831 3.975000 80 38 20
-1.523854 0.201789 3.975000 83 40 19
-1.523854 0.208747 3.975000 86 40 18
-1.523854 0.215705 3.975000 82 40 18
-1.523854 0.222664 3.975000 79 40 23
-1.523854 0.229622 3.975000 73 40 29
-1.523854 0.236580 3.975000 68 43 34
-1.523854 0.243538 3.975000 65 46 39
-1.027404 0.731849 2.680000 146 131 149
-1.011686 0.725272 2.639000 147 141 159
-1.004019 0.724361 2.619000 149 138 154
-1.004019 0.728945 2.619000 151 136 149
-0.996351 0.727928 2.599000 154 137 155
-0.920063 0.697399 2.400000 157 147 165
-0.907412 0.691954 2.367000 157 148 168
-0.907412 0.696097 2.367000 157 146 165
-0.901278 0.695507 2.351000 162 145 162
-0.889394 0.698520 2.320000 163 152 169
-0.871760 0.688650 2.274000 164 151 169
-0.866009 0.688062 2.259000 166 151 168
-0.866009 0.692017 2.259000 168 152 168
-0.866009 0.695971 2.259000 171 153 169
-0.860259 0.695278 2.244000 168 154 170
-0.860259 0.699206 2.244000 165 155 171
-0.854892 0.698747 2.230000 164 156 173
-0.849141 0.697925 2.215000 163 156 172
-0.828057 0.684376 2.160000 161 156 172
-0.823073 0.684015 2.147000 160 156 171
-0.817706 0.683289 2.133000 165 157 170
-0.803138 0.674783 2.095000 171 158 173
-0.803138 0.678450 2.095000 168 158 177
-0.793171 0.673652 2.069000 166 159 172
-0.788571 0.673346 2.057000 166 159 168
-0.783970 0.672997 2.045000 166 157 170
-0.779370 0.672607 2.033000 166 155 173
-0.774770 0.672175 2.021000 167 155 173
-0.765952 0.668023 1.998000 168 157 174
-0.765952 0.671520 1.998000 169 158 174
-0.757135 0.667247 1.975000 170 161 174
-0.748318 0.662893 1.952000 171 160 177
-0.744101 0.662556 1.941000 170 160 180
-0.736050 0.658748 1.920000 170 159 180
-0.731833 0.658316 1.909000 171 159 180
-0.728000 0.658192 1.899000 172 160 178
-0.728000 0.661516 1.899000 172 163 176
-0.728000 0.664840 1.899000 172 162 180
-0.719949 0.660775 1.878000 173 162 184
-0.723783 0.667599 1.888000 174 163 181
-0.704615 0.653136 1.838000 174 165 178
-0.697331 0.649569 1.819000 174 164 178
-0.697331 0.652753 1.819000 174 165 179
-0.693497 0.652331 1.809000 174 164 179
-0.690047 0.652236 1.800000 173 165 178
-0.690047 0.655387 1.800000 172 165 177
-0.682763 0.651587 1.781000 172 165 177
-0.682763 0.654705 1.781000 173 164 177
-0.675863 0.651174 1.763000 173 163 178
-0.672413 0.650920 1.754000 174 162 175
-0.668962 0.650635 1.745000 174 161 172
-0.658995 0.643950 1.719000 174 161 173
-0.655928 0.643948 1.711000 176 164 175
-0.652478 0.643540 1.702000 178 164 176
-0.649411 0.643480 1.694000 177 163 178
-0.646344 0.643393 1.686000 177 163 175
-0.646344 0.646344 1.686000 177 165 172
-0.639827 0.642749 1.669000 178 164 174
-0.636760 0.642576 1.661000 180 164 176
-0.630626 0.639265 1.645000 182 164 177
-0.630626 0.642145 1.645000 186 164 178
-0.627943 0.642280 1.638000 190 167 179
-0.624876 0.641996 1.630000 186 171 180
-0.621809 0.641684 1.622000 182 173 181
-0.616059 0.638563 1.607000 179 176 182
-0.616059 0.641376 1.607000 177 175 183
-0.604941 0.632564 1.578000 180 173 184
-0.604941 0.635327 1.578000 184 173 184
-0.602258 0.635258 1.571000 184 173 185
-0.599191 0.634759 1.563000 185 175 182
-0.596507 0.634640 1.556000 186 177 180
-0.593824 0.634497 1.549000 187 172 182
-0.588840 0.631861 1.536000 188 172 185
-0.586157 0.631658 1.529000 190 175 187
-0.583473 0.631430 1.522000 189 177 189
-0.583473 0.634094 1.522000 188 174 184
-0.578490 0.631320 1.509000 188 174 180
-1.516896 0.083499 3.975000 81 42 21
-1.516896 0.090457 3.975000 82 44 21
-1.516896 0.097415 3.975000 82 46 19
-1.516896 0.104374 3.975000 83 43 17
-1.499723 0.110072 3.930000 85 42 16
-1.516896 0.118290 3.975000 84 41 15
-1.499723 0.123830 3.930000 83 41 20
-1.499723 0.130710 3.930000 84 38 25
-1.499723 0.137589 3.930000 85 34 20
-1.499723 0.144469 3.930000 83 38 15
-1.499723 0.151348 3.930000 82 40 11
-1.499723 0.158228 3.930000 82 39 7
-1.516896 0.166998 3.975000 82 39 11
-1.516896 0.173956 3.975000 80 37 15
-1.516896 0.180914 3.975000 79 36 18
-1.516896 0.187873 3.975000 80 37 21
-1.516896 0.194831 3.975000 80 36 19
-1.516896 0.201789 3.975000 82 39 17
-1.516896 0.208747 3.975000 84 42 15
-1.516896 0.215705 3.975000 81 42 14
-1.516896 0.222664 3.975000 79 42 21
-1.516896 0.229622 3.975000 71 42 28
-1.516896 0.236580 3.975000 63 44 34
-1.030726 0.732856 2.701000 146 130 136
-1.022712 0.731849 2.680000 148 128 150
-1.007066 0.725272 2.639000 149 138 164
-0.991802 0.718829 2.599000 150 142 154
-0.984551 0.718090 2.580000 152 139 145
-0.976919 0.717005 2.560000 153 138 155
-0.970050 0.716413 2.542000 153 139 165
-0.942193 0.708806 2.469000 154 144 156
-0.928836 0.703018 2.434000 156 146 160
-0.922349 0.702339 2.417000 158 150 162
-0.903269 0.691954 2.367000 157 149 165
-0.903269 0.696097 2.367000 157 149 161
-0.873503 0.693193 2.289000 163 152 169
-0.867779 0.692631 2.274000 164 152 169
-0.867779 0.696612 2.274000 166 152 169
-0.867779 0.700592 2.274000 168 153 170
-0.862055 0.699925 2.259000 165 154 172
-0.856331 0.699206 2.244000 163 155 173
-0.850988 0.698747 2.230000 163 155 174
-0.845264 0.697925 2.215000 163 156 173
-0.829618 0.688811 2.174000 163 155 173
-0.824275 0.688157 2.160000 163 153 172
-0.819315 0.687773 2.147000 166 158 172
-0.809011 0.682835 2.120000 169 161 176
-0.804050 0.682336 2.107000 167 161 180
-0.799471 0.682117 2.095000 166 162 170
-0.784970 0.673346 2.057000 166 159 161
-0.784970 0.676947 2.057000 166 157 166
-0.775811 0.672607 2.033000 166 156 172
-0.771232 0.672175 2.021000 167 156 172
-0.762455 0.668023 1.998000 167 156 173
-0.762455 0.671520 1.998000 168 158 173
-0.753678 0.667247 1.975000 169 159 173
-0.740703 0.659158 1.941000 170 159 174
-0.736887 0.659142 1.931000 170 160 176
-0.732689 0.658748 1.920000 171 161 178
-0.728492 0.658316 1.909000 171 161 180
-0.728492 0.661658 1.909000 172 161 176
-0.728492 0.664999 1.909000 170 163 172
-0.724676 0.664840 1.899000 169 165 175
-0.720478 0.664294 1.888000 173 165 179
-0.720478 0.667599 1.888000 177 167 177
-0.712846 0.663797 1.868000 177 165 176
-0.697581 0.652783 1.828000 176 163 177
-0.697581 0.655982 1.828000 177 163 179
-0.690331 0.652331 1.809000 178 163 179
-0.686896 0.652236 1.800000 175 164 179
-0.683080 0.651746 1.790000 173 166 178
-0.679646 0.651587 1.781000 171 165 178
-0.676211 0.651396 1.772000 170 166 177
-0.672777 0.651174 1.763000 171 165 177
-0.669342 0.650920 1.754000 172 165 172
-0.662473 0.647279 1.736000 171 162 168
-0.652933 0.640953 1.711000 169 161 171
-0.649499 0.640561 1.702000 172 162 174
-0.649499 0.643540 1.702000 176 164 175
-0.646446 0.643480 1.694000 176 162 176
-0.643393 0.643393 1.686000 176 161 172
-0.643393 0.646344 1.686000 176 165 169
-0.639958 0.645830 1.677000 177 167 172
-0.633853 0.642576 1.661000 178 165 176
-0.627747 0.639265 1.645000 180 165 177
-0.627747 0.642145 1.645000 182 165 178
-0.625076 0.642280 1.638000 184 167 179
-0.622023 0.641996 1.630000 183 170 180
-0.622023 0.644849 1.630000 182 172 181
-0.613246 0.638563 1.607000 182 175 182
-0.610574 0.638582 1.600000 181 177 183
-0.602179 0.632564 1.578000 183 175 184
-0.602179 0.635327 1.578000 185 174 184
-0.596455 0.632023 1.563000 186 174 184
-0.593784 0.631917 1.556000 188 176 181
-0.593784 0.634640 1.556000 187 175 178
-0.588441 0.631630 1.542000 185 171 181
-0.586151 0.631861 1.536000 186 172 184
-0.583480 0.631658 1.529000 187 175 184
-0.580809 0.631430 1.522000 187 174 185
-0.583480 0.637011 1.529000 188 174 180
-0.578138 0.633830 1.515000 188 173 176
-1.509938 0.083499 3.975000 83 44 21
-1.509938 0.090457 3.975000 83 44 22
-1.509938 0.097415 3.975000 83 44 19
-1.509938 0.104374 3.975000 85 44 16
-1.509938 0.111332 3.975000 87 43 14
-1.509938 0.118290 3.975000 86 44 12
-1.509938 0.125248 3.975000 85 41 15
-1.492844 0.130710 3.930000 87 38 19
-1.492844 0.137589 3.930000 90 37 17
-1.492844 0.144469 3.930000 86 37 16
-1.492844 0.151348 3.930000 83 38 13
-1.492844 0.158228 3.930000 81 37 10
-1.509938 0.166998 3.975000 80 38 12
-1.509938 0.173956 3.975000 80 39 14
-1.509938 0.180914 3.975000 80 38 16
-1.509938 0.187873 3.975000 80 39 19
-1.509938 0.194831 3.975000 81 39 16
-1.509938 0.201789 3.975000 81 41 13
-1.509938 0.208747 3.975000 82 42 13
-1.509938 0.215705 3.975000 80 44 13
-1.509938 0.222664 3.975000 79 43 19
-0.951546 0.714756 2.505000 153 148 156
-0.944708 0.713973 2.487000 154 146 159
-0.937871 0.713128 2.469000 156 145 162
-0.931033 0.712219 2.451000 159 149 165
-0.911660 0.701601 2.400000 158 151 168
-0.899125 0.696097 2.367000 157 150 164
-0.869496 0.697200 2.289000 163 153 168
-0.869496 0.701207 2.289000 164 153 169
-0.863798 0.700592 2.274000 165 153 171
-0.858100 0.699925 2.259000 163 155 172
-0.847085 0.694844 2.230000 161 155 173
-0.841387 0.694047 2.215000 162 154 174
-0.836069 0.693513 2.201000 164 156 174
-0.825812 0.688811 2.174000 165 157 174
-0.820494 0.688157 2.160000 166 157 173
-0.815556 0.687773 2.147000 167 161 171
-0.805300 0.682835 2.120000 168 161 174
-0.805300 0.686546 2.120000 167 163 177
-0.795804 0.682117 2.095000 166 162 171
-0.781369 0.673346 2.057000 166 159 165
-0.776811 0.672997 2.045000 166 158 169
-0.767694 0.668637 2.021000 166 158 172
-0.758957 0.664525 1.998000 167 156 173
-0.754399 0.664010 1.986000 167 154 175
-0.754399 0.667487 1.986000 167 157 174
-0.746042 0.663531 1.964000 168 161 174
-0.737305 0.659158 1.941000 169 160 175
-0.733507 0.659142 1.931000 171 160 177
-0.729328 0.658748 1.920000 173 161 180
-0.729328 0.662109 1.920000 172 163 182
-0.725150 0.661658 1.909000 172 163 178
-0.721351 0.661516 1.899000 169 163 175
-0.721351 0.664840 1.899000 166 165 177
-0.713374 0.660775 1.878000 173 168 179
-0.713374 0.664063 1.878000 181 167 178
-0.705777 0.660243 1.858000 180 165 177
-0.701979 0.659925 1.848000 179 163 178
-0.701979 0.663160 1.848000 180 161 179
-0.687164 0.652331 1.809000 182 163 180
-0.679947 0.648613 1.790000 178 165 182
-0.679947 0.651746 1.790000 174 165 180
-0.673109 0.648294 1.772000 170 165 178
-0.673109 0.651396 1.772000 167 166 179
-0.669691 0.651174 1.763000 169 167 180
-0.662853 0.647580 1.745000 171 164 175
-0.659434 0.647279 1.736000 168 161 171
-0.649938 0.640953 1.711000 165 159 173
-0.646519 0.640561 1.702000 169 162 175
-0.646519 0.643540 1.702000 174 163 176
-0.643480 0.643480 1.694000 174 163 176
-0.640442 0.643393 1.686000 175 164 174
-0.637023 0.642894 1.677000 176 169 172
-0.633984 0.642749 1.669000 177 168 174
-0.630945 0.642576 1.661000 177 167 176
-0.624867 0.639265 1.645000 178 165 177
-0.624867 0.642145 1.645000 178 165 178
-0.622208 0.642280 1.638000 179 168 179
-0.619169 0.641996 1.630000 181 170 180
-0.619169 0.644849 1.630000 183 172 181
-0.613472 0.641742 1.615000 184 175 182
-0.607774 0.638582 1.600000 186 176 183
-0.599417 0.632564 1.578000 186 177 184
-0.599417 0.635327 1.578000 186 174 184
-0.596758 0.635258 1.571000 189 173 185
-0.593719 0.634759 1.563000 192 174 183
-0.591060 0.634640 1.556000 188 176 181
-0.585742 0.631630 1.542000 184 172 182
-0.578145 0.626101 1.522000 184 173 184
-0.578145 0.628766 1.522000 185 173 185
-0.575486 0.628526 1.515000 186 173 186
-0.578145 0.634094 1.522000 188 173 184
-0.568268 0.625881 1.496000 188 173 183
-1.502980 0.083499 3.975000 84 46 22
-1.502980 0.125248 3.975000 84 41 11
-1.502980 0.132207 3.975000 85 40 14
-1.502980 0.139165 3.975000 87 39 15
-1.502980 0.146123 3.975000 85 38 17
-1.485965 0.151348 3.930000 83 39 15
-1.502980 0.160040 3.975000 80 38 14
-1.502980 0.166998 3.975000 78 39 13
-1.502980 0.173956 3.975000 79 38 13
-1.502980 0.180914 3.975000 80 38 15
-1.502980 0.187873 3.975000 80 39 17
-1.502980 0.194831 3.975000 80 40 13
-1.502980 0.201789 3.975000 80 41 9
-1.502980 0.208747 3.975000 81 41 10
-1.502980 0.215705 3.975000 80 42 12
-1.502980 0.222664 3.975000 79 42 18
-0.947161 0.714756 2.505000 154 146 160
