ply
format ascii 1.0
element vertex 1260
property float x
property float y
property float z
property uchar red
property uchar green
property uchar blue
end_header
1.184522 -1.060863 3.718000 115 70 31
1.197584 -1.065981 3.759000 116 73 31
1.197584 -1.059401 3.759000 115 73 31
1.210646 -1.064304 3.800000 115 72 31
1.210646 -1.057652 3.800000 114 69 32
1.210646 -1.051000 3.800000 113 69 35
1.210646 -1.044348 3.800000 109 72 39
1.210646 -1.037696 3.800000 106 76 36
1.210646 -1.031045 3.800000 110 75 34
1.197584 -1.013340 3.759000 115 76 30
1.197584 -1.006760 3.759000 116 76 26
1.197584 -1.000180 3.759000 116 76 32
1.197584 -0.993600 3.759000 116 71 39
1.197584 -0.987019 3.759000 117 71 36
1.197584 -0.980439 3.759000 116 73 34
1.184522 -0.963237 3.718000 115 78 27
1.184522 -0.956729 3.718000 117 77 21
1.184522 -0.950220 3.718000 119 79 20
1.184522 -0.943712 3.718000 123 76 20
1.184522 -0.937204 3.718000 126 76 28
1.184522 -0.930695 3.718000 123 72 37
1.184522 -0.924187 3.718000 120 71 39
1.184522 -0.917679 3.718000 119 74 42
1.184522 -0.911170 3.718000 118 76 43
1.184522 -0.904662 3.718000 119 73 44
1.184522 -0.898154 3.718000 120 72 44
1.184522 -0.891645 3.718000 116 74 44
1.184522 -0.885137 3.718000 113 77 41
1.172096 -0.869412 3.679000 115 76 39
1.172096 -0.862972 3.679000 118 77 39
1.172096 -0.856532 3.679000 118 77 39
1.172096 -0.850092 3.679000 119 77 38
1.172096 -0.843652 3.679000 117 76 38
1.172096 -0.837212 3.679000 116 78 31
1.172096 -0.830772 3.679000 120 78 25
1.184522 -0.833070 3.718000 125 77 26
1.184522 -0.826562 3.718000 122 77 28
1.184522 -0.820053 3.718000 119 76 27
1.184522 -0.813545 3.718000 120 76 26
1.184522 -0.807037 3.718000 121 74 30
1.184522 -0.800528 3.718000 119 75 34
1.172096 -0.785691 3.679000 118 73 34
1.172096 -0.779251 3.679000 121 74 34
1.172096 -0.772811 3.679000 124 75 32
1.172096 -0.766371 3.679000 121 75 30
1.172096 -0.759931 3.679000 119 76 35
1.172096 -0.753490 3.679000 120 73 41
1.159671 -0.739131 3.640000 122 67 44
1.172096 -0.740610 3.679000 120 72 48
1.172096 -0.734170 3.679000 118 76 46
1.172096 -0.727730 3.679000 119 76 44
1.172096 -0.721290 3.679000 121 77 40
1.172096 -0.714850 3.679000 122 77 36
1.172096 -0.708410 3.679000 123 79 37
1.172096 -0.701970 3.679000 123 78 39
1.172096 -0.695530 3.679000 122 78 36
1.172096 -0.689090 3.679000 122 79 34
1.172096 -0.682649 3.679000 122 80 39
1.172096 -0.676209 3.679000 119 80 44
1.172096 -0.669769 3.679000 117 82 44
1.172096 -0.663329 3.679000 119 82 44
1.172096 -0.656889 3.679000 121 82 44
1.172096 -0.650449 3.679000 122 80 44
1.172096 -0.644009 3.679000 123 79 41
1.172096 -0.637569 3.679000 122 79 38
1.172096 -0.631129 3.679000 121 80 42
1.172096 -0.624689 3.679000 122 79 47
1.172096 -0.618249 3.679000 123 79 51
1.172096 -0.611809 3.679000 123 79 55
1.172096 -0.605368 3.679000 124 80 51
1.172096 -0.598928 3.679000 122 79 48
1.172096 -0.592488 3.679000 121 79 43
1.172096 -0.586048 3.679000 123 84 39
1.172096 -0.579608 3.679000 125 84 39
1.172096 -0.573168 3.679000 124 81 40
1.172096 -0.566728 3.679000 124 82 41
1.172096 -0.560288 3.679000 124 80 42
1.172096 -0.553848 3.679000 125 80 39
1.172096 -0.547408 3.679000 122 80 37
1.172096 -0.540968 3.679000 120 79 41
1.172096 -0.534527 3.679000 121 80 45
1.172096 -0.528087 3.679000 122 81 45
1.172096 -0.521647 3.679000 122 82 46
1.172096 -0.515207 3.679000 122 84 43
1.172096 -0.508767 3.679000 124 82 40
1.172096 -0.502327 3.679000 125 83 42
1.172096 -0.495887 3.679000 125 82 45
1.172096 -0.489447 3.679000 125 82 44
1.159671 -0.477886 3.640000 128 82 44
1.159671 -0.471515 3.640000 131 82 44
1.159671 -0.465143 3.640000 125 82 44
1.159671 -0.458771 3.640000 119 86 43
1.159671 -0.452399 3.640000 122 85 43
1.159671 -0.446027 3.640000 124 86 44
1.159671 -0.439656 3.640000 125 84 46
1.159671 -0.433284 3.640000 126 85 42
1.159671 -0.426912 3.640000 123 85 39
1.159671 -0.420540 3.640000 120 86 40
1.159671 -0.414168 3.640000 123 83 41
1.159671 -0.407796 3.640000 127 84 44
1.159671 -0.401425 3.640000 125 83 47
1.172096 -0.399285 3.679000 123 84 49
1.172096 -0.392845 3.679000 125 83 52
1.172096 -0.386405 3.679000 128 87 48
1.172096 -0.379965 3.679000 128 84 44
1.172096 -0.373525 3.679000 128 84 44
1.172096 -0.367085 3.679000 126 82 44
1.172096 -0.360645 3.679000 125 83 44
1.172096 -0.354205 3.679000 126 82 44
1.172096 -0.347765 3.679000 127 83 45
1.159671 -0.337706 3.640000 127 82 47
1.172096 -0.334885 3.679000 128 84 55
1.159671 -0.324963 3.640000 126 83 64
1.159671 -0.318591 3.640000 124 85 54
1.159671 -0.312219 3.640000 126 85 45
1.159671 -0.305847 3.640000 128 85 48
1.159671 -0.299475 3.640000 126 84 51
1.159671 -0.293104 3.640000 125 86 48
1.159671 -0.286732 3.640000 128 83 46
1.159671 -0.280360 3.640000 131 81 46
1.159671 -0.273988 3.640000 127 83 47
1.159671 -0.267616 3.640000 123 85 45
1.159671 -0.261245 3.640000 126 84 44
1.159671 -0.254873 3.640000 129 86 43
1.159671 -0.248501 3.640000 128 83 43
1.159671 -0.242129 3.640000 127 84 43
1.159671 -0.235757 3.640000 128 84 44
1.159671 -0.229385 3.640000 130 84 43
1.172096 -0.225403 3.679000 130 84 42
1.159671 -0.216642 3.640000 131 86 42
1.172096 -0.212523 3.679000 126 85 43
1.172096 -0.206083 3.679000 122 86 41
1.172096 -0.199643 3.679000 126 86 39
1.172096 -0.193203 3.679000 130 86 44
1.172096 -0.186763 3.679000 129 82 49
1.172096 -0.180322 3.679000 128 82 51
1.172096 -0.173882 3.679000 126 83 53
1.172096 -0.167442 3.679000 125 86 56
1.172096 -0.161002 3.679000 127 88 60
1.172096 -0.154562 3.679000 129 90 56
1.172096 -0.148122 3.679000 129 85 52
1.172096 -0.141682 3.679000 128 86 48
1.159671 -0.133808 3.640000 130 87 44
1.159671 -0.127436 3.640000 131 88 42
1.159671 -0.121064 3.640000 131 88 41
1.159671 -0.114693 3.640000 132 89 42
1.159671 -0.108321 3.640000 132 87 43
1.159671 -0.101949 3.640000 133 85 46
1.159671 -0.095577 3.640000 130 85 49
1.159671 -0.089205 3.640000 127 88 49
1.159671 -0.082834 3.640000 128 87 49
1.159671 -0.076462 3.640000 129 89 49
1.159671 -0.070090 3.640000 129 88 50
1.159671 -0.063718 3.640000 130 89 52
1.159671 -0.057346 3.640000 128 85 54
1.159671 -0.050975 3.640000 127 84 50
1.159671 -0.044603 3.640000 132 86 47
1.159671 -0.038231 3.640000 137 87 49
1.159671 -0.031859 3.640000 135 86 51
1.159671 -0.025487 3.640000 133 87 59
1.159671 -0.019115 3.640000 131 87 68
1.159671 -0.012744 3.640000 130 87 60
1.159671 -0.006372 3.640000 131 86 52
1.159671 -0.000000 3.640000 131 87 51
1.159671 0.006372 3.640000 130 88 51
1.159671 0.012744 3.640000 130 89 52
1.172096 0.019320 3.679000 132 87 53
1.172096 0.025761 3.679000 135 87 53
1.172096 0.032201 3.679000 134 88 53
1.172096 0.038641 3.679000 134 91 53
1.159671 0.044603 3.640000 131 90 54
1.159671 0.050975 3.640000 129 92 58
1.159671 0.057346 3.640000 131 93 62
1.159671 0.063718 3.640000 134 94 59
1.159671 0.070090 3.640000 132 90 56
1.159671 0.076462 3.640000 130 90 53
1.159671 0.082834 3.640000 133 89 51
1.159671 0.089206 3.640000 136 87 52
1.159671 0.095577 3.640000 132 89 54
1.159671 0.101949 3.640000 128 92 58
1.159671 0.108321 3.640000 131 90 62
1.159671 0.114693 3.640000 134 90 58
1.159671 0.121065 3.640000 134 90 54
1.159671 0.127436 3.640000 134 91 50
1.159671 0.133808 3.640000 132 91 47
1.159671 0.140180 3.640000 131 93 42
1.159671 0.146552 3.640000 134 90 37
1.159671 0.152924 3.640000 137 88 44
1.159671 0.159296 3.640000 136 91 51
1.159671 0.165667 3.640000 135 93 54
1.159671 0.172039 3.640000 132 91 57
1.159671 0.178411 3.640000 130 92 53
1.159671 0.184783 3.640000 130 90 50
1.159671 0.191155 3.640000 131 91 41
1.159671 0.197527 3.640000 130 91 32
1.159671 0.203898 3.640000 129 90 39
1.147565 0.208075 3.602000 131 91 47
1.147565 0.214380 3.602000 133 91 42
1.159671 0.223014 3.640000 135 88 37
1.147565 0.226991 3.602000 136 88 43
1.147565 0.233296 3.602000 133 89 49
1.159671 0.242129 3.640000 130 90 51
1.159671 0.248501 3.640000 134 90 54
1.159671 0.254873 3.640000 137 91 53
1.159671 0.261245 3.640000 137 90 53
1.159671 0.267617 3.640000 137 91 53
1.159671 0.273988 3.640000 134 91 53
1.159671 0.280360 3.640000 132 91 50
1.159671 0.286732 3.640000 133 92 47
1.159671 0.293104 3.640000 135 93 51
1.159671 0.299476 3.640000 135 92 56
1.159671 0.305847 3.640000 135 90 55
1.159671 0.312219 3.640000 134 90 54
1.159671 0.318591 3.640000 133 92 42
1.159671 0.324963 3.640000 131 92 30
1.159671 0.331335 3.640000 129 93 41
1.159671 0.337707 3.640000 133 91 53
1.159671 0.344078 3.640000 136 88 53
1.159671 0.350450 3.640000 137 89 54
1.159671 0.356822 3.640000 138 91 55
1.159671 0.363194 3.640000 137 91 56
1.172096 0.373525 3.679000 137 93 54
1.172096 0.379965 3.679000 135 92 53
1.172096 0.386406 3.679000 132 91 51
1.172096 0.392846 3.679000 134 92 49
1.159671 0.395053 3.640000 137 94 45
1.159671 0.401425 3.640000 133 91 42
1.159671 0.407797 3.640000 129 91 48
1.159671 0.414168 3.640000 132 91 54
1.159671 0.420540 3.640000 136 92 46
1.159671 0.426912 3.640000 132 93 39
1.147565 0.428761 3.602000 128 92 41
1.159671 0.439656 3.640000 132 92 44
1.159671 0.446028 3.640000 135 90 47
1.159671 0.452399 3.640000 137 90 50
1.159671 0.458771 3.640000 139 91 45
1.159671 0.465143 3.640000 138 89 41
1.159671 0.471515 3.640000 137 90 48
1.159671 0.477887 3.640000 136 91 55
1.159671 0.484258 3.640000 135 88 53
1.159671 0.490630 3.640000 133 90 51
1.159671 0.497002 3.640000 132 90 49
1.159671 0.503374 3.640000 134 91 48
1.159671 0.509746 3.640000 136 89 48
1.159671 0.516118 3.640000 138 89 49
1.159671 0.522489 3.640000 141 88 46
1.159671 0.528861 3.640000 136 88 44
1.159671 0.535233 3.640000 132 87 45
1.159671 0.541605 3.640000 133 90 47
1.159671 0.547977 3.640000 134 92 47
1.159671 0.554348 3.640000 136 91 47
1.159671 0.560720 3.640000 138 90 46
1.159671 0.567092 3.640000 136 90 46
1.159671 0.573464 3.640000 135 89 44
1.159671 0.579836 3.640000 136 91 42
1.159671 0.586208 3.640000 137 92 45
1.159671 0.592579 3.640000 135 91 49
1.159671 0.598951 3.640000 133 92 49
1.159671 0.605323 3.640000 132 95 50
1.159671 0.611695 3.640000 131 98 44
1.159671 0.618067 3.640000 82 57 39
1.159671 0.624439 3.640000 34 1 35
1.159671 0.630810 3.640000 38 13 32
1.159671 0.637182 3.640000 43 28 27
1.159671 0.643554 3.640000 36 25 23
1.159671 0.649926 3.640000 29 22 19
1.172096 0.663329 3.679000 28 19 16
1.172096 0.669769 3.679000 27 18 14
1.172096 0.676210 3.679000 20 17 13
1.172096 0.682650 3.679000 13 17 11
0.867205 0.657551 2.722000 143 108 94
0.873895 0.667426 2.743000 142 109 97
0.873895 0.672227 2.743000 142 113 99
0.873895 0.677029 2.743000 144 113 101
0.867205 0.676610 2.722000 146 112 101
0.860514 0.676119 2.701000 143 114 102
0.860514 0.680847 2.701000 140 115 103
0.792336 0.657378 2.487000 144 115 99
0.792336 0.661731 2.487000 144 116 110
0.786601 0.661264 2.469000 143 117 122
0.786601 0.665586 2.469000 143 119 115
0.770035 0.655799 2.417000 141 118 108
0.770035 0.660030 2.417000 139 120 109
0.764619 0.659589 2.400000 141 121 111
0.754105 0.654663 2.367000 144 123 111
0.749008 0.654353 2.351000 145 120 112
0.743910 0.653987 2.335000 147 118 110
0.734034 0.649338 2.304000 148 117 109
0.729255 0.649117 2.289000 150 118 111
0.719697 0.644564 2.259000 147 119 113
0.719697 0.648518 2.259000 145 121 112
0.714918 0.648140 2.244000 143 119 112
0.710458 0.648000 2.230000 142 116 110
0.705679 0.647519 2.215000 145 117 108
0.696759 0.643162 2.187000 148 119 113
0.692617 0.643144 2.174000 147 119 118
0.688157 0.642784 2.160000 147 119 116
0.684015 0.642673 2.147000 146 120 115
0.679555 0.642217 2.133000 145 114 117
0.667448 0.634443 2.095000 148 122 119
0.663306 0.634150 2.082000 150 124 120
0.663306 0.637795 2.082000 152 122 122
0.659165 0.637434 2.069000 154 122 123
0.655342 0.637338 2.057000 148 121 125
0.651519 0.637200 2.045000 143 115 129
0.651519 0.640779 2.045000 145 120 133
0.643872 0.636797 2.021000 147 122 129
0.640049 0.636533 2.009000 149 123 126
0.632722 0.632722 1.986000 150 125 125
0.629217 0.632675 1.975000 154 123 124
0.625713 0.632589 1.964000 157 122 123
0.621890 0.632141 1.952000 155 124 123
0.611695 0.625139 1.920000 153 126 125
0.608190 0.624899 1.909000 150 126 128
0.605004 0.624950 1.899000 147 126 127
0.601500 0.624635 1.888000 150 126 127
0.598314 0.624614 1.878000 153 129 126
0.595128 0.624557 1.868000 150 126 126
0.591942 0.624466 1.858000 148 125 126
0.588756 0.624340 1.848000 148 124 126
0.585570 0.624179 1.838000 149 126 125
0.579517 0.620911 1.819000 149 127 124
0.576331 0.620664 1.809000 148 129 124
0.573464 0.620727 1.800000 146 128 124
0.570278 0.620412 1.790000 143 129 123
0.567411 0.620411 1.781000 145 128 123
0.561676 0.617226 1.763000 146 127 125
0.558809 0.617146 1.754000 146 128 128
0.555941 0.617034 1.745000 146 130 126
0.550525 0.614048 1.728000 151 127 124
0.547658 0.613859 1.719000 157 126 125
0.545109 0.613997 1.711000 155 123 127
0.542242 0.613746 1.702000 154 120 130
0.539693 0.613827 1.694000 151 127 133
0.534277 0.610603 1.677000 148 128 129
0.531728 0.610611 1.669000 150 126 125
0.529180 0.610592 1.661000 153 126 126
0.526631 0.610545 1.653000 152 127 128
0.526631 0.613438 1.653000 152 129 127
0.521852 0.610739 1.638000 153 127 127
0.516755 0.607613 1.622000 154 125 125
0.511976 0.604807 1.607000 154 126 124
0.509746 0.604973 1.600000 153 127 121
0.507197 0.604735 1.592000 153 130 119
0.504967 0.604850 1.585000 152 132 122
0.502737 0.604941 1.578000 154 130 126
0.500507 0.605008 1.571000 157 131 127
0.497958 0.604663 1.563000 154 131 128
0.495728 0.604679 1.556000 152 131 129
0.493498 0.604670 1.549000 151 129 130
0.489356 0.602284 1.536000 150 129 130
0.487126 0.602216 1.529000 147 129 131
0.484896 0.602123 1.522000 144 130 131
0.482665 0.602006 1.515000 148 128 132
0.482665 0.604658 1.515000 153 126 133
0.478524 0.602099 1.502000 151 128 134
0.474382 0.599494 1.489000 149 128 134
0.472470 0.599674 1.483000 150 126 135
0.468329 0.596991 1.470000 152 127 135
0.464506 0.594669 1.458000 150 128 135
0.462594 0.594764 1.452000 149 131 132
0.462594 0.597306 1.452000 150 130 130
0.460683 0.597369 1.446000 152 129 129
0.458771 0.597411 1.440000 156 127 129
0.454948 0.594932 1.428000 160 127 123
0.453036 0.594922 1.422000 160 128 118
1.191030 -1.321197 3.718000 106 64 11
1.191030 -1.314689 3.718000 107 62 19
1.191030 -1.308180 3.718000 106 63 28
1.191030 -1.301672 3.718000 106 66 29
1.191030 -1.295164 3.718000 106 69 30
1.191030 -1.288655 3.718000 107 71 34
1.191030 -1.282147 3.718000 108 73 39
1.204164 -1.289705 3.759000 110 73 31
1.204164 -1.283125 3.759000 110 72 22
1.217298 -1.290469 3.800000 110 73 27
1.204164 -1.269965 3.759000 111 74 32
1.204164 -1.263385 3.759000 112 70 35
1.204164 -1.256805 3.759000 112 67 39
1.204164 -1.250225 3.759000 113 72 35
1.204164 -1.243645 3.759000 117 78 32
1.204164 -1.237064 3.759000 121 75 35
1.204164 -1.230484 3.759000 117 73 38
1.204164 -1.223904 3.759000 113 74 41
1.191030 -1.204046 3.718000 113 76 45
1.191030 -1.197538 3.718000 114 74 37
1.191030 -1.191030 3.718000 112 77 29
1.178536 -1.172096 3.679000 110 75 33
1.178536 -1.165656 3.679000 111 73 37
1.178536 -1.159216 3.679000 112 74 40
1.191030 -1.164996 3.718000 112 78 44
1.204164 -1.171263 3.759000 113 74 41
1.217298 -1.177386 3.800000 112 74 39
1.217298 -1.170735 3.800000 111 75 38
1.217298 -1.164083 3.800000 109 76 38
1.217298 -1.157431 3.800000 108 75 41
1.217298 -1.150779 3.800000 109 74 45
1.217298 -1.144127 3.800000 111 73 42
1.204164 -1.125202 3.759000 113 73 39
1.204164 -1.118622 3.759000 116 73 37
1.191030 -1.099913 3.718000 116 76 36
1.191030 -1.093404 3.718000 116 77 36
1.191030 -1.086896 3.718000 117 75 36
1.191030 -1.080388 3.718000 118 73 35
1.191030 -1.073879 3.718000 118 76 35
1.191030 -1.067371 3.718000 118 73 35
1.191030 -1.060863 3.718000 118 71 35
1.191030 -1.054354 3.718000 119 73 39
1.191030 -1.047846 3.718000 118 77 43
1.204164 -1.052821 3.759000 117 73 40
1.204164 -1.046241 3.759000 116 72 37
1.217298 -1.051000 3.800000 115 72 43
1.217298 -1.044348 3.800000 115 75 49
1.217298 -1.037696 3.800000 115 77 43
1.217298 -1.031045 3.800000 116 80 38
1.204164 -1.013340 3.759000 117 78 34
1.204164 -1.006760 3.759000 121 77 31
1.204164 -1.000180 3.759000 126 75 33
1.191030 -0.982762 3.718000 122 74 36
1.191030 -0.976254 3.718000 119 74 36
1.191030 -0.969746 3.718000 120 77 36
1.191030 -0.963237 3.718000 121 77 31
1.178536 -0.946693 3.679000 121 79 27
1.178536 -0.940253 3.679000 121 78 26
1.178536 -0.933813 3.679000 127 78 25
1.178536 -0.927373 3.679000 134 77 31
1.178536 -0.920933 3.679000 129 76 38
1.178536 -0.914493 3.679000 124 75 41
1.178536 -0.908053 3.679000 125 77 45
1.178536 -0.901613 3.679000 127 77 45
1.178536 -0.895172 3.679000 124 76 45
1.191030 -0.898154 3.718000 122 76 47
1.178536 -0.882292 3.679000 120 77 49
1.178536 -0.875852 3.679000 119 77 42
1.178536 -0.869412 3.679000 119 78 36
1.178536 -0.862972 3.679000 120 78 38
1.178536 -0.856532 3.679000 121 79 40
1.178536 -0.850092 3.679000 122 77 43
1.178536 -0.843652 3.679000 122 78 46
1.178536 -0.837212 3.679000 123 79 37
1.178536 -0.830772 3.679000 126 81 29
1.178536 -0.824331 3.679000 129 79 31
1.178536 -0.817891 3.679000 125 78 33
1.178536 -0.811451 3.679000 121 77 32
1.178536 -0.805011 3.679000 122 79 32
1.178536 -0.798571 3.679000 123 77 33
1.178536 -0.792131 3.679000 123 77 35
1.178536 -0.785691 3.679000 123 76 36
1.178536 -0.779251 3.679000 125 77 36
1.166043 -0.764618 3.640000 128 77 35
1.166043 -0.758247 3.640000 126 79 34
1.166043 -0.751875 3.640000 124 77 40
1.166043 -0.745503 3.640000 124 76 46
1.166043 -0.739131 3.640000 124 73 45
1.166043 -0.732759 3.640000 123 74 44
1.166043 -0.726387 3.640000 123 77 43
1.166043 -0.720016 3.640000 123 78 42
1.178536 -0.721290 3.679000 123 79 40
1.178536 -0.714850 3.679000 123 79 38
1.178536 -0.708410 3.679000 123 79 39
1.178536 -0.701970 3.679000 123 80 40
1.178536 -0.695530 3.679000 124 79 38
1.178536 -0.689090 3.679000 124 82 36
1.178536 -0.682649 3.679000 124 82 40
1.178536 -0.676209 3.679000 124 82 44
1.178536 -0.669769 3.679000 125 82 45
1.178536 -0.663329 3.679000 123 84 47
1.166043 -0.649926 3.640000 122 83 46
1.166043 -0.643554 3.640000 123 84 45
1.166043 -0.637182 3.640000 125 82 42
1.166043 -0.630810 3.640000 125 82 39
1.178536 -0.631129 3.679000 125 82 42
1.178536 -0.624689 3.679000 125 82 45
1.166043 -0.611695 3.640000 125 81 48
1.166043 -0.605323 3.640000 126 83 50
1.178536 -0.605368 3.679000 127 83 46
1.178536 -0.598928 3.679000 126 83 43
1.178536 -0.592488 3.679000 126 84 44
1.166043 -0.579836 3.640000 126 90 45
1.166043 -0.573464 3.640000 127 85 43
1.166043 -0.567092 3.640000 127 82 41
1.166043 -0.560720 3.640000 127 82 42
1.166043 -0.554348 3.640000 127 83 44
1.166043 -0.547976 3.640000 128 82 42
1.166043 -0.541605 3.640000 127 84 40
1.166043 -0.535233 3.640000 127 82 45
1.166043 -0.528861 3.640000 126 83 50
1.166043 -0.522489 3.640000 125 83 48
1.166043 -0.516117 3.640000 127 86 46
1.178536 -0.515207 3.679000 129 85 45
1.166043 -0.503374 3.640000 128 85 45
1.166043 -0.497002 3.640000 128 84 45
1.166043 -0.490630 3.640000 128 85 46
1.166043 -0.484258 3.640000 128 84 46
1.166043 -0.477886 3.640000 133 85 47
1.166043 -0.471515 3.640000 139 84 46
1.166043 -0.465143 3.640000 132 84 45
1.166043 -0.458771 3.640000 126 86 45
1.166043 -0.452399 3.640000 126 88 45
1.166043 -0.446027 3.640000 126 88 48
1.166043 -0.439656 3.640000 127 88 51
1.166043 -0.433284 3.640000 129 87 46
1.166043 -0.426912 3.640000 128 86 41
1.166043 -0.420540 3.640000 128 85 38
1.166043 -0.414168 3.640000 129 86 35
1.166043 -0.407796 3.640000 131 86 41
1.153870 -0.397234 3.602000 130 87 48
1.166043 -0.395053 3.640000 130 85 54
1.166043 -0.388681 3.640000 130 83 61
1.166043 -0.382309 3.640000 131 84 53
1.166043 -0.375937 3.640000 131 87 45
1.166043 -0.369566 3.640000 131 85 45
1.166043 -0.363194 3.640000 131 83 44
1.166043 -0.356822 3.640000 132 83 44
1.166043 -0.350450 3.640000 131 86 43
1.166043 -0.344078 3.640000 130 85 44
1.166043 -0.337706 3.640000 131 85 45
1.166043 -0.331335 3.640000 132 85 50
1.166043 -0.324963 3.640000 135 87 56
1.153870 -0.315265 3.602000 139 86 51
1.153870 -0.308960 3.602000 135 87 47
1.153870 -0.302654 3.602000 131 86 50
1.153870 -0.296349 3.602000 131 86 54
1.153870 -0.290044 3.602000 131 86 50
1.153870 -0.283738 3.602000 133 85 46
1.153870 -0.277433 3.602000 135 84 46
1.166043 -0.273988 3.640000 133 87 47
1.166043 -0.267616 3.640000 131 85 48
1.166043 -0.261245 3.640000 130 84 50
1.166043 -0.254873 3.640000 130 87 46
1.166043 -0.248501 3.640000 130 88 42
1.166043 -0.242129 3.640000 130 87 44
1.166043 -0.235757 3.640000 131 89 47
1.166043 -0.229385 3.640000 132 87 45
1.166043 -0.223014 3.640000 132 88 44
1.166043 -0.216642 3.640000 133 87 44
1.166043 -0.210270 3.640000 132 88 43
1.166043 -0.203898 3.640000 131 87 37
1.166043 -0.197526 3.640000 131 90 31
1.166043 -0.191155 3.640000 132 87 42
1.166043 -0.184783 3.640000 131 83 53
1.166043 -0.178411 3.640000 130 84 52
1.166043 -0.172039 3.640000 130 86 51
1.166043 -0.165667 3.640000 131 88 52
1.166043 -0.159295 3.640000 131 92 52
1.166043 -0.152924 3.640000 131 89 51
1.166043 -0.146552 3.640000 131 86 50
1.166043 -0.140180 3.640000 132 87 49
1.166043 -0.133808 3.640000 133 91 49
1.166043 -0.127436 3.640000 134 88 49
1.166043 -0.121064 3.640000 135 90 50
1.166043 -0.114693 3.640000 137 89 47
1.166043 -0.108321 3.640000 137 91 43
1.166043 -0.101949 3.640000 137 87 46
1.166043 -0.095577 3.640000 136 86 49
1.153870 -0.088274 3.602000 136 88 53
1.153870 -0.081969 3.602000 133 90 57
1.153870 -0.075664 3.602000 131 90 55
1.166043 -0.070090 3.640000 132 91 53
1.153870 -0.063053 3.602000 134 89 52
1.153870 -0.056748 3.602000 134 89 52
1.153870 -0.050442 3.602000 135 88 49
1.166043 -0.044603 3.640000 139 88 47
1.166043 -0.038231 3.640000 144 89 49
1.166043 -0.031859 3.640000 140 90 52
1.166043 -0.025487 3.640000 136 90 56
1.166043 -0.019115 3.640000 137 92 61
1.166043 -0.012744 3.640000 139 90 55
1.166043 -0.006372 3.640000 136 88 50
1.166043 -0.000000 3.640000 134 89 53
1.166043 0.006372 3.640000 134 90 57
1.166043 0.012744 3.640000 134 90 54
1.166043 0.019116 3.640000 134 90 52
1.166043 0.025487 3.640000 135 88 54
1.166043 0.031859 3.640000 135 89 57
1.166043 0.038231 3.640000 136 90 56
1.166043 0.044603 3.640000 135 93 55
1.166043 0.050975 3.640000 134 93 56
1.166043 0.057346 3.640000 135 96 57
1.166043 0.063718 3.640000 136 94 54
1.166043 0.070090 3.640000 135 93 51
1.166043 0.076462 3.640000 135 92 50
1.166043 0.082834 3.640000 136 93 49
1.166043 0.089206 3.640000 138 90 51
1.166043 0.095577 3.640000 137 90 53
1.166043 0.101949 3.640000 136 92 55
1.166043 0.108321 3.640000 136 94 57
1.166043 0.114693 3.640000 137 92 54
1.166043 0.121065 3.640000 137 92 52
1.166043 0.127436 3.640000 138 93 53
1.166043 0.133808 3.640000 138 96 55
1.166043 0.140180 3.640000 139 94 49
1.166043 0.146552 3.640000 139 91 43
1.166043 0.152924 3.640000 139 90 48
1.153870 0.157633 3.602000 138 94 53
1.153870 0.163938 3.602000 137 93 59
1.153870 0.170243 3.602000 136 92 65
1.153870 0.176548 3.602000 135 92 59
1.153870 0.182854 3.602000 134 90 53
1.153870 0.189159 3.602000 133 92 48
1.153870 0.195464 3.602000 133 93 43
1.153870 0.201770 3.602000 134 92 53
1.153870 0.208075 3.602000 134 93 62
1.153870 0.214380 3.602000 135 92 53
1.153870 0.220686 3.602000 136 91 44
1.153870 0.226991 3.602000 138 90 48
1.153870 0.233296 3.602000 137 92 52
1.153870 0.239602 3.602000 137 91 55
1.153870 0.245907 3.602000 138 92 59
1.153870 0.252212 3.602000 139 92 55
1.153870 0.258517 3.602000 138 93 51
1.153870 0.264823 3.602000 137 94 51
1.153870 0.271128 3.602000 136 96 51
1.166043 0.280360 3.640000 136 95 50
1.166043 0.286732 3.640000 136 94 49
1.166043 0.293104 3.640000 136 94 51
1.166043 0.299476 3.640000 136 96 54
1.166043 0.305847 3.640000 136 94 56
1.166043 0.312219 3.640000 135 92 59
1.166043 0.318591 3.640000 135 93 50
1.166043 0.324963 3.640000 135 95 42
1.166043 0.331335 3.640000 135 94 48
1.166043 0.337707 3.640000 136 94 54
1.166043 0.344078 3.640000 137 92 56
1.166043 0.350450 3.640000 138 92 57
1.166043 0.356822 3.640000 139 93 57
1.166043 0.363194 3.640000 138 92 57
1.166043 0.369566 3.640000 138 94 55
1.166043 0.375937 3.640000 137 94 52
1.166043 0.382309 3.640000 137 94 51
1.166043 0.388681 3.640000 137 95 50
1.166043 0.395053 3.640000 138 96 48
1.166043 0.401425 3.640000 136 95 47
1.166043 0.407797 3.640000 135 93 51
1.166043 0.414168 3.640000 137 94 55
1.166043 0.420540 3.640000 139 94 50
1.153870 0.422455 3.602000 137 97 46
1.153870 0.428761 3.602000 135 95 47
1.153870 0.435066 3.602000 135 95 48
1.153870 0.441371 3.602000 135 94 49
1.153870 0.447676 3.602000 137 94 51
1.153870 0.453982 3.602000 139 93 53
1.153870 0.460287 3.602000 138 90 55
1.153870 0.466592 3.602000 137 91 57
1.153870 0.472898 3.602000 136 94 59
1.153870 0.479203 3.602000 136 92 55
1.153870 0.485508 3.602000 135 92 52
1.153870 0.491814 3.602000 135 92 51
1.153870 0.498119 3.602000 135 94 51
1.153870 0.504424 3.602000 135 93 56
1.153870 0.510730 3.602000 135 92 62
1.153870 0.517035 3.602000 136 90 56
1.166043 0.528861 3.640000 132 88 50
1.166043 0.535233 3.640000 128 89 50
1.166043 0.541605 3.640000 131 90 51
1.166043 0.547977 3.640000 134 92 53
1.166043 0.554348 3.640000 136 92 55
1.166043 0.560720 3.640000 138 92 52
1.166043 0.567092 3.640000 137 92 49
1.166043 0.573464 3.640000 137 92 51
1.166043 0.579836 3.640000 138 92 53
1.166043 0.586208 3.640000 139 92 52
1.166043 0.592579 3.640000 137 93 52
1.166043 0.598951 3.640000 136 94 51
1.166043 0.605323 3.640000 135 97 51
1.166043 0.611695 3.640000 135 93 51
1.166043 0.618067 3.640000 90 77 50
1.166043 0.624439 3.640000 46 30 34
1.166043 0.630810 3.640000 45 4 18
1.166043 0.637182 3.640000 45 20 22
1.166043 0.643554 3.640000 37 26 26
1.166043 0.649926 3.640000 30 25 22
1.178536 0.663329 3.679000 30 22 19
1.178536 0.669769 3.679000 30 20 16
1.178536 0.676210 3.679000 18 17 14
1.178536 0.682650 3.679000 7 14 9
0.871970 0.662316 2.722000 141 108 98
0.871970 0.667081 2.722000 141 110 99
0.871970 0.671846 2.722000 143 112 101
0.871970 0.676610 2.722000 145 113 101
0.865242 0.676119 2.701000 143 114 101
0.858515 0.675553 2.680000 142 114 101
0.790923 0.652620 2.469000 143 111 102
0.790923 0.656942 2.469000 143 113 108
0.790923 0.661264 2.469000 143 118 114
0.785157 0.660733 2.451000 143 118 110
0.774265 0.655799 2.417000 139 116 106
0.774265 0.660030 2.417000 135 119 107
0.768820 0.659589 2.400000 139 123 109
0.758248 0.654663 2.367000 144 121 110
0.753123 0.654353 2.351000 146 120 111
0.747997 0.653987 2.335000 148 118 108
0.743192 0.653847 2.320000 150 117 105
0.738067 0.653371 2.304000 152 117 108
0.723652 0.644564 2.259000 148 118 110
0.723652 0.648518 2.259000 145 119 112
0.718846 0.648140 2.244000 144 120 113
0.714362 0.648000 2.230000 144 117 112
0.705072 0.643426 2.201000 146 116 111
0.700587 0.643162 2.187000 149 118 115
0.696422 0.643144 2.174000 147 117 119
0.691938 0.642784 2.160000 146 118 117
0.691938 0.646565 2.160000 144 121 115
0.683288 0.642217 2.133000 143 120 114
0.671115 0.634443 2.095000 147 122 114
0.666951 0.634150 2.082000 151 123 117
0.662787 0.633812 2.069000 150 122 120
0.662787 0.637434 2.069000 150 122 121
0.658943 0.637338 2.057000 144 124 123
0.655098 0.637200 2.045000 138 122 124
0.651254 0.637019 2.033000 142 122 126
0.647410 0.636797 2.021000 147 122 125
0.643566 0.636533 2.009000 148 122 124
0.640042 0.636545 1.998000 150 123 122
0.636198 0.636198 1.986000 152 123 121
0.632675 0.636132 1.975000 154 123 119
0.625307 0.632141 1.952000 153 124 118
0.615056 0.625139 1.920000 152 125 121
0.611532 0.624899 1.909000 152 124 125
0.608329 0.624950 1.899000 153 125 125
0.604805 0.624635 1.888000 155 127 126
0.601601 0.624614 1.878000 157 127 126
0.601601 0.627901 1.878000 154 126 127
0.595195 0.624466 1.858000 152 126 127
0.591991 0.624340 1.848000 151 125 126
0.588788 0.624179 1.838000 151 127 126
0.582701 0.620911 1.819000 148 130 126
0.579498 0.620664 1.809000 146 128 125
0.573411 0.617279 1.790000 146 128 123
0.573411 0.620412 1.790000 147 127 124
0.570528 0.620411 1.781000 147 129 124
0.567645 0.620377 1.772000 148 127 125
0.561879 0.617146 1.754000 148 126 126
0.558996 0.617034 1.745000 149 127 123
0.556113 0.616890 1.736000 151 127 119
0.550667 0.613859 1.719000 153 125 123
0.550667 0.616868 1.719000 153 124 126
0.545221 0.613746 1.702000 154 125 128
0.542659 0.613827 1.694000 152 129 130
0.540096 0.613880 1.686000 150 126 126
0.537213 0.613538 1.677000 151 123 123
0.534650 0.613533 1.669000 153 125 124
0.532087 0.613500 1.661000 151 127 126
0.529525 0.613438 1.653000 150 127 127
0.526962 0.613349 1.645000 152 127 129
0.519594 0.607613 1.622000 154 127 127
0.517352 0.607817 1.615000 153 127 125
0.512546 0.604973 1.600000 153 129 125
0.509984 0.604735 1.592000 152 132 125
0.507741 0.604850 1.585000 151 132 125
0.505499 0.604941 1.578000 152 132 126
0.503257 0.605008 1.571000 154 131 127
0.500694 0.604663 1.563000 152 132 128
0.498451 0.604679 1.556000 151 131 129
0.492045 0.599595 1.536000 151 130 131
0.492045 0.602284 1.536000 151 129 129
0.489802 0.602216 1.529000 146 128 128
0.487560 0.602123 1.522000 142 128 129
0.485317 0.602006 1.515000 149 129 131
0.485317 0.604658 1.515000 157 128 132
0.481153 0.602099 1.502000 154 129 133
0.476989 0.599494 1.489000 152 128 135
0.475066 0.599674 1.483000 152 125 136
0.470902 0.596991 1.470000 152 127 135
0.468980 0.597117 1.464000 152 126 133
0.467058 0.597222 1.458000 152 130 131
0.465136 0.597306 1.452000 151 135 128
0.463214 0.597369 1.446000 151 130 128
0.461292 0.597411 1.440000 153 127 129
0.457448 0.594932 1.428000 155 127 126
0.455526 0.594922 1.422000 155 128 123
1.197538 -1.321197 3.718000 105 65 9
1.197538 -1.314689 3.718000 107 68 17
1.197538 -1.308180 3.718000 107 68 25
1.197538 -1.301672 3.718000 107 71 29
1.197538 -1.295164 3.718000 109 72 33
1.197538 -1.288655 3.718000 110 74 32
1.197538 -1.282147 3.718000 110 74 32
1.210744 -1.289705 3.759000 111 76 24
1.197538 -1.269130 3.718000 112 75 17
1.223950 -1.290469 3.800000 113 77 24
1.210744 -1.269965 3.759000 113 75 32
1.197538 -1.249605 3.718000 113 73 35
1.197538 -1.243097 3.718000 114 71 39
1.197538 -1.236588 3.718000 115 71 39
1.197538 -1.230080 3.718000 117 73 39
1.197538 -1.223572 3.718000 118 73 39
1.197538 -1.217063 3.718000 116 74 40
1.197538 -1.210555 3.718000 114 76 43
1.184977 -1.191417 3.679000 115 76 46
1.184977 -1.184977 3.679000 115 77 36
1.184977 -1.178537 3.679000 113 77 26
1.184977 -1.172096 3.679000 112 78 33
1.184977 -1.165656 3.679000 112 76 41
1.184977 -1.159216 3.679000 112 76 49
1.197538 -1.164996 3.718000 112 77 58
1.210744 -1.171263 3.759000 113 76 50
1.210744 -1.164683 3.759000 114 76 43
1.210744 -1.158103 3.759000 115 78 41
1.210744 -1.151523 3.759000 112 77 39
1.210744 -1.144943 3.759000 109 78 44
1.210744 -1.138362 3.759000 110 74 49
1.210744 -1.131782 3.759000 112 72 45
1.197538 -1.112929 3.718000 115 73 41
1.197538 -1.106421 3.718000 118 74 43
1.197538 -1.099913 3.718000 118 76 46
1.184977 -1.081935 3.679000 119 78 41
1.184977 -1.075495 3.679000 122 74 36
1.184977 -1.069055 3.679000 125 72 35
1.184977 -1.062615 3.679000 122 75 34
1.197538 -1.067371 3.718000 120 75 36
1.184977 -1.049735 3.679000 120 73 39
1.197538 -1.054354 3.718000 120 73 47
1.197538 -1.047846 3.718000 120 74 56
1.197538 -1.041337 3.718000 120 72 49
1.197538 -1.034829 3.718000 118 72 42
1.197538 -1.028321 3.718000 116 75 50
1.197538 -1.021812 3.718000 117 76 59
1.197538 -1.015304 3.718000 118 77 50
1.197538 -1.008796 3.718000 118 78 42
1.197538 -1.002287 3.718000 117 79 39
1.197538 -0.995779 3.718000 119 77 37
1.184977 -0.978894 3.679000 122 76 35
1.184977 -0.972454 3.679000 120 76 33
1.184977 -0.966013 3.679000 119 77 36
1.184977 -0.959573 3.679000 119 76 39
1.184977 -0.953133 3.679000 120 77 36
1.184977 -0.946693 3.679000 121 78 33
1.184977 -0.940253 3.679000 122 79 31
1.184977 -0.933813 3.679000 126 78 30
1.184977 -0.927373 3.679000 130 78 34
1.184977 -0.920933 3.679000 127 78 39
1.184977 -0.914493 3.679000 124 79 44
1.184977 -0.908053 3.679000 125 78 49
1.184977 -0.901613 3.679000 125 79 47
1.184977 -0.895172 3.679000 123 77 46
1.184977 -0.888732 3.679000 122 79 50
1.184977 -0.882292 3.679000 121 79 55
1.184977 -0.875852 3.679000 121 79 44
1.184977 -0.869412 3.679000 121 79 33
1.184977 -0.862972 3.679000 122 79 37
1.184977 -0.856532 3.679000 125 78 41
1.184977 -0.850092 3.679000 128 77 47
1.172415 -0.834708 3.640000 126 78 54
1.172415 -0.828337 3.640000 123 81 44
1.172415 -0.821965 3.640000 125 81 34
1.184977 -0.824331 3.679000 126 82 36
1.184977 -0.817891 3.679000 124 79 38
1.184977 -0.811451 3.679000 121 78 38
1.184977 -0.805011 3.679000 122 79 38
1.184977 -0.798571 3.679000 124 80 37
1.184977 -0.792131 3.679000 124 78 37
1.172415 -0.777362 3.640000 124 78 38
1.184977 -0.779251 3.679000 125 77 39
1.172415 -0.764618 3.640000 126 78 39
1.172415 -0.758247 3.640000 125 79 39
1.172415 -0.751875 3.640000 125 80 45
1.172415 -0.745503 3.640000 125 78 51
1.172415 -0.739131 3.640000 126 77 45
1.172415 -0.732759 3.640000 125 78 40
1.172415 -0.726387 3.640000 124 80 40
1.172415 -0.720016 3.640000 123 81 40
1.172415 -0.713644 3.640000 123 82 40
1.172415 -0.707272 3.640000 123 80 40
1.172415 -0.700900 3.640000 124 80 41
1.172415 -0.694528 3.640000 125 80 42
1.172415 -0.688157 3.640000 126 79 40
1.172415 -0.681785 3.640000 126 81 39
1.184977 -0.682649 3.679000 127 84 41
1.172415 -0.669041 3.640000 127 81 44
1.172415 -0.662669 3.640000 127 80 47
1.172415 -0.656297 3.640000 126 83 51
1.172415 -0.649926 3.640000 125 85 49
1.172415 -0.643554 3.640000 125 83 47
1.172415 -0.637182 3.640000 126 84 44
1.172415 -0.630810 3.640000 126 84 41
1.172415 -0.624438 3.640000 126 85 42
1.172415 -0.618066 3.640000 126 83 44
1.172415 -0.611695 3.640000 127 81 45
1.172415 -0.605323 3.640000 129 83 46
1.172415 -0.598951 3.640000 132 86 42
1.172415 -0.592579 3.640000 129 84 38
1.172415 -0.586207 3.640000 127 85 45
1.172415 -0.579836 3.640000 127 86 52
1.172415 -0.573464 3.640000 127 85 47
1.172415 -0.567092 3.640000 128 83 42
1.172415 -0.560720 3.640000 129 83 44
1.172415 -0.554348 3.640000 130 83 46
1.172415 -0.547976 3.640000 132 84 45
1.172415 -0.541605 3.640000 130 83 44
1.172415 -0.535233 3.640000 129 83 50
1.172415 -0.528861 3.640000 128 83 56
1.172415 -0.522489 3.640000 128 85 51
1.172415 -0.516117 3.640000 129 85 47
1.172415 -0.509746 3.640000 131 86 48
1.172415 -0.503374 3.640000 130 85 50
1.172415 -0.497002 3.640000 129 86 48
1.172415 -0.490630 3.640000 129 85 47
1.172415 -0.484258 3.640000 129 86 48
1.172415 -0.477886 3.640000 132 86 50
1.172415 -0.471515 3.640000 135 85 48
1.160175 -0.460287 3.602000 131 85 46
1.160175 -0.453982 3.602000 128 86 47
1.172415 -0.452399 3.640000 127 88 48
1.172415 -0.446027 3.640000 127 90 52
1.172415 -0.439656 3.640000 129 88 56
1.172415 -0.433284 3.640000 130 91 49
1.172415 -0.426912 3.640000 130 86 43
1.160175 -0.416150 3.602000 129 84 36
1.160175 -0.409845 3.602000 131 85 29
1.160175 -0.403539 3.602000 133 87 39
1.160175 -0.397234 3.602000 133 87 49
1.160175 -0.390929 3.602000 133 88 59
1.160175 -0.384623 3.602000 135 84 70
1.160175 -0.378318 3.602000 137 81 58
1.160175 -0.372013 3.602000 135 84 47
1.172415 -0.369566 3.640000 133 86 46
1.160175 -0.359402 3.602000 133 83 45
1.172415 -0.356822 3.640000 134 82 44
1.172415 -0.350450 3.640000 132 84 43
1.172415 -0.344078 3.640000 131 86 43
1.160175 -0.334181 3.602000 131 85 44
1.160175 -0.327876 3.602000 131 85 46
1.148258 -0.318267 3.565000 133 86 48
1.160175 -0.315265 3.602000 135 88 48
1.160175 -0.308960 3.602000 134 87 49
1.160175 -0.302654 3.602000 133 87 53
1.160175 -0.296349 3.602000 132 86 57
1.160175 -0.290044 3.602000 131 87 52
1.160175 -0.283738 3.602000 134 86 47
1.160175 -0.277433 3.602000 138 86 47
1.160175 -0.271128 3.602000 136 85 47
1.160175 -0.264823 3.602000 133 85 52
1.160175 -0.258517 3.602000 133 86 57
1.160175 -0.252212 3.602000 132 91 49
1.172415 -0.248501 3.640000 133 89 42
1.172415 -0.242129 3.640000 134 89 46
1.172415 -0.235757 3.640000 134 88 50
1.172415 -0.229385 3.640000 134 88 48
1.172415 -0.223014 3.640000 133 87 47
1.172415 -0.216642 3.640000 133 87 45
1.172415 -0.210270 3.640000 134 86 44
1.172415 -0.203898 3.640000 134 87 33
1.172415 -0.197526 3.640000 134 88 23
1.172415 -0.191155 3.640000 133 90 40
1.172415 -0.184783 3.640000 132 86 57
1.172415 -0.178411 3.640000 130 87 53
1.172415 -0.172039 3.640000 131 87 50
1.172415 -0.165667 3.640000 132 89 47
1.172415 -0.159295 3.640000 132 89 45
1.172415 -0.152924 3.640000 133 90 47
1.172415 -0.146552 3.640000 133 86 49
1.160175 -0.138717 3.602000 133 87 51
1.172415 -0.133808 3.640000 134 87 54
1.172415 -0.127436 3.640000 135 86 57
1.160175 -0.119801 3.602000 136 87 60
1.160175 -0.113495 3.602000 137 89 52
1.160175 -0.107190 3.602000 139 89 44
1.160175 -0.100885 3.602000 140 89 47
1.160175 -0.094579 3.602000 139 87 50
1.160175 -0.088274 3.602000 137 88 57
1.160175 -0.081969 3.602000 135 89 65
1.148258 -0.074886 3.565000 133 90 60
1.160175 -0.069358 3.602000 134 89 56
1.160175 -0.063053 3.602000 134 90 53
1.160175 -0.056748 3.602000 134 89 51
1.160175 -0.050442 3.602000 135 91 49
1.160175 -0.044137 3.602000 137 89 47
1.160175 -0.037832 3.602000 140 91 50
1.160175 -0.031526 3.602000 138 90 54
1.160175 -0.025221 3.602000 136 91 54
1.160175 -0.018916 3.602000 136 92 54
1.160175 -0.012611 3.602000 136 93 51
1.160175 -0.006305 3.602000 135 91 49
1.160175 -0.000000 3.602000 135 91 56
1.160175 0.006305 3.602000 134 91 63
1.160175 0.012611 3.602000 134 94 57
1.160175 0.018916 3.602000 134 90 52
1.160175 0.025221 3.602000 134 88 56
1.172415 0.031859 3.640000 136 89 61
1.160175 0.037832 3.602000 138 90 58
1.160175 0.044137 3.602000 138 91 56
1.160175 0.050443 3.602000 139 92 54
1.160175 0.056748 3.602000 138 93 52
1.160175 0.063053 3.602000 137 94 49
1.160175 0.069358 3.602000 137 93 46
1.160175 0.075664 3.602000 136 93 46
1.160175 0.081969 3.602000 137 92 47
1.160175 0.088274 3.602000 138 92 49
1.160175 0.094580 3.602000 140 92 52
1.160175 0.100885 3.602000 141 95 52
1.160175 0.107190 3.602000 139 93 53
1.160175 0.113495 3.602000 138 92 51
1.160175 0.119801 3.602000 139 92 50
1.160175 0.126106 3.602000 140 94 57
1.160175 0.132411 3.602000 142 94 64
1.160175 0.138717 3.602000 144 96 57
1.160175 0.145022 3.602000 142 91 50
1.160175 0.151327 3.602000 140 90 52
1.160175 0.157633 3.602000 139 92 55
1.160175 0.163938 3.602000 139 93 64
1.160175 0.170243 3.602000 140 93 74
1.148258 0.174735 3.565000 141 94 65
1.160175 0.182854 3.602000 138 92 57
1.160175 0.189159 3.602000 135 95 56
1.160175 0.195464 3.602000 136 93 55
1.160175 0.201770 3.602000 137 93 66
1.160175 0.208075 3.602000 136 92 78
1.160175 0.214380 3.602000 136 95 64
1.148258 0.218419 3.565000 139 92 51
1.160175 0.226991 3.602000 143 91 53
1.148258 0.230900 3.565000 141 90 55
1.148258 0.237140 3.565000 139 90 59
1.148258 0.243381 3.565000 139 92 64
1.160175 0.252212 3.602000 140 94 57
1.160175 0.258517 3.602000 141 94 50
1.160175 0.264823 3.602000 142 97 50
1.160175 0.271128 3.602000 140 97 50
1.172415 0.280360 3.640000 138 100 50
1.172415 0.286732 3.640000 138 96 51
1.172415 0.293104 3.640000 139 96 52
1.172415 0.299476 3.640000 139 97 53
1.172415 0.305847 3.640000 139 98 58
1.160175 0.308960 3.602000 138 95 64
1.160175 0.315265 3.602000 137 94 59
1.160175 0.321571 3.602000 137 95 54
1.160175 0.327876 3.602000 138 96 55
1.160175 0.334181 3.602000 138 95 56
1.160175 0.340486 3.602000 139 95 58
1.160175 0.346792 3.602000 140 94 61
1.160175 0.353097 3.602000 142 97 60
1.160175 0.359402 3.602000 140 96 59
1.160175 0.365707 3.602000 139 98 55
1.172415 0.375937 3.640000 139 97 52
1.172415 0.382309 3.640000 139 97 51
1.160175 0.384623 3.602000 140 98 51
1.160175 0.390929 3.602000 142 101 52
1.160175 0.397234 3.602000 140 96 53
1.172415 0.407797 3.640000 137 93 55
1.160175 0.409845 3.602000 139 93 57
1.160175 0.416150 3.602000 140 94 55
1.160175 0.422455 3.602000 139 96 53
1.148258 0.424356 3.565000 137 98 52
1.160175 0.435066 3.602000 137 97 52
1.160175 0.441371 3.602000 137 98 52
1.160175 0.447676 3.602000 141 96 53
1.160175 0.453982 3.602000 146 98 61
1.160175 0.460287 3.602000 142 93 69
1.160175 0.466592 3.602000 139 92 66
1.160175 0.472898 3.602000 138 94 63
1.160175 0.479203 3.602000 136 96 58
1.160175 0.485508 3.602000 137 94 53
1.160175 0.491814 3.602000 138 95 53
1.160175 0.498119 3.602000 139 95 54
1.160175 0.504424 3.602000 140 97 65
1.160175 0.510730 3.602000 138 94 76
1.160175 0.517035 3.602000 137 92 66
1.160175 0.523340 3.602000 135 92 57
1.160175 0.529645 3.602000 133 92 56
1.160175 0.535951 3.602000 135 92 55
1.160175 0.542256 3.602000 136 94 59
1.160175 0.548561 3.602000 139 93 64
1.160175 0.554867 3.602000 142 94 58
1.160175 0.561172 3.602000 138 93 52
1.148258 0.561648 3.565000 135 95 58
1.148258 0.567889 3.565000 137 93 64
1.148258 0.574129 3.565000 140 94 59
1.148258 0.580370 3.565000 143 95 55
1.148258 0.586610 3.565000 146 96 54
1.172415 0.605323 3.640000 142 98 53
1.172415 0.611695 3.640000 139 100 57
1.172415 0.618067 3.640000 102 79 62
1.172415 0.624439 3.640000 66 39 33
1.172415 0.630810 3.640000 52 19 4
1.172415 0.637182 3.640000 38 24 17
1.172415 0.643554 3.640000 37 28 30
1.172415 0.649926 3.640000 37 30 26
1.172415 0.656298 3.640000 35 26 22
1.184977 0.669769 3.679000 33 26 18
1.184977 0.676210 3.679000 24 19 15
1.184977 0.682650 3.679000 15 15 8
0.863207 0.675553 2.680000 142 116 100
0.795245 0.652620 2.469000 144 111 106
0.795245 0.656942 2.469000 144 109 106
0.789448 0.656443 2.451000 146 115 106
0.783972 0.656151 2.434000 147 120 105
0.783972 0.660411 2.434000 144 119 104
0.778496 0.660030 2.417000 140 120 106
0.773021 0.659589 2.400000 142 121 108
0.767867 0.659364 2.384000 143 121 109
0.757238 0.654353 2.351000 143 120 110
0.752085 0.653987 2.335000 143 119 106
0.747254 0.653847 2.320000 149 117 102
0.742100 0.653371 2.304000 155 117 105
0.732437 0.648844 2.274000 150 117 108
0.727606 0.648518 2.259000 146 118 111
0.722775 0.648140 2.244000 143 118 115
0.713434 0.643641 2.215000 140 118 114
0.708925 0.643426 2.201000 143 118 114
0.704415 0.643162 2.187000 147 121 117
0.700228 0.643144 2.174000 146 118 120
0.695719 0.642784 2.160000 146 118 117
0.691532 0.642673 2.147000 144 120 115
0.687022 0.642217 2.133000 142 123 112
0.674783 0.634443 2.095000 145 123 109
0.670596 0.634150 2.082000 149 125 113
0.670596 0.637795 2.082000 148 123 118
0.666408 0.637434 2.069000 148 123 119
0.662543 0.637338 2.057000 145 125 121
0.658678 0.637200 2.045000 142 127 120
0.654813 0.637019 2.033000 144 124 120
0.650948 0.636797 2.021000 147 122 121
0.643540 0.633047 1.998000 148 123 122
0.639675 0.632722 1.986000 150 125 120
0.636132 0.632675 1.975000 152 124 119
0.636132 0.636132 1.975000 154 124 116
0.632589 0.636027 1.964000 153 125 113
0.618417 0.625139 1.920000 151 127 117
0.611653 0.621625 1.899000 152 125 122
0.611653 0.624950 1.899000 152 126 123
0.608110 0.624635 1.888000 153 127 125
0.604889 0.624614 1.878000 155 129 127
0.604889 0.627901 1.878000 153 128 129
0.598447 0.624466 1.858000 152 128 128
0.595226 0.624340 1.848000 151 126 127
0.592005 0.624179 1.838000 151 127 128
0.585885 0.620911 1.819000 149 127 129
0.579766 0.617576 1.800000 147 126 126
0.576545 0.617279 1.790000 147 125 123
0.573646 0.617293 1.781000 147 125 124
0.570747 0.617275 1.772000 148 126 126
0.567848 0.617226 1.763000 149 126 125
0.564949 0.617146 1.754000 150 126 125
0.562051 0.617034 1.745000 151 126 120
0.556575 0.614048 1.728000 151 125 115
0.553676 0.613859 1.719000 152 124 120
0.551099 0.613997 1.711000 152 124 126
0.548201 0.613746 1.702000 153 128 126
0.545624 0.613827 1.694000 152 127 127
0.543047 0.613880 1.686000 151 124 124
0.540148 0.613538 1.677000 152 124 121
0.534995 0.610592 1.661000 154 126 123
0.534995 0.613500 1.661000 154 127 125
0.532418 0.613438 1.653000 154 128 128
0.529841 0.613349 1.645000 153 128 131
0.522433 0.607613 1.622000 153 129 129
0.520179 0.607817 1.615000 152 129 127
0.515347 0.604973 1.600000 152 131 129
0.512771 0.604735 1.592000 150 131 132
0.510516 0.604850 1.585000 148 132 129
0.508261 0.604941 1.578000 150 131 126
0.506007 0.605008 1.571000 151 131 127
0.503430 0.604663 1.563000 150 130 129
0.501175 0.604679 1.556000 150 131 130
0.498921 0.604670 1.549000 152 130 132
0.494733 0.602284 1.536000 155 131 129
0.492479 0.602216 1.529000 150 130 126
0.490224 0.602123 1.522000 145 126 128
0.487969 0.602006 1.515000 149 127 130
0.487969 0.604658 1.515000 153 129 131
0.481850 0.599693 1.496000 151 129 133
0.479595 0.599494 1.489000 150 130 135
0.477662 0.599674 1.483000 150 128 138
0.475730 0.599834 1.477000 151 130 135
0.471543 0.597117 1.464000 151 129 132
0.469610 0.597222 1.458000 152 130 129
0.467678 0.597306 1.452000 153 131 127
0.465745 0.597369 1.446000 155 131 128
0.461880 0.594922 1.434000 154 128 129
0.459947 0.594932 1.428000 153 127 129
0.458015 0.594922 1.422000 153 127 129
1.204046 -1.321197 3.718000 105 71 20
1.204046 -1.314689 3.718000 107 70 23
1.204046 -1.308180 3.718000 108 71 26
1.204046 -1.301672 3.718000 109 72 27
1.204046 -1.295164 3.718000 111 76 28
1.204046 -1.288655 3.718000 114 75 30
1.204046 -1.282147 3.718000 113 76 32
1.204046 -1.275638 3.718000 112 76 27
1.204046 -1.269130 3.718000 114 76 22
1.217324 -1.276545 3.759000 116 76 30
1.204046 -1.256113 3.718000 115 76 38
1.204046 -1.249605 3.718000 115 75 35
1.204046 -1.243097 3.718000 116 76 32
1.191417 -1.223617 3.679000 118 74 33
1.191417 -1.217177 3.679000 117 73 34
1.191417 -1.210737 3.679000 116 74 35
1.191417 -1.204297 3.679000 116 76 37
1.191417 -1.197857 3.679000 116 76 40
1.191417 -1.191417 3.679000 116 78 43
1.191417 -1.184977 3.679000 117 77 37
1.191417 -1.178537 3.679000 115 79 32
1.191417 -1.172096 3.679000 114 77 35
1.191417 -1.165656 3.679000 113 77 39
1.191417 -1.159216 3.679000 112 77 43
1.191417 -1.152776 3.679000 113 79 48
1.204046 -1.158488 3.718000 114 77 44
1.204046 -1.151980 3.718000 117 76 41
1.204046 -1.145471 3.718000 120 77 39
1.204046 -1.138963 3.718000 115 79 38
1.204046 -1.132455 3.718000 110 76 42
1.204046 -1.125946 3.718000 112 74 46
1.204046 -1.119438 3.718000 114 73 44
1.191417 -1.101255 3.679000 117 74 41
1.191417 -1.094815 3.679000 120 75 42
1.191417 -1.088375 3.679000 121 76 42
1.191417 -1.081935 3.679000 122 75 40
1.191417 -1.075495 3.679000 127 73 37
1.191417 -1.069055 3.679000 132 74 35
1.191417 -1.062615 3.679000 127 77 33
1.191417 -1.056175 3.679000 123 75 35
1.191417 -1.049735 3.679000 122 76 37
1.191417 -1.043294 3.679000 121 75 43
1.191417 -1.036855 3.679000 122 74 48
1.191417 -1.030414 3.679000 124 71 40
1.191417 -1.023974 3.679000 121 72 32
1.191417 -1.017534 3.679000 118 74 38
1.191417 -1.011094 3.679000 120 78 45
1.191417 -1.004654 3.679000 122 78 38
1.191417 -0.998214 3.679000 120 79 31
1.191417 -0.991774 3.679000 118 79 33
1.191417 -0.985334 3.679000 118 78 35
1.191417 -0.978894 3.679000 118 77 36
1.191417 -0.972454 3.679000 118 78 37
1.191417 -0.966013 3.679000 119 77 41
1.191417 -0.959573 3.679000 119 76 46
1.191417 -0.953133 3.679000 120 77 40
1.178787 -0.936657 3.640000 121 79 35
1.178787 -0.930286 3.640000 123 78 34
1.178787 -0.923914 3.640000 125 79 33
1.178787 -0.917542 3.640000 127 78 33
1.191417 -0.920933 3.679000 126 79 34
1.191417 -0.914493 3.679000 125 79 40
1.191417 -0.908053 3.679000 124 80 45
1.191417 -0.901613 3.679000 124 78 45
1.191417 -0.895172 3.679000 123 76 44
1.191417 -0.888732 3.679000 122 78 45
1.191417 -0.882292 3.679000 122 82 46
1.178787 -0.866567 3.640000 123 81 37
1.178787 -0.860196 3.640000 123 82 29
1.178787 -0.853824 3.640000 124 79 32
1.178787 -0.847452 3.640000 129 77 35
1.178787 -0.841080 3.640000 135 77 37
1.178787 -0.834708 3.640000 129 77 40
1.178787 -0.828337 3.640000 124 79 37
1.178787 -0.821965 3.640000 124 82 35
1.178787 -0.815593 3.640000 124 81 38
1.191417 -0.817891 3.679000 123 81 41
1.191417 -0.811451 3.679000 122 79 43
1.191417 -0.805011 3.679000 123 80 45
1.191417 -0.798571 3.679000 125 80 40
1.178787 -0.783734 3.640000 125 80 36
1.178787 -0.777362 3.640000 126 78 38
1.178787 -0.770990 3.640000 125 77 40
1.178787 -0.764618 3.640000 124 78 39
1.178787 -0.758247 3.640000 125 80 39
1.178787 -0.751875 3.640000 126 80 39
1.178787 -0.745503 3.640000 127 80 39
1.178787 -0.739131 3.640000 129 80 39
1.178787 -0.732759 3.640000 127 82 39
