ply
format ascii 1.0
element vertex 1210
property float x
property float y
property float z
property uchar red
property uchar green
property uchar blue
end_header
0.180251 0.326239 0.851000 208 207 212
0.180251 0.327729 0.851000 208 210 211
0.179827 0.328445 0.849000 210 219 210
0.179827 0.329931 0.849000 212 213 208
0.179827 0.331417 0.849000 210 208 207
0.179827 0.332903 0.849000 208 210 207
0.179192 0.333208 0.846000 209 215 207
0.179827 0.335875 0.849000 210 211 208
0.179192 0.336170 0.846000 208 214 209
0.179192 0.337650 0.846000 207 209 209
0.179192 0.339131 0.846000 207 206 209
0.179192 0.340612 0.846000 208 207 206
0.179192 0.342093 0.846000 208 207 204
0.179192 0.343574 0.846000 209 206 202
0.197757 -0.342023 0.926000 155 149 146
0.198185 -0.341137 0.928000 155 148 146
0.198185 -0.339513 0.928000 156 150 147
0.197757 -0.337160 0.926000 158 150 142
0.198185 -0.336264 0.928000 157 150 138
0.198825 -0.335721 0.931000 156 151 141
0.197757 -0.332297 0.926000 156 151 145
0.198185 -0.331391 0.928000 155 153 143
0.198185 -0.329766 0.928000 156 151 141
0.198185 -0.328142 0.928000 158 152 140
0.197757 -0.325814 0.926000 157 152 139
0.198185 -0.324893 0.928000 157 153 143
0.198185 -0.323268 0.928000 158 152 148
0.198185 -0.321644 0.928000 159 153 149
0.198185 -0.320019 0.928000 157 153 150
0.197757 -0.317709 0.926000 156 154 151
0.197757 -0.316088 0.926000 157 154 152
0.198185 -0.315146 0.928000 158 154 153
0.198185 -0.313522 0.928000 159 155 154
0.198185 -0.311897 0.928000 160 156 153
0.198185 -0.310273 0.928000 160 155 152
0.198185 -0.308648 0.928000 161 156 150
0.198185 -0.307024 0.928000 161 156 148
0.198185 -0.305399 0.928000 161 156 143
0.198185 -0.303775 0.928000 161 156 138
0.197757 -0.301499 0.926000 161 157 145
0.197757 -0.299878 0.926000 161 158 152
0.197757 -0.298257 0.926000 162 158 153
0.197757 -0.296636 0.926000 162 157 154
0.197330 -0.294378 0.924000 162 157 156
0.197330 -0.292761 0.924000 163 158 158
0.197330 -0.291143 0.924000 163 159 156
0.197330 -0.289526 0.924000 163 159 155
0.197330 -0.287908 0.924000 163 159 157
0.197330 -0.286291 0.924000 162 160 159
0.197117 -0.284365 0.923000 162 161 156
0.197330 -0.283056 0.924000 164 160 154
0.197117 -0.281134 0.923000 166 160 156
0.197117 -0.279518 0.923000 165 159 158
0.197117 -0.277902 0.923000 163 160 157
0.197117 -0.276287 0.923000 164 161 157
0.197117 -0.274671 0.923000 165 162 163
0.197117 -0.273055 0.923000 165 161 170
0.197117 -0.271440 0.923000 166 161 164
0.197117 -0.269824 0.923000 166 161 159
0.197117 -0.268208 0.923000 167 161 160
0.197117 -0.266592 0.923000 166 161 162
0.197117 -0.264977 0.923000 166 161 161
0.197117 -0.263361 0.923000 166 161 161
0.197117 -0.261745 0.923000 166 162 161
0.197117 -0.260130 0.923000 166 162 162
0.197117 -0.258514 0.923000 166 161 162
0.197117 -0.256898 0.923000 167 162 163
0.197117 -0.255282 0.923000 168 163 158
0.196690 -0.253117 0.921000 169 163 153
0.197117 -0.252051 0.923000 170 162 155
0.197117 -0.250435 0.923000 170 163 157
0.196690 -0.248280 0.921000 171 165 158
0.196690 -0.246668 0.921000 169 166 159
0.196690 -0.245056 0.921000 168 167 157
0.196690 -0.243444 0.921000 167 167 156
0.196690 -0.241832 0.921000 166 166 159
0.196263 -0.239698 0.919000 168 165 162
0.196263 -0.238089 0.919000 171 165 158
0.196263 -0.236480 0.919000 171 162 155
0.196263 -0.234872 0.919000 171 161 159
0.196263 -0.233263 0.919000 172 164 164
0.196263 -0.231654 0.919000 174 168 165
0.196263 -0.230045 0.919000 174 167 167
0.196263 -0.228437 0.919000 173 168 168
0.195622 -0.226088 0.916000 172 168 169
0.195622 -0.224484 0.916000 172 168 167
0.196263 -0.223611 0.919000 172 168 166
0.196263 -0.222002 0.919000 172 169 158
0.195622 -0.219674 0.916000 172 170 150
0.195622 -0.218070 0.916000 172 170 157
0.195622 -0.216467 0.916000 173 168 164
0.195622 -0.214863 0.916000 174 166 166
0.195195 -0.212794 0.914000 173 168 169
0.195195 -0.211194 0.914000 173 169 168
0.195195 -0.209594 0.914000 172 172 167
0.195195 -0.207994 0.914000 170 174 167
0.195195 -0.206394 0.914000 172 173 168
0.195195 -0.204794 0.914000 173 173 166
0.195195 -0.203195 0.914000 175 171 164
0.195195 -0.201595 0.914000 177 171 166
0.195195 -0.199995 0.914000 176 171 169
0.195195 -0.198395 0.914000 176 172 172
0.195195 -0.196795 0.914000 175 170 176
0.195195 -0.195195 0.914000 175 169 174
0.195195 -0.193595 0.914000 176 170 173
0.195195 -0.191995 0.914000 177 171 174
0.195195 -0.190395 0.914000 177 171 175
0.195195 -0.188795 0.914000 178 172 175
0.195195 -0.187195 0.914000 178 173 175
0.195195 -0.185595 0.914000 179 173 178
0.195195 -0.183995 0.914000 178 173 182
0.194554 -0.181796 0.911000 178 174 176
0.194127 -0.179806 0.909000 179 175 171
0.194554 -0.178607 0.911000 180 179 171
0.194554 -0.177012 0.911000 179 178 172
0.194554 -0.175418 0.911000 178 178 168
0.194554 -0.173823 0.911000 178 177 165
0.194554 -0.172228 0.911000 179 179 168
0.194554 -0.170634 0.911000 178 179 171
0.194554 -0.169039 0.911000 177 180 174
0.194554 -0.167444 0.911000 178 178 178
0.194554 -0.165849 0.911000 179 177 175
0.194127 -0.163894 0.909000 179 177 172
0.194127 -0.162303 0.909000 179 177 172
0.194554 -0.161065 0.911000 179 179 172
0.194554 -0.159471 0.911000 180 181 173
0.194127 -0.157529 0.909000 179 179 175
0.194127 -0.155938 0.909000 178 179 179
0.194127 -0.154347 0.909000 179 179 183
0.194127 -0.152756 0.909000 181 179 176
0.194127 -0.151164 0.909000 181 180 170
0.193700 -0.149244 0.907000 182 181 166
0.193700 -0.147656 0.907000 183 179 162
0.193700 -0.146069 0.907000 184 179 168
0.193700 -0.144481 0.907000 183 180 174
0.193700 -0.142893 0.907000 182 181 172
0.193700 -0.141306 0.907000 181 180 170
0.193700 -0.139718 0.907000 181 180 176
0.193700 -0.138130 0.907000 182 181 182
0.193700 -0.136542 0.907000 183 182 180
0.193700 -0.134955 0.907000 182 182 178
0.193700 -0.133367 0.907000 182 183 169
0.193700 -0.131779 0.907000 184 182 161
0.193059 -0.129761 0.904000 185 182 168
0.193059 -0.128179 0.904000 183 182 176
0.193059 -0.126596 0.904000 182 181 177
0.193059 -0.125014 0.904000 183 184 178
0.193059 -0.123431 0.904000 184 185 180
0.193059 -0.121849 0.904000 185 183 183
0.193059 -0.120266 0.904000 187 183 182
0.193059 -0.118684 0.904000 186 184 182
0.193059 -0.117101 0.904000 186 185 181
0.193059 -0.115519 0.904000 185 184 181
0.193059 -0.113937 0.904000 185 186 181
0.193059 -0.112354 0.904000 185 186 182
0.193059 -0.110772 0.904000 184 187 181
0.193059 -0.109189 0.904000 185 185 180
0.193059 -0.107607 0.904000 185 184 178
0.193059 -0.106024 0.904000 184 186 177
0.193059 -0.104442 0.904000 183 188 182
0.193059 -0.102859 0.904000 184 187 188
0.193059 -0.101277 0.904000 186 187 186
0.193059 -0.099694 0.904000 186 188 185
0.193059 -0.098112 0.904000 187 188 186
0.193059 -0.096530 0.904000 187 188 188
0.193059 -0.094947 0.904000 187 189 187
0.193059 -0.093365 0.904000 188 189 187
0.192632 -0.091579 0.902000 189 189 186
0.192632 -0.090000 0.902000 187 188 185
0.192632 -0.088421 0.902000 186 187 182
0.192632 -0.086842 0.902000 186 185 180
0.192632 -0.085263 0.902000 185 181 181
0.192632 -0.083684 0.902000 186 187 182
0.192632 -0.082105 0.902000 186 190 180
0.192632 -0.080527 0.902000 189 190 179
0.192632 -0.078948 0.902000 192 192 183
0.192632 -0.077369 0.902000 189 189 188
0.191991 -0.075538 0.899000 187 188 190
0.191991 -0.073964 0.899000 188 189 193
0.191991 -0.072390 0.899000 189 190 195
0.191991 -0.070816 0.899000 189 190 197
0.191991 -0.069243 0.899000 190 190 193
0.191991 -0.067669 0.899000 190 190 190
0.191991 -0.066095 0.899000 191 192 186
0.191991 -0.064522 0.899000 191 191 183
0.191991 -0.062948 0.899000 192 191 186
0.191991 -0.061374 0.899000 191 191 190
0.191991 -0.059801 0.899000 191 191 191
0.191991 -0.058227 0.899000 190 193 192
0.191991 -0.056653 0.899000 189 194 190
0.191564 -0.054957 0.897000 190 192 189
0.191991 -0.053506 0.899000 191 191 189
0.191564 -0.051817 0.897000 192 192 189
0.191564 -0.050246 0.897000 193 192 186
0.191564 -0.048676 0.897000 191 193 184
0.191564 -0.047106 0.897000 188 193 187
0.191564 -0.045536 0.897000 190 192 190
0.191564 -0.043966 0.897000 192 191 187
0.191564 -0.042395 0.897000 192 192 185
0.191564 -0.040825 0.897000 192 193 189
0.191564 -0.039255 0.897000 192 193 193
0.191564 -0.037685 0.897000 192 193 192
0.191564 -0.036115 0.897000 192 193 191
0.191564 -0.034544 0.897000 192 194 193
0.191564 -0.032974 0.897000 193 195 195
0.191137 -0.031334 0.895000 195 197 192
0.191137 -0.029767 0.895000 195 195 190
0.191137 -0.028201 0.895000 195 195 191
0.191137 -0.026634 0.895000 194 196 193
0.191137 -0.025067 0.895000 194 196 192
0.191137 -0.023500 0.895000 195 197 191
0.191137 -0.021934 0.895000 197 197 193
0.191137 -0.020367 0.895000 196 196 195
0.191137 -0.018800 0.895000 196 197 195
0.191137 -0.017234 0.895000 196 197 196
0.191137 -0.015667 0.895000 197 200 196
0.191137 -0.014100 0.895000 196 199 196
0.191137 -0.012534 0.895000 195 198 192
0.191137 -0.010967 0.895000 196 197 188
0.191137 -0.009400 0.895000 197 197 191
0.191137 -0.007833 0.895000 195 198 195
0.191137 -0.006267 0.895000 194 199 196
0.191137 -0.004700 0.895000 195 199 197
0.191137 -0.003133 0.895000 197 199 192
0.190496 -0.001561 0.892000 198 199 188
0.190496 -0.000000 0.892000 199 199 191
0.190496 0.001561 0.892000 199 199 195
0.190496 0.003123 0.892000 200 199 200
0.190069 0.004674 0.890000 199 199 206
0.190069 0.006232 0.890000 198 200 202
0.190069 0.007790 0.890000 198 199 199
0.190069 0.009348 0.890000 197 201 199
0.190069 0.010906 0.890000 198 201 200
0.190069 0.012464 0.890000 200 201 202
0.190069 0.014022 0.890000 199 202 205
0.190069 0.015579 0.890000 199 203 203
0.190069 0.017137 0.890000 199 202 201
0.189642 0.018653 0.888000 199 202 200
0.189642 0.020208 0.888000 198 202 200
0.189642 0.021762 0.888000 197 202 201
0.189642 0.023317 0.888000 198 202 202
0.189642 0.024871 0.888000 199 203 202
0.189642 0.026426 0.888000 199 202 203
0.189642 0.027980 0.888000 199 199 202
0.189642 0.029534 0.888000 199 201 201
0.189642 0.031089 0.888000 200 202 201
0.189642 0.032643 0.888000 200 201 202
0.189642 0.034198 0.888000 201 201 203
0.189642 0.035752 0.888000 200 201 204
0.189642 0.037307 0.888000 200 202 205
0.189642 0.038861 0.888000 200 203 207
0.189642 0.040416 0.888000 201 204 204
0.189215 0.041875 0.886000 201 202 202
0.189215 0.043426 0.886000 202 202 204
0.189215 0.044977 0.886000 202 203 207
0.189215 0.046528 0.886000 202 204 204
0.189215 0.048079 0.886000 202 204 201
0.189215 0.049630 0.886000 202 205 200
0.189215 0.051181 0.886000 202 203 200
0.189215 0.052732 0.886000 202 203 201
0.189215 0.054283 0.886000 201 203 202
0.189215 0.055834 0.886000 200 204 201
0.189215 0.057385 0.886000 202 205 201
0.189215 0.058936 0.886000 204 205 199
0.189215 0.060487 0.886000 203 204 198
0.188574 0.061828 0.883000 202 203 199
0.188574 0.063373 0.883000 203 205 201
0.188147 0.064772 0.881000 204 206 202
0.188147 0.066314 0.881000 204 205 204
0.188147 0.067856 0.881000 203 205 206
0.188147 0.069399 0.881000 204 205 209
0.188147 0.070941 0.881000 205 205 204
0.188147 0.072483 0.881000 203 205 200
0.188147 0.074025 0.881000 202 205 192
0.188574 0.075739 0.883000 203 205 185
0.188574 0.077285 0.883000 205 208 197
0.188574 0.078830 0.883000 205 207 210
0.188574 0.080376 0.883000 205 208 206
0.188574 0.081922 0.883000 206 207 202
0.188574 0.083467 0.883000 206 209 203
0.188147 0.084821 0.881000 206 207 205
0.188147 0.086363 0.881000 206 206 201
0.188147 0.087905 0.881000 206 207 198
0.187720 0.089244 0.879000 207 208 199
0.187720 0.090783 0.879000 206 206 201
0.187720 0.092321 0.879000 205 206 197
0.187720 0.093860 0.879000 204 206 193
0.187293 0.095182 0.877000 203 208 197
0.187293 0.096717 0.877000 204 207 202
0.187720 0.098476 0.879000 205 207 199
0.187720 0.100015 0.879000 205 205 197
0.187720 0.101554 0.879000 205 204 198
0.187720 0.103092 0.879000 205 207 199
0.187720 0.104631 0.879000 206 209 201
0.187720 0.106170 0.879000 207 209 203
0.187720 0.107708 0.879000 207 210 204
0.187293 0.108998 0.877000 206 206 205
0.187293 0.110534 0.877000 206 203 210
0.187293 0.112069 0.877000 206 208 215
0.187293 0.113604 0.877000 206 209 210
0.187293 0.115139 0.877000 206 208 206
0.187293 0.116674 0.877000 207 209 203
0.186652 0.117805 0.874000 206 207 201
0.186652 0.119335 0.874000 206 206 201
0.186652 0.120865 0.874000 205 207 201
0.186652 0.122395 0.874000 204 209 196
0.186652 0.123925 0.874000 206 208 191
0.186652 0.125455 0.874000 208 207 197
0.186652 0.126985 0.874000 208 207 204
0.186652 0.128515 0.874000 208 209 206
0.186225 0.129747 0.872000 208 210 208
0.186225 0.131274 0.872000 209 211 207
0.186225 0.132800 0.872000 208 209 207
0.186225 0.134326 0.872000 207 209 206
0.186225 0.135853 0.872000 208 209 205
0.185798 0.137064 0.870000 209 210 202
0.185798 0.138587 0.870000 208 209 199
0.185798 0.140110 0.870000 208 210 202
0.185798 0.141633 0.870000 209 209 205
0.185798 0.143156 0.870000 211 209 208
0.185798 0.144679 0.870000 209 209 212
0.185798 0.146202 0.870000 208 210 208
0.185798 0.147725 0.870000 209 210 204
0.185798 0.149248 0.870000 210 210 205
0.185798 0.150771 0.870000 211 208 207
0.185798 0.152294 0.870000 211 207 206
0.185798 0.153816 0.870000 210 207 206
0.185798 0.155339 0.870000 210 206 206
0.185798 0.156862 0.870000 209 209 207
0.185798 0.158385 0.870000 208 209 206
0.185798 0.159908 0.870000 207 208 206
0.185371 0.161060 0.868000 207 210 202
0.185371 0.162580 0.868000 208 208 199
0.185798 0.164477 0.870000 210 208 202
0.185798 0.166000 0.870000 210 211 206
0.185798 0.167523 0.870000 211 211 207
0.185798 0.169046 0.870000 210 209 208
0.185798 0.170569 0.870000 210 209 208
0.185798 0.172092 0.870000 211 210 209
0.185371 0.173216 0.868000 211 211 208
0.185371 0.174735 0.868000 211 211 208
0.185371 0.176254 0.868000 210 212 205
0.185371 0.177774 0.868000 210 210 203
0.185371 0.179293 0.868000 211 210 205
0.185371 0.180813 0.868000 212 212 208
0.185157 0.182122 0.867000 213 210 206
0.185157 0.183640 0.867000 212 210 204
0.185157 0.185157 0.867000 211 211 207
0.185157 0.186675 0.867000 211 211 210
0.184944 0.187976 0.866000 211 212 212
0.184944 0.189492 0.866000 212 212 215
0.184944 0.191008 0.866000 214 211 208
0.184944 0.192524 0.866000 212 209 202
0.184944 0.194039 0.866000 211 210 204
0.184944 0.195555 0.866000 211 209 207
0.184944 0.197071 0.866000 211 208 203
0.184944 0.198587 0.866000 211 213 199
0.184303 0.199410 0.863000 210 215 203
0.184303 0.200921 0.863000 210 211 208
0.184303 0.202431 0.863000 210 210 207
0.184303 0.203942 0.863000 211 211 206
0.184303 0.205453 0.863000 212 212 207
0.184303 0.206963 0.863000 211 211 208
0.184303 0.208474 0.863000 210 210 206
0.184303 0.209985 0.863000 209 210 204
0.184303 0.211495 0.863000 209 211 206
0.184303 0.213006 0.863000 210 210 208
0.184303 0.214517 0.863000 211 210 207
0.184303 0.216027 0.863000 211 210 206
0.184303 0.217538 0.863000 211 211 204
0.184303 0.219049 0.863000 209 210 202
0.184303 0.220560 0.863000 208 209 203
0.184303 0.222070 0.863000 210 210 205
0.184303 0.223581 0.863000 212 214 205
0.184303 0.225092 0.863000 210 212 205
0.184303 0.226602 0.863000 209 210 207
0.183876 0.227584 0.861000 210 212 210
0.183876 0.229091 0.861000 211 215 209
0.183876 0.230599 0.861000 211 212 209
0.183876 0.232106 0.861000 211 211 211
0.183876 0.233613 0.861000 211 211 213
0.183876 0.235120 0.861000 211 213 212
0.183876 0.236627 0.861000 211 213 212
0.183876 0.238135 0.861000 211 214 213
0.183449 0.239085 0.859000 211 212 214
0.183449 0.240589 0.859000 211 210 213
0.183449 0.242092 0.859000 210 210 212
0.183449 0.243596 0.859000 209 211 213
0.183449 0.245100 0.859000 211 211 214
0.183449 0.246603 0.859000 213 211 207
0.183449 0.248107 0.859000 213 211 201
0.183022 0.249030 0.857000 213 212 205
0.183449 0.251115 0.859000 212 211 210
0.183022 0.252030 0.857000 212 211 214
0.183022 0.253530 0.857000 213 211 219
0.183022 0.255030 0.857000 214 212 215
0.183022 0.256531 0.857000 212 213 212
0.183449 0.258633 0.859000 211 213 208
0.183449 0.260137 0.859000 212 213 204
0.183449 0.261640 0.859000 213 214 207
0.183449 0.263144 0.859000 212 211 210
0.183449 0.264648 0.859000 211 210 210
0.183449 0.266151 0.859000 211 212 211
0.183022 0.267032 0.857000 212 214 212
0.183022 0.268532 0.857000 212 212 213
0.183022 0.270032 0.857000 212 211 210
0.183022 0.271532 0.857000 210 211 207
0.183022 0.273033 0.857000 208 212 204
0.183022 0.274533 0.857000 210 212 201
0.183022 0.276033 0.857000 212 212 197
0.182595 0.276885 0.855000 211 210 194
0.183022 0.279033 0.857000 210 211 200
0.182595 0.279879 0.855000 210 212 207
0.182595 0.281375 0.855000 211 212 203
0.182595 0.282872 0.855000 209 211 200
0.182595 0.284369 0.855000 207 212 203
0.182595 0.285865 0.855000 208 212 207
0.182595 0.287362 0.855000 210 213 208
0.182595 0.288859 0.855000 212 213 210
0.182595 0.290356 0.855000 214 216 210
0.182595 0.291852 0.855000 212 214 210
0.182595 0.293349 0.855000 210 213 211
0.182595 0.294846 0.855000 210 211 212
0.182168 0.295649 0.853000 211 210 212
0.182168 0.297142 0.853000 211 210 212
0.182168 0.298635 0.853000 211 210 208
0.182168 0.300129 0.853000 211 208 204
0.182168 0.301622 0.853000 211 210 209
0.182168 0.303115 0.853000 211 210 214
0.182168 0.304608 0.853000 211 211 211
0.182168 0.306101 0.853000 210 208 209
0.182168 0.307594 0.853000 209 208 209
0.182168 0.309088 0.853000 210 209 209
0.182168 0.310581 0.853000 212 210 209
0.181740 0.311342 0.851000 210 209 209
0.181740 0.312832 0.851000 209 210 207
0.181740 0.314322 0.851000 209 207 206
0.181740 0.315811 0.851000 209 203 208
0.181740 0.317301 0.851000 210 207 211
0.181740 0.318791 0.851000 211 209 211
0.181740 0.320280 0.851000 210 207 211
0.181740 0.321770 0.851000 209 207 210
0.181740 0.323260 0.851000 208 207 209
0.181740 0.324749 0.851000 207 207 208
0.181740 0.326239 0.851000 208 208 207
0.181740 0.327729 0.851000 209 210 208
0.181740 0.329218 0.851000 210 212 209
0.181740 0.330708 0.851000 212 215 208
0.181313 0.331417 0.849000 210 211 207
0.181313 0.332903 0.849000 209 205 207
0.180673 0.333208 0.846000 210 209 208
0.181313 0.335875 0.849000 211 205 207
0.181313 0.337362 0.849000 209 209 207
0.181313 0.338848 0.849000 207 207 207
0.180673 0.339131 0.846000 208 207 208
0.181313 0.341820 0.849000 208 208 205
0.180673 0.342093 0.846000 209 207 203
0.181313 0.344793 0.849000 209 208 198
0.199809 -0.342762 0.928000 155 151 146
0.199809 -0.341137 0.928000 155 149 149
0.199809 -0.339513 0.928000 155 149 153
0.200455 -0.338981 0.931000 156 152 142
0.200455 -0.337351 0.931000 156 153 132
0.200455 -0.335721 0.931000 157 151 141
0.200455 -0.334092 0.931000 156 152 150
0.200455 -0.332462 0.931000 156 152 147
0.200455 -0.330832 0.931000 157 153 143
0.199809 -0.328142 0.928000 158 152 145
0.199809 -0.326517 0.928000 158 153 147
0.200455 -0.325943 0.931000 159 152 146
0.199809 -0.323268 0.928000 160 153 146
0.199809 -0.321644 0.928000 161 153 148
0.200455 -0.321054 0.931000 157 154 150
0.199809 -0.318395 0.928000 153 154 151
0.199809 -0.316770 0.928000 154 156 153
0.199809 -0.315146 0.928000 156 155 157
0.200455 -0.314535 0.931000 158 157 161
0.199809 -0.311897 0.928000 160 156 156
0.199809 -0.310273 0.928000 160 155 152
0.200455 -0.309646 0.931000 161 155 152
0.200455 -0.308016 0.931000 161 156 152
0.200455 -0.306387 0.931000 161 156 153
0.200455 -0.304757 0.931000 161 157 155
0.200455 -0.303127 0.931000 161 157 154
0.199809 -0.300526 0.928000 161 159 154
0.199809 -0.298901 0.928000 162 158 155
0.199378 -0.296636 0.926000 162 159 156
0.199378 -0.295015 0.926000 163 158 155
0.199378 -0.293394 0.926000 163 159 155
0.199378 -0.291773 0.926000 163 158 154
0.199378 -0.290152 0.926000 163 160 153
0.199378 -0.288531 0.926000 163 159 154
0.199378 -0.286910 0.926000 161 160 155
0.198948 -0.284673 0.924000 160 160 155
0.199378 -0.283669 0.926000 164 160 155
0.198948 -0.281438 0.924000 168 159 159
0.198948 -0.279821 0.924000 165 159 163
0.198948 -0.278203 0.924000 162 159 160
0.198733 -0.276287 0.923000 163 161 157
0.198948 -0.274969 0.924000 165 161 160
0.198948 -0.273351 0.924000 165 161 164
0.198733 -0.271440 0.923000 166 160 163
0.198733 -0.269824 0.923000 166 161 162
0.198733 -0.268208 0.923000 167 161 165
0.198948 -0.266881 0.924000 166 164 169
0.198733 -0.264977 0.923000 166 161 166
0.198733 -0.263361 0.923000 166 161 164
0.198733 -0.261745 0.923000 166 162 167
0.198733 -0.260130 0.923000 166 163 170
0.198733 -0.258514 0.923000 167 161 167
0.198733 -0.256898 0.923000 167 162 164
0.198733 -0.255282 0.923000 167 163 159
0.198733 -0.253667 0.923000 166 165 155
0.198733 -0.252051 0.923000 166 164 156
0.198733 -0.250435 0.923000 168 163 157
0.198733 -0.248820 0.923000 170 164 160
0.198733 -0.247204 0.923000 169 165 163
0.198733 -0.245588 0.923000 168 166 162
0.198733 -0.243972 0.923000 165 167 160
0.198733 -0.242357 0.923000 163 166 160
0.198302 -0.240219 0.921000 167 167 160
0.198302 -0.238607 0.921000 171 165 159
0.198302 -0.236995 0.921000 171 163 158
0.198302 -0.235383 0.921000 171 163 161
0.198302 -0.233771 0.921000 174 164 164
0.197871 -0.231654 0.919000 177 165 165
0.198302 -0.230546 0.921000 175 167 167
0.198302 -0.228934 0.921000 173 167 168
0.198302 -0.227322 0.921000 171 168 170
0.198302 -0.225709 0.921000 169 168 172
0.198302 -0.224097 0.921000 170 170 174
0.198302 -0.222485 0.921000 172 169 165
0.198302 -0.220873 0.921000 172 170 156
0.197871 -0.218784 0.919000 172 169 161
0.197871 -0.217176 0.919000 173 168 166
0.197871 -0.215567 0.919000 175 167 168
0.197225 -0.213260 0.916000 174 168 170
0.197225 -0.211656 0.916000 173 169 169
0.197225 -0.210053 0.916000 171 173 168
0.197225 -0.208450 0.916000 170 173 170
0.197225 -0.206846 0.916000 171 174 172
0.197225 -0.205243 0.916000 172 172 168
0.196795 -0.203195 0.914000 174 171 164
0.196795 -0.201595 0.914000 176 171 167
0.196795 -0.199995 0.914000 176 171 170
0.196795 -0.198395 0.914000 176 171 171
0.196795 -0.196795 0.914000 176 171 173
0.196795 -0.195195 0.914000 176 170 168
0.196795 -0.193595 0.914000 176 172 164
0.197225 -0.192415 0.916000 177 171 168
0.196795 -0.190395 0.914000 177 173 173
0.196795 -0.188795 0.914000 178 173 174
0.197225 -0.187605 0.916000 179 175 175
0.196795 -0.185595 0.914000 181 174 177
0.196795 -0.183995 0.914000 179 174 180
0.196795 -0.182395 0.914000 178 174 176
0.196795 -0.180795 0.914000 178 177 172
0.196795 -0.179195 0.914000 178 178 175
0.196795 -0.177595 0.914000 177 179 177
0.196795 -0.175995 0.914000 177 178 168
0.196795 -0.174395 0.914000 178 177 158
0.196795 -0.172795 0.914000 180 178 164
0.196795 -0.171195 0.914000 179 180 170
0.196795 -0.169595 0.914000 179 179 173
0.196795 -0.167995 0.914000 179 178 175
0.196795 -0.166396 0.914000 180 177 174
0.196149 -0.164255 0.911000 180 177 172
0.196149 -0.162660 0.911000 181 177 172
0.196149 -0.161065 0.911000 181 180 173
0.196149 -0.159471 0.911000 181 180 174
0.196149 -0.157876 0.911000 179 180 175
0.196149 -0.156281 0.911000 177 178 177
0.196149 -0.154686 0.911000 178 178 178
0.196149 -0.153092 0.911000 180 178 174
0.196149 -0.151497 0.911000 180 180 171
0.195718 -0.149573 0.909000 181 180 169
0.195718 -0.147982 0.909000 182 179 167
0.195718 -0.146391 0.909000 183 179 173
0.195718 -0.144800 0.909000 182 180 180
0.195718 -0.143208 0.909000 182 180 177
0.195718 -0.141617 0.909000 181 181 175
0.195718 -0.140026 0.909000 181 181 177
0.195718 -0.138435 0.909000 182 182 180
0.195718 -0.136844 0.909000 183 182 181
0.195288 -0.134955 0.907000 182 183 182
0.195288 -0.133367 0.907000 182 182 176
0.195288 -0.131779 0.907000 182 183 171
0.195288 -0.130192 0.907000 183 182 174
0.195288 -0.128604 0.907000 183 183 178
0.195288 -0.127016 0.907000 183 183 179
0.195288 -0.125429 0.907000 183 185 179
0.194642 -0.123431 0.904000 184 184 183
0.194642 -0.121849 0.904000 184 183 186
0.194642 -0.120266 0.904000 185 183 185
0.195288 -0.119078 0.907000 185 184 184
0.195288 -0.117490 0.907000 185 184 186
0.195288 -0.115902 0.907000 184 183 187
0.195288 -0.114315 0.907000 184 185 183
0.194642 -0.112354 0.904000 182 187 179
0.194642 -0.110772 0.904000 181 186 180
0.194642 -0.109189 0.904000 183 185 181
0.194642 -0.107607 0.904000 185 185 180
0.194642 -0.106024 0.904000 185 187 180
0.194642 -0.104442 0.904000 185 187 185
0.194642 -0.102859 0.904000 185 187 190
0.194642 -0.101277 0.904000 186 187 188
0.194642 -0.099694 0.904000 187 189 187
0.194642 -0.098112 0.904000 188 188 191
0.194642 -0.096530 0.904000 188 189 196
0.194642 -0.094947 0.904000 189 188 192
0.194642 -0.093365 0.904000 190 188 189
0.194642 -0.091782 0.904000 192 188 187
0.194642 -0.090200 0.904000 189 189 186
0.194642 -0.088617 0.904000 187 187 187
0.194642 -0.087035 0.904000 186 188 187
0.194211 -0.085263 0.902000 185 187 185
0.194211 -0.083684 0.902000 185 192 184
0.194211 -0.082105 0.902000 186 191 186
0.194642 -0.080705 0.904000 190 193 188
0.194211 -0.078948 0.902000 194 190 188
0.194211 -0.077369 0.902000 190 188 188
0.194211 -0.075790 0.902000 186 189 188
0.194211 -0.074211 0.902000 188 192 188
0.194211 -0.072632 0.902000 190 190 186
0.194211 -0.071053 0.902000 190 191 185
0.194211 -0.069474 0.902000 191 190 187
0.194211 -0.067895 0.902000 191 191 188
0.194211 -0.066316 0.902000 191 191 186
0.194211 -0.064737 0.902000 192 192 185
0.194211 -0.063158 0.902000 194 191 187
0.194211 -0.061579 0.902000 192 191 189
0.194211 -0.060000 0.902000 191 192 189
0.194211 -0.058421 0.902000 189 194 190
0.194211 -0.056842 0.902000 188 193 189
0.193565 -0.055079 0.899000 189 193 189
0.193565 -0.053506 0.899000 190 192 191
0.193565 -0.051932 0.899000 190 193 192
0.193565 -0.050358 0.899000 191 193 190
0.193134 -0.048676 0.897000 190 194 188
0.193134 -0.047106 0.897000 190 193 189
0.193134 -0.045536 0.897000 191 192 191
0.193134 -0.043966 0.897000 192 192 189
0.193134 -0.042395 0.897000 192 192 187
0.193565 -0.040916 0.899000 192 193 189
0.193565 -0.039342 0.899000 191 194 192
0.193134 -0.037685 0.897000 191 193 192
0.193134 -0.036115 0.897000 191 193 192
0.193134 -0.034544 0.897000 192 194 195
0.193134 -0.032974 0.897000 193 194 198
0.193134 -0.031404 0.897000 195 195 192
0.193134 -0.029834 0.897000 195 195 187
0.193134 -0.028264 0.897000 195 195 194
0.193134 -0.026693 0.897000 195 196 201
0.193134 -0.025123 0.897000 195 196 195
0.192704 -0.023500 0.895000 195 198 190
0.192704 -0.021934 0.895000 196 196 192
0.192704 -0.020367 0.895000 196 196 194
0.193134 -0.018842 0.897000 196 196 193
0.193134 -0.017272 0.897000 196 196 192
0.193134 -0.015702 0.897000 197 199 197
0.193134 -0.014132 0.897000 196 201 202
0.192704 -0.012534 0.895000 196 199 196
0.192704 -0.010967 0.895000 197 198 189
0.192704 -0.009400 0.895000 198 197 192
0.192704 -0.007833 0.895000 194 198 195
0.192704 -0.006267 0.895000 191 199 197
0.192704 -0.004700 0.895000 194 200 199
0.192704 -0.003133 0.895000 197 199 195
0.192704 -0.001567 0.895000 198 201 192
0.192058 -0.000000 0.892000 200 200 194
0.192058 0.001561 0.892000 201 200 195
0.192058 0.003123 0.892000 202 199 198
0.191627 0.004674 0.890000 201 200 200
0.191627 0.006232 0.890000 200 200 199
0.191627 0.007790 0.890000 199 201 199
0.191627 0.009348 0.890000 199 200 199
0.191627 0.010906 0.890000 199 201 199
0.191627 0.012464 0.890000 200 201 201
0.191627 0.014022 0.890000 199 205 202
0.191627 0.015579 0.890000 199 202 201
0.191627 0.017137 0.890000 199 201 200
0.191627 0.018695 0.890000 199 201 199
0.191627 0.020253 0.890000 199 202 198
0.191627 0.021811 0.890000 200 202 199
0.191197 0.023317 0.888000 199 201 200
0.191627 0.024927 0.890000 199 202 200
0.191197 0.026426 0.888000 198 204 200
0.191627 0.028043 0.890000 198 203 199
0.191627 0.029601 0.890000 199 203 197
0.191627 0.031159 0.890000 201 202 199
0.191627 0.032717 0.890000 201 201 201
0.191627 0.034275 0.890000 201 201 202
0.191197 0.035752 0.888000 201 202 202
0.191197 0.037307 0.888000 201 203 203
0.191197 0.038861 0.888000 201 205 204
0.191197 0.040416 0.888000 201 203 202
0.191197 0.041970 0.888000 202 201 200
0.191197 0.043524 0.888000 203 202 202
0.191197 0.045079 0.888000 203 203 204
0.191197 0.046633 0.888000 203 203 202
0.190766 0.048079 0.886000 202 204 201
0.190766 0.049630 0.886000 202 203 201
0.190766 0.051181 0.886000 202 201 202
0.190766 0.052732 0.886000 202 202 204
0.190766 0.054283 0.886000 202 203 206
0.190766 0.055834 0.886000 202 203 204
0.190766 0.057385 0.886000 203 205 203
0.190766 0.058936 0.886000 205 204 202
0.190766 0.060487 0.886000 203 205 202
0.190766 0.062038 0.886000 202 205 202
0.190766 0.063589 0.886000 203 206 202
0.190120 0.064919 0.883000 205 205 202
0.190120 0.066465 0.883000 204 204 203
0.190120 0.068010 0.883000 203 205 205
0.190120 0.069556 0.883000 203 206 206
0.190120 0.071102 0.883000 203 205 204
0.190120 0.072648 0.883000 201 205 201
0.190120 0.074193 0.883000 200 205 197
0.190120 0.075739 0.883000 203 205 194
0.190120 0.077285 0.883000 206 206 200
0.190766 0.079098 0.886000 206 207 207
0.190766 0.080649 0.886000 206 206 205
0.190120 0.081922 0.883000 206 206 203
0.190766 0.083751 0.886000 206 207 205
0.190120 0.085013 0.883000 206 207 208
0.190120 0.086559 0.883000 206 207 205
0.189689 0.087905 0.881000 207 208 202
0.189689 0.089447 0.881000 209 207 204
0.189259 0.090783 0.879000 207 207 207
0.189259 0.092321 0.879000 205 207 202
0.189259 0.093860 0.879000 204 208 198
0.189259 0.095399 0.879000 203 208 200
0.189259 0.096937 0.879000 204 208 203
0.189259 0.098476 0.879000 206 207 203
0.189259 0.100015 0.879000 205 207 204
0.189259 0.101554 0.879000 204 206 202
0.189259 0.103092 0.879000 205 208 201
0.189259 0.104631 0.879000 206 209 202
0.189259 0.106170 0.879000 207 209 203
0.189259 0.107708 0.879000 209 208 203
0.189259 0.109247 0.879000 207 206 204
0.189259 0.110786 0.879000 205 206 203
0.189259 0.112324 0.879000 205 209 203
0.188828 0.113604 0.877000 206 208 203
0.188828 0.115139 0.877000 204 209 204
0.188828 0.116674 0.877000 203 207 203
0.188828 0.118210 0.877000 204 206 202
0.188828 0.119745 0.877000 206 207 202
0.188828 0.121280 0.877000 206 207 203
0.188828 0.122815 0.877000 206 207 200
0.188828 0.124350 0.877000 206 208 198
0.188182 0.125455 0.874000 207 207 201
0.188182 0.126985 0.874000 207 206 205
0.188182 0.128515 0.874000 208 208 207
0.188182 0.130045 0.874000 208 211 209
0.187752 0.131274 0.872000 208 210 207
0.187752 0.132800 0.872000 207 209 206
0.187752 0.134326 0.872000 206 209 205
0.187752 0.135853 0.872000 207 209 204
0.187752 0.137379 0.872000 209 209 205
0.187752 0.138906 0.872000 208 210 206
0.187321 0.140110 0.870000 208 209 206
0.187752 0.141959 0.872000 211 209 206
0.187321 0.143156 0.870000 214 209 208
0.187321 0.144679 0.870000 211 210 209
0.187321 0.146202 0.870000 209 209 205
0.187321 0.147725 0.870000 209 209 201
0.187321 0.149248 0.870000 210 209 204
0.187752 0.151117 0.872000 210 209 207
0.187752 0.152644 0.872000 210 207 207
0.187752 0.154170 0.872000 209 205 207
0.187321 0.155339 0.870000 209 206 209
0.187321 0.156862 0.870000 208 211 212
0.187321 0.158385 0.870000 208 209 210
0.187321 0.159908 0.870000 207 208 207
0.187321 0.161431 0.870000 207 208 204
0.187321 0.162954 0.870000 208 207 202
0.187321 0.164477 0.870000 209 208 205
0.187321 0.166000 0.870000 210 211 208
0.187321 0.167523 0.870000 211 210 208
0.187321 0.169046 0.870000 210 209 208
0.187321 0.170569 0.870000 210 209 210
0.187321 0.172092 0.870000 211 211 213
0.186890 0.173216 0.868000 212 211 211
0.186890 0.174735 0.868000 211 211 209
0.186890 0.176254 0.868000 211 211 209
0.186890 0.177774 0.868000 210 211 209
0.186890 0.179293 0.868000 209 210 209
0.186890 0.180813 0.868000 210 210 209
0.186890 0.182332 0.868000 212 210 207
0.186890 0.183852 0.868000 211 211 206
0.186890 0.185371 0.868000 211 212 208
0.186890 0.186890 0.868000 210 213 209
0.186675 0.188193 0.867000 210 212 212
0.186675 0.189710 0.867000 211 215 214
0.186675 0.191228 0.867000 213 211 209
0.186675 0.192746 0.867000 212 210 205
0.186675 0.194264 0.867000 211 210 206
0.186675 0.195781 0.867000 211 210 207
0.186460 0.197071 0.866000 212 212 205
0.186460 0.198587 0.866000 212 221 204
0.186460 0.200103 0.866000 212 214 205
0.186460 0.201619 0.866000 211 210 207
0.186460 0.203135 0.866000 210 210 206
0.186460 0.204651 0.866000 209 211 206
0.186460 0.206167 0.866000 209 211 210
0.186460 0.207683 0.866000 210 210 214
0.186460 0.209199 0.866000 211 209 210
0.185814 0.209985 0.863000 212 210 206
0.186460 0.212231 0.866000 214 210 207
0.186460 0.213747 0.866000 213 211 207
0.186460 0.215263 0.866000 212 210 208
0.186460 0.216778 0.866000 213 210 209
0.186460 0.218294 0.866000 214 210 207
0.186460 0.219810 0.866000 212 211 204
0.186460 0.221326 0.866000 210 210 204
0.186460 0.222842 0.866000 212 211 205
0.186460 0.224358 0.866000 215 213 206
0.186460 0.225874 0.866000 213 217 207
0.185814 0.226602 0.863000 211 212 208
0.185814 0.228113 0.863000 211 213 209
0.185814 0.229624 0.863000 211 213 208
0.185814 0.231134 0.863000 211 213 207
0.185383 0.232106 0.861000 212 212 211
0.185383 0.233613 0.861000 211 213 215
0.185383 0.235120 0.861000 211 212 213
0.185383 0.236627 0.861000 211 212 211
0.185383 0.238135 0.861000 212 213 211
0.185383 0.239642 0.861000 211 213 212
0.185383 0.241149 0.861000 211 211 212
0.184953 0.242092 0.859000 209 209 211
0.184953 0.243596 0.859000 208 210 212
0.184953 0.245100 0.859000 211 213 213
0.184953 0.246603 0.859000 215 212 209
0.184953 0.248107 0.859000 214 211 205
0.184953 0.249611 0.859000 213 212 207
0.184953 0.251115 0.859000 212 211 210
0.184953 0.252618 0.859000 212 211 213
0.185383 0.254714 0.861000 214 212 216
0.185383 0.256221 0.861000 216 212 214
0.185383 0.257728 0.861000 213 212 213
0.185383 0.259235 0.861000 211 212 212
0.185383 0.260742 0.861000 212 213 212
0.185383 0.262249 0.861000 213 212 211
0.185383 0.263757 0.861000 212 210 210
0.184953 0.264648 0.859000 211 210 210
0.184953 0.266151 0.859000 211 214 209
0.184953 0.267655 0.859000 211 213 210
0.184953 0.269159 0.859000 211 213 212
0.184522 0.270032 0.857000 212 211 209
0.184522 0.271532 0.857000 209 210 207
0.184522 0.273033 0.857000 207 210 206
0.184522 0.274533 0.857000 210 213 205
0.184522 0.276033 0.857000 214 212 202
0.184522 0.277533 0.857000 212 210 200
0.184522 0.279033 0.857000 211 211 204
0.184522 0.280533 0.857000 212 213 208
0.184522 0.282034 0.857000 213 211 206
0.184091 0.282872 0.855000 212 210 203
0.184091 0.284369 0.855000 211 212 205
0.184091 0.285865 0.855000 211 214 207
0.184091 0.287362 0.855000 211 213 210
0.184091 0.288859 0.855000 212 213 213
0.184091 0.290356 0.855000 214 215 211
0.184522 0.292535 0.857000 211 215 210
0.184091 0.293349 0.855000 209 212 210
0.184091 0.294846 0.855000 210 212 210
0.184091 0.296342 0.855000 211 211 210
0.184091 0.297839 0.855000 211 211 211
0.183661 0.298635 0.853000 211 209 208
0.184091 0.300832 0.855000 211 206 206
0.184091 0.302329 0.855000 211 207 208
0.183661 0.303115 0.853000 211 212 211
0.183661 0.304608 0.853000 212 210 209
0.183661 0.306101 0.853000 210 208 207
0.183661 0.307594 0.853000 209 208 208
0.183661 0.309088 0.853000 209 208 209
0.183661 0.310581 0.853000 210 208 210
0.183230 0.311342 0.851000 208 208 212
0.183230 0.312832 0.851000 207 208 210
0.183230 0.314322 0.851000 208 208 208
0.183230 0.315811 0.851000 210 207 209
0.183661 0.318047 0.853000 211 208 211
0.183661 0.319540 0.853000 212 208 211
0.183661 0.321033 0.853000 210 209 212
0.183661 0.322526 0.853000 209 207 211
0.183661 0.324019 0.853000 207 207 210
0.183661 0.325513 0.853000 206 207 209
0.183661 0.327006 0.853000 208 208 209
0.183661 0.328499 0.853000 211 209 209
0.183230 0.329218 0.851000 211 207 210
0.183230 0.330708 0.851000 212 211 210
0.183230 0.332198 0.851000 211 216 211
0.183230 0.333687 0.851000 210 210 210
0.182799 0.334389 0.849000 211 211 210
0.182799 0.335875 0.849000 212 209 208
0.182799 0.337362 0.849000 210 211 207
0.182799 0.338848 0.849000 208 207 207
0.182799 0.340334 0.849000 208 210 207
0.182799 0.341820 0.849000 209 208 206
0.182799 0.343306 0.849000 209 208 206
0.182799 0.344793 0.849000 210 208 203
0.202085 -0.343870 0.931000 155 148 147
0.202085 -0.342240 0.931000 155 149 153
0.202085 -0.340611 0.931000 156 150 159
0.202519 -0.339709 0.933000 157 157 143
0.202519 -0.338076 0.933000 157 153 127
0.202519 -0.336443 0.933000 158 149 141
0.202519 -0.334809 0.933000 157 150 156
0.202519 -0.333176 0.933000 156 151 151
0.202519 -0.331543 0.933000 156 150 146
0.202519 -0.329910 0.933000 157 150 150
0.202085 -0.327573 0.931000 158 151 155
0.202519 -0.326643 0.933000 159 152 150
0.202519 -0.325010 0.933000 159 153 145
0.202519 -0.323377 0.933000 160 153 147
0.202519 -0.321744 0.933000 157 154 150
0.202519 -0.320110 0.933000 155 154 152
0.202085 -0.317795 0.931000 156 155 154
0.202085 -0.316165 0.931000 158 154 161
0.202085 -0.314535 0.931000 159 155 168
0.202085 -0.312905 0.931000 160 158 160
0.202085 -0.311276 0.931000 160 156 153
0.202519 -0.310311 0.933000 161 154 154
0.202085 -0.308016 0.931000 160 155 156
0.202519 -0.307045 0.933000 160 155 164
0.202519 -0.305411 0.933000 160 155 172
0.202519 -0.303778 0.933000 160 155 164
0.202085 -0.301497 0.931000 161 156 157
0.201434 -0.298901 0.928000 162 157 157
0.201434 -0.297277 0.928000 163 158 158
0.200999 -0.295015 0.926000 165 159 155
0.200999 -0.293394 0.926000 164 157 152
0.200999 -0.291773 0.926000 163 155 152
0.200999 -0.290152 0.926000 164 157 152
0.200999 -0.288531 0.926000 166 158 152
0.200999 -0.286910 0.926000 164 158 152
0.200999 -0.285289 0.926000 162 160 154
0.200999 -0.283669 0.926000 164 159 156
0.200999 -0.282048 0.926000 167 159 162
0.200999 -0.280427 0.926000 165 158 169
0.200999 -0.278806 0.926000 163 158 163
0.200565 -0.276586 0.924000 164 160 157
0.200999 -0.275564 0.926000 166 161 157
0.200999 -0.273943 0.926000 166 160 158
0.200565 -0.271734 0.924000 167 158 161
0.200565 -0.270116 0.924000 166 158 165
0.200565 -0.268499 0.924000 165 158 170
0.200999 -0.267459 0.926000 166 160 176
0.200565 -0.265264 0.924000 167 161 171
0.200565 -0.263646 0.924000 165 162 167
0.200565 -0.262029 0.924000 163 165 172
0.200348 -0.260130 0.923000 165 163 178
0.200348 -0.258514 0.923000 168 160 172
0.200348 -0.256898 0.923000 168 161 166
0.200348 -0.255282 0.923000 168 163 161
0.200348 -0.253667 0.923000 167 163 157
0.200348 -0.252051 0.923000 167 166 157
0.200348 -0.250435 0.923000 168 164 157
0.200348 -0.248820 0.923000 170 163 162
0.200348 -0.247204 0.923000 169 165 168
0.199914 -0.245056 0.921000 169 166 166
0.200348 -0.243972 0.923000 167 165 165
0.200348 -0.242357 0.923000 166 165 162
0.199914 -0.240219 0.921000 168 166 159
0.199914 -0.238607 0.921000 171 168 160
0.199914 -0.236995 0.921000 171 165 161
0.199914 -0.235383 0.921000 171 164 163
0.199914 -0.233771 0.921000 173 164 165
0.199914 -0.232158 0.921000 175 163 166
0.199914 -0.230546 0.921000 174 165 167
0.199914 -0.228934 0.921000 173 166 169
0.199914 -0.227322 0.921000 172 168 171
0.199914 -0.225709 0.921000 171 169 176
0.199914 -0.224097 0.921000 171 169 182
0.199914 -0.222485 0.921000 172 169 172
0.199914 -0.220873 0.921000 172 168 162
0.199914 -0.219261 0.921000 172 168 165
0.199914 -0.217648 0.921000 173 168 168
0.199914 -0.216036 0.921000 173 168 169
0.199480 -0.213958 0.919000 174 168 171
0.198829 -0.211656 0.916000 174 169 170
0.198829 -0.210053 0.916000 174 171 170
0.198829 -0.208450 0.916000 173 174 173
0.198829 -0.206846 0.916000 173 173 177
0.198829 -0.205243 0.916000 174 173 171
0.198829 -0.203639 0.916000 175 172 165
0.198829 -0.202036 0.916000 176 172 168
0.198829 -0.200432 0.916000 176 171 172
0.198829 -0.198829 0.916000 176 171 171
0.198829 -0.197225 0.916000 176 170 170
0.198829 -0.195622 0.916000 176 171 162
0.198829 -0.194018 0.916000 175 171 155
0.198829 -0.192415 0.916000 175 171 163
0.198829 -0.190811 0.916000 176 173 171
0.198829 -0.189208 0.916000 177 175 173
0.198829 -0.187605 0.916000 178 175 175
0.198829 -0.186001 0.916000 178 175 177
0.198829 -0.184398 0.916000 178 173 179
0.198829 -0.182794 0.916000 177 173 176
0.198395 -0.180795 0.914000 177 176 174
0.198395 -0.179195 0.914000 178 178 178
0.198829 -0.177984 0.916000 177 178 183
0.198395 -0.175995 0.914000 176 179 167
0.198395 -0.174395 0.914000 178 177 152
0.198395 -0.172795 0.914000 181 177 161
0.198829 -0.171570 0.916000 180 178 170
0.198829 -0.169967 0.916000 179 179 171
0.198829 -0.168363 0.916000 179 178 173
0.198829 -0.166760 0.916000 180 177 173
0.198395 -0.164796 0.914000 180 177 173
0.198395 -0.163196 0.914000 181 177 173
0.198395 -0.161596 0.914000 180 178 174
0.197743 -0.159471 0.911000 180 179 175
0.197743 -0.157876 0.911000 179 178 176
0.197743 -0.156281 0.911000 178 178 175
0.197743 -0.154686 0.911000 179 178 174
0.197743 -0.153092 0.911000 180 177 173
0.197743 -0.151497 0.911000 180 179 172
0.197743 -0.149902 0.911000 181 181 172
0.197309 -0.147982 0.909000 182 179 173
0.197309 -0.146391 0.909000 182 179 179
0.197743 -0.145118 0.911000 182 180 186
0.197309 -0.143208 0.909000 182 181 183
0.197309 -0.141617 0.909000 181 181 180
0.197309 -0.140026 0.909000 180 183 179
0.197309 -0.138435 0.909000 183 183 179
0.197309 -0.136844 0.909000 185 183 182
0.197309 -0.135252 0.909000 183 182 186
0.197309 -0.133661 0.909000 180 181 183
0.197309 -0.132070 0.909000 181 182 181
0.197309 -0.130479 0.909000 182 182 181
0.197309 -0.128888 0.909000 183 183 181
0.196875 -0.127016 0.907000 184 184 181
0.196875 -0.125429 0.907000 184 183 181
0.196875 -0.123841 0.907000 184 183 185
0.196875 -0.122253 0.907000 184 183 190
0.196875 -0.120665 0.907000 184 183 188
0.196875 -0.119078 0.907000 184 184 187
0.196875 -0.117490 0.907000 184 186 190
0.196875 -0.115902 0.907000 184 184 194
0.196875 -0.114315 0.907000 184 184 185
0.196875 -0.112727 0.907000 184 185 177
0.196224 -0.110772 0.904000 183 186 179
0.196875 -0.109552 0.907000 184 185 182
0.196224 -0.107607 0.904000 185 185 182
0.196875 -0.106376 0.907000 185 185 183
0.196224 -0.104442 0.904000 185 186 187
0.196224 -0.102859 0.904000 184 187 192
0.196224 -0.101277 0.904000 184 188 190
0.196875 -0.100025 0.907000 187 188 189
0.196875 -0.098438 0.907000 190 188 197
0.196875 -0.096850 0.907000 189 188 205
0.196875 -0.095262 0.907000 188 189 198
0.196875 -0.093674 0.907000 189 188 191
0.196875 -0.092087 0.907000 190 188 189
0.196875 -0.090499 0.907000 188 188 188
0.196224 -0.088617 0.904000 187 187 191
0.196224 -0.087035 0.904000 186 188 195
0.196224 -0.085452 0.904000 185 190 190
0.196224 -0.083870 0.904000 186 191 186
0.196224 -0.082287 0.904000 187 191 191
0.196224 -0.080705 0.904000 189 191 197
0.196224 -0.079123 0.904000 192 190 192
0.196224 -0.077540 0.904000 189 189 188
0.196224 -0.075958 0.904000 187 191 185
0.196224 -0.074375 0.904000 188 190 183
0.196224 -0.072793 0.904000 190 189 178
0.196224 -0.071210 0.904000 190 188 174
0.196224 -0.069628 0.904000 190 188 180
0.196224 -0.068045 0.904000 190 189 187
0.195790 -0.066316 0.902000 190 189 187
0.196224 -0.064881 0.904000 190 190 187
0.196224 -0.063298 0.904000 191 191 187
0.195790 -0.061579 0.902000 190 191 188
0.195790 -0.060000 0.902000 190 192 188
0.195790 -0.058421 0.902000 189 192 188
0.195790 -0.056842 0.902000 188 192 189
0.195790 -0.055263 0.902000 189 192 190
0.195790 -0.053684 0.902000 191 193 193
0.195139 -0.051932 0.899000 191 192 196
0.195139 -0.050358 0.899000 191 193 194
0.195139 -0.048785 0.899000 191 193 192
0.195139 -0.047211 0.899000 191 195 192
0.195139 -0.045637 0.899000 190 193 193
0.195139 -0.044064 0.899000 190 193 191
0.195139 -0.042490 0.899000 191 194 189
0.195139 -0.040916 0.899000 193 196 190
0.195139 -0.039342 0.899000 192 194 192
0.195139 -0.037769 0.899000 191 193 193
0.195139 -0.036195 0.899000 192 194 194
0.194705 -0.034544 0.897000 192 196 197
0.194705 -0.032974 0.897000 193 194 201
0.194705 -0.031404 0.897000 194 194 193
0.194705 -0.029834 0.897000 194 194 185
0.194705 -0.028264 0.897000 195 195 197
0.194705 -0.026693 0.897000 195 195 209
0.194705 -0.025123 0.897000 195 196 199
0.194705 -0.023553 0.897000 196 196 189
0.194705 -0.021983 0.897000 196 196 191
0.194705 -0.020413 0.897000 196 195 193
0.194705 -0.018842 0.897000 196 196 190
0.194705 -0.017272 0.897000 197 196 188
0.194705 -0.015702 0.897000 198 199 198
0.194705 -0.014132 0.897000 197 199 209
0.194705 -0.012562 0.897000 196 199 200
0.194270 -0.010967 0.895000 197 198 191
0.194270 -0.009400 0.895000 197 198 193
0.194270 -0.007833 0.895000 195 198 196
0.194270 -0.006267 0.895000 194 199 198
0.194270 -0.004700 0.895000 196 199 201
0.194270 -0.003133 0.895000 198 199 199
0.194270 -0.001567 0.895000 198 200 197
0.194270 -0.000000 0.895000 199 202 196
0.194270 0.001567 0.895000 199 200 196
0.193619 0.003123 0.892000 200 199 195
0.193619 0.004684 0.892000 200 200 195
0.193619 0.006246 0.892000 200 201 197
0.193619 0.007807 0.892000 200 200 199
0.193185 0.009348 0.890000 200 199 199
0.193619 0.010930 0.892000 199 200 199
0.193619 0.012492 0.892000 199 199 199
0.193619 0.014053 0.892000 199 201 200
0.193619 0.015614 0.892000 200 202 199
0.193619 0.017176 0.892000 201 201 199
0.193185 0.018695 0.890000 202 201 198
0.193619 0.020299 0.892000 201 202 197
0.193619 0.021860 0.892000 201 204 198
0.193185 0.023369 0.890000 200 202 199
0.193619 0.024983 0.892000 199 201 198
0.193185 0.026485 0.890000 199 203 198
0.193619 0.028106 0.892000 199 206 196
0.193619 0.029668 0.892000 200 203 194
0.193619 0.031229 0.892000 201 203 197
0.193185 0.032717 0.890000 201 202 201
0.193185 0.034275 0.890000 202 201 201
0.193185 0.035833 0.890000 200 202 201
0.193185 0.037391 0.890000 199 203 201
0.193185 0.038949 0.890000 200 203 202
0.193185 0.040507 0.890000 201 202 200
0.192751 0.041970 0.888000 202 201 199
0.192751 0.043524 0.888000 203 202 200
0.192751 0.045079 0.888000 203 202 201
0.192751 0.046633 0.888000 204 203 201
0.192317 0.048079 0.886000 203 203 201
0.192317 0.049630 0.886000 202 203 203
0.192317 0.051181 0.886000 202 203 205
0.192317 0.052732 0.886000 201 204 208
0.192317 0.054283 0.886000 201 203 211
0.192317 0.055834 0.886000 202 203 208
0.192317 0.057385 0.886000 203 204 205
0.192317 0.058936 0.886000 204 204 206
0.192317 0.060487 0.886000 203 205 207
0.192317 0.062038 0.886000 202 206 205
0.192317 0.063589 0.886000 204 205 203
0.192317 0.065140 0.886000 207 205 203
0.192317 0.066691 0.886000 205 204 203
0.192317 0.068242 0.886000 203 206 203
0.192317 0.069792 0.886000 204 206 204
0.192317 0.071343 0.886000 205 206 203
0.192317 0.072894 0.886000 203 205 203
0.192317 0.074445 0.886000 202 206 203
0.192317 0.075996 0.886000 204 205 203
0.192317 0.077547 0.886000 207 207 203
0.192317 0.079098 0.886000 206 206 204
0.192317 0.080649 0.886000 205 206 204
0.192317 0.082200 0.886000 205 205 204
0.192317 0.083751 0.886000 205 206 208
0.192317 0.085302 0.886000 205 207 212
0.192317 0.086853 0.886000 205 209 209
0.192317 0.088404 0.886000 206 208 206
0.191666 0.089650 0.883000 206 208 209
0.191666 0.091196 0.883000 205 207 213
0.191232 0.092531 0.881000 205 207 208
0.191666 0.094287 0.883000 204 207 203
0.191232 0.095616 0.881000 204 209 204
0.191232 0.097158 0.881000 205 208 205
0.191232 0.098700 0.881000 206 209 208
0.191232 0.100242 0.881000 205 207 211
0.191232 0.101785 0.881000 205 207 207
0.191232 0.103327 0.881000 205 208 204
0.190798 0.104631 0.879000 205 210 204
0.190798 0.106170 0.879000 206 209 204
0.190798 0.107708 0.879000 206 209 203
0.190798 0.109247 0.879000 206 207 203
0.190798 0.110786 0.879000 205 207 197
0.190798 0.112324 0.879000 205 207 191
0.190798 0.113863 0.879000 206 207 197
0.190363 0.115139 0.877000 205 208 203
0.190363 0.116674 0.877000 204 207 203
0.190363 0.118210 0.877000 205 207 204
0.190363 0.119745 0.877000 206 209 204
0.190363 0.121280 0.877000 206 207 205
0.190363 0.122815 0.877000 206 207 205
0.190363 0.124350 0.877000 207 207 206
0.190363 0.125885 0.877000 208 207 206
0.190363 0.127421 0.877000 208 206 206
0.190363 0.128956 0.877000 208 206 208
0.189712 0.130045 0.874000 208 208 210
0.189712 0.131575 0.874000 208 209 208
0.189712 0.133105 0.874000 207 210 206
0.189712 0.134634 0.874000 207 212 205
0.189712 0.136164 0.874000 209 210 204
0.189712 0.137694 0.874000 211 210 209
0.189278 0.138906 0.872000 209 209 214
0.189278 0.140432 0.872000 208 208 211
0.189278 0.141959 0.872000 210 209 208
0.189278 0.143485 0.872000 212 211 207
0.189278 0.145011 0.872000 210 210 207
0.189278 0.146538 0.872000 208 210 202
