ply
format ascii 1.0
element vertex 1233
property float x
property float y
property float z
property uchar red
property uchar green
property uchar blue
end_header
-0.514815 0.280808 1.114000 220 237 218
-0.513429 0.281997 1.111000 221 220 220
-0.513429 0.283942 1.111000 223 245 223
-0.511580 0.286795 1.107000 224 246 228
-0.511580 0.288733 1.107000 224 226 229
-0.513429 0.291721 1.111000 225 248 229
-0.514815 0.294459 1.114000 226 228 229
-0.511580 0.294546 1.107000 227 254 232
-0.511580 0.296484 1.107000 225 230 236
-0.511580 0.298422 1.107000 224 254 234
-0.511580 0.300360 1.107000 224 230 232
-0.511580 0.302297 1.107000 225 254 234
-0.513429 0.305335 1.111000 224 225 236
-0.513429 0.307279 1.111000 224 254 245
-0.514815 0.310059 1.114000 226 222 254
-0.514815 0.312009 1.114000 228 254 252
-0.514815 0.313959 1.114000 229 227 251
-0.513429 0.317003 1.111000 232 228 244
-0.513429 0.318948 1.111000 232 254 246
-0.513429 0.320893 1.111000 232 225 248
-0.511580 0.321675 1.107000 232 254 251
-0.513429 0.324783 1.111000 234 233 254
-0.513429 0.326727 1.111000 237 254 254
-0.513429 0.328672 1.111000 236 233 254
-0.513429 0.330617 1.111000 236 254 254
-0.513429 0.332562 1.111000 237 239 254
-0.513429 0.334507 1.111000 239 254 253
-0.513429 0.336451 1.111000 240 241 252
-0.513429 0.338396 1.111000 240 254 253
-0.513429 0.340341 1.111000 241 239 254
-0.513429 0.342286 1.111000 242 254 254
-0.511580 0.342991 1.107000 243 241 254
-0.513429 0.346175 1.111000 244 254 254
-0.513429 0.348120 1.111000 245 245 254
-0.513429 0.350065 1.111000 246 254 251
-0.513429 0.352010 1.111000 246 245 248
-0.511580 0.352680 1.107000 246 250 251
-0.511580 0.354618 1.107000 247 248 254
-0.511580 0.356556 1.107000 249 254 250
-0.510194 0.361387 1.104000 245 247 250
-0.510194 0.363320 1.104000 245 245 249
-0.511580 0.366245 1.107000 247 251 248
-0.513429 0.369513 1.111000 248 252 249
-0.511580 0.370121 1.107000 246 249 250
-0.511580 0.372058 1.107000 245 248 250
-0.511580 0.373996 1.107000 243 245 251
-0.513429 0.377292 1.111000 242 240 246
-0.511580 0.377872 1.107000 242 243 241
-0.513429 0.381182 1.111000 241 236 238
-0.511580 0.381747 1.107000 241 243 235
-0.511580 0.383685 1.107000 242 248 235
-0.511580 0.385623 1.107000 240 239 236
-0.511580 0.387561 1.107000 239 228 237
-0.511580 0.389499 1.107000 239 236 238
-0.511580 0.391436 1.107000 239 235 235
-0.511580 0.393374 1.107000 238 235 233
-0.511580 0.395312 1.107000 237 227 234
-0.511580 0.397250 1.107000 237 235 235
-0.511580 0.399188 1.107000 237 233 230
-0.511580 0.401125 1.107000 237 232 226
-0.511580 0.403063 1.107000 237 221 230
-0.513429 0.406464 1.111000 236 230 234
-0.513429 0.408409 1.111000 235 225 232
-0.513429 0.410354 1.111000 235 233 230
-0.513429 0.412299 1.111000 235 234 229
-0.513429 0.414244 1.111000 236 236 228
-0.514815 0.417312 1.114000 237 236 229
-0.513429 0.418133 1.111000 236 233 230
-0.513429 0.420078 1.111000 235 222 226
-0.511580 0.420503 1.107000 236 230 222
-0.511580 0.422441 1.107000 237 224 224
-0.511580 0.424379 1.107000 236 231 226
-0.511580 0.426317 1.107000 235 225 228
-0.511580 0.428255 1.107000 234 230 230
-0.511580 0.430192 1.107000 234 220 229
-0.511580 0.432130 1.107000 232 227 228
-0.511580 0.434068 1.107000 231 215 230
-0.511580 0.436006 1.107000 231 227 232
-0.513429 0.439526 1.111000 231 216 227
-0.513429 0.441471 1.111000 229 224 223
-0.513429 0.443416 1.111000 228 207 219
-0.513429 0.445361 1.111000 227 222 215
-0.513429 0.447305 1.111000 227 217 220
-0.513429 0.449250 1.111000 228 224 225
-0.513429 0.451195 1.111000 228 219 224
-0.513429 0.453140 1.111000 226 223 223
-0.513429 0.455085 1.111000 225 214 218
-0.513429 0.457029 1.111000 225 222 214
-0.824083 -0.661146 1.790000 48 30 20
-0.824083 -0.658013 1.790000 46 30 22
-0.824083 -0.654880 1.790000 49 31 24
-0.824083 -0.651746 1.790000 53 30 28
-0.824083 -0.648613 1.790000 51 29 33
-0.824083 -0.645479 1.790000 50 31 21
-0.824083 -0.642346 1.790000 48 34 9
-0.824083 -0.639213 1.790000 47 34 12
-0.824083 -0.636079 1.790000 48 36 14
-0.824083 -0.632946 1.790000 50 34 16
-0.824083 -0.629812 1.790000 53 29 17
-0.824083 -0.626679 1.790000 56 31 13
-0.824083 -0.623546 1.790000 55 34 9
-0.824083 -0.620412 1.790000 54 32 16
-0.824083 -0.617279 1.790000 54 33 23
-0.824083 -0.614145 1.790000 54 28 25
-0.824083 -0.611012 1.790000 52 23 27
-0.824083 -0.607879 1.790000 51 28 26
-0.824083 -0.604745 1.790000 50 34 26
-0.819939 -0.598587 1.781000 50 33 22
-0.819939 -0.595469 1.781000 51 31 19
-0.824083 -0.595345 1.790000 53 30 18
-0.824083 -0.592212 1.790000 53 33 17
-0.824083 -0.589078 1.790000 54 32 18
-0.824083 -0.585945 1.790000 53 28 19
-0.824083 -0.582811 1.790000 53 28 20
-0.824083 -0.579678 1.790000 53 29 22
-0.824083 -0.576545 1.790000 53 29 26
-0.824083 -0.573411 1.790000 53 30 30
-0.824083 -0.570278 1.790000 54 32 21
-0.819939 -0.564293 1.781000 52 35 12
-0.819939 -0.561175 1.781000 51 35 13
-0.819939 -0.558058 1.781000 53 34 14
-0.819939 -0.554940 1.781000 55 31 27
-0.819939 -0.551822 1.781000 53 30 41
-0.815796 -0.545932 1.772000 51 31 37
-0.815796 -0.542830 1.772000 51 34 32
-0.815796 -0.539728 1.772000 51 33 29
-0.815796 -0.536626 1.772000 51 34 27
-0.819939 -0.536234 1.781000 51 33 31
-0.819939 -0.533117 1.781000 50 32 35
-0.819939 -0.529999 1.781000 50 32 36
-0.819939 -0.526881 1.781000 52 34 37
-0.819939 -0.523764 1.781000 55 33 29
-0.819939 -0.520646 1.781000 54 34 21
-0.819939 -0.517528 1.781000 54 32 24
-0.815796 -0.511811 1.772000 52 32 27
-0.811653 -0.506126 1.763000 50 34 24
-0.811653 -0.503039 1.763000 48 37 20
-0.811653 -0.499953 1.763000 46 35 22
-0.811653 -0.496867 1.763000 50 35 23
-0.811653 -0.493781 1.763000 54 32 22
-0.811653 -0.490695 1.763000 50 34 22
-0.811653 -0.487609 1.763000 46 25 16
-0.811653 -0.484523 1.763000 38 17 10
-0.811653 -0.481437 1.763000 30 20 13
-0.811653 -0.478350 1.763000 38 26 16
-0.811653 -0.475264 1.763000 47 30 20
-0.811653 -0.472178 1.763000 50 33 25
-0.811653 -0.469092 1.763000 53 28 28
-0.811653 -0.466006 1.763000 53 25 30
-0.811653 -0.462920 1.763000 54 25 22
-0.811653 -0.459834 1.763000 58 29 14
-0.811653 -0.456748 1.763000 62 27 29
-0.811653 -0.453661 1.763000 56 25 45
-0.811653 -0.450575 1.763000 51 27 34
-0.807509 -0.445205 1.754000 51 30 23
-0.807509 -0.442134 1.754000 52 33 23
-0.807509 -0.439064 1.754000 52 33 23
-0.811653 -0.438231 1.763000 53 30 27
-0.811653 -0.435145 1.763000 54 32 31
-0.811653 -0.432058 1.763000 55 32 23
-0.811653 -0.428972 1.763000 55 35 15
-0.811653 -0.425886 1.763000 55 35 20
-0.811653 -0.422800 1.763000 53 39 25
-0.811653 -0.419714 1.763000 52 37 20
-0.811653 -0.416628 1.763000 53 36 15
-0.811653 -0.413542 1.763000 54 35 14
-0.811653 -0.410456 1.763000 53 36 14
-0.811653 -0.407369 1.763000 53 36 18
-0.811653 -0.404283 1.763000 52 31 23
-0.811653 -0.401197 1.763000 51 31 15
-0.811653 -0.398111 1.763000 49 33 8
-0.811653 -0.395025 1.763000 47 34 20
-0.811653 -0.391939 1.763000 50 34 33
-0.811653 -0.388853 1.763000 53 31 23
-0.811653 -0.385766 1.763000 53 34 13
-0.807509 -0.380727 1.754000 54 34 21
-0.807509 -0.377656 1.754000 49 34 29
-0.807509 -0.374586 1.754000 45 34 23
-0.807509 -0.371516 1.754000 49 35 16
-0.807509 -0.368445 1.754000 53 31 15
-0.807509 -0.365375 1.754000 52 28 15
-0.807509 -0.362304 1.754000 51 28 12
-0.807509 -0.359234 1.754000 50 28 10
-0.807509 -0.356164 1.754000 50 32 26
-0.807509 -0.353093 1.754000 50 37 42
-0.807509 -0.350023 1.754000 50 30 35
-0.807509 -0.346953 1.754000 50 26 28
-0.807509 -0.343882 1.754000 50 30 32
-0.807509 -0.340812 1.754000 52 34 37
-0.807509 -0.337741 1.754000 54 33 27
-0.807509 -0.334671 1.754000 54 33 18
-0.807509 -0.331601 1.754000 54 34 24
-0.807509 -0.328530 1.754000 51 39 30
-0.807509 -0.325460 1.754000 49 33 19
-0.807509 -0.322390 1.754000 51 28 8
-0.807509 -0.319319 1.754000 53 32 14
-0.807509 -0.316249 1.754000 50 36 20
-0.807509 -0.313178 1.754000 47 34 23
-0.805207 -0.309224 1.749000 51 30 26
-0.805207 -0.306162 1.749000 55 32 28
-0.805207 -0.303101 1.749000 54 30 31
-0.807509 -0.300897 1.754000 54 31 21
-0.807509 -0.297827 1.754000 53 35 11
-0.807509 -0.294756 1.754000 52 34 20
-0.807509 -0.291686 1.754000 51 34 30
-0.807509 -0.288615 1.754000 51 34 37
-0.805207 -0.284731 1.749000 52 34 43
-0.807509 -0.282475 1.754000 53 36 34
-0.803366 -0.277971 1.745000 53 37 25
-0.803366 -0.274916 1.745000 53 34 23
-0.803366 -0.271861 1.745000 50 37 21
-0.803366 -0.268807 1.745000 48 38 21
-0.803366 -0.265752 1.745000 51 42 22
-0.803366 -0.262698 1.745000 55 40 22
-0.803366 -0.259643 1.745000 54 39 23
-0.803366 -0.256588 1.745000 54 37 23
-0.803366 -0.253534 1.745000 53 37 24
-0.799222 -0.249187 1.736000 52 36 21
-0.799222 -0.246148 1.736000 53 35 18
-0.799222 -0.243109 1.736000 54 38 21
-0.799222 -0.240071 1.736000 55 38 25
-0.799222 -0.237032 1.736000 56 37 23
-0.795539 -0.232915 1.728000 54 39 21
-0.799222 -0.230954 1.736000 52 39 19
-0.799222 -0.227915 1.736000 55 39 18
-0.799222 -0.224876 1.736000 58 34 24
-0.795539 -0.220815 1.728000 57 32 29
-0.799222 -0.218798 1.736000 56 34 32
-0.799222 -0.215760 1.736000 57 36 35
-0.799222 -0.212721 1.736000 58 35 42
-0.803366 -0.210769 1.745000 61 35 49
-0.803366 -0.207714 1.745000 65 38 36
-0.803366 -0.204660 1.745000 60 41 23
-0.803366 -0.201605 1.745000 55 43 15
-0.803366 -0.198550 1.745000 61 44 7
-0.803366 -0.195496 1.745000 67 43 25
-0.803366 -0.192441 1.745000 63 42 43
-0.803366 -0.189387 1.745000 59 37 36
-0.799222 -0.185371 1.736000 60 38 30
-0.799222 -0.182332 1.736000 62 41 21
-0.799222 -0.179293 1.736000 58 44 12
-0.799222 -0.176254 1.736000 55 42 15
-0.799222 -0.173215 1.736000 58 39 19
-0.795539 -0.169392 1.728000 62 42 22
-0.795539 -0.166368 1.728000 62 45 26
-0.799222 -0.164099 1.736000 63 44 31
-0.799222 -0.161060 1.736000 62 42 36
-0.799222 -0.158021 1.736000 62 43 32
-0.799222 -0.154982 1.736000 61 44 28
-0.799222 -0.151943 1.736000 60 42 27
-0.803366 -0.149677 1.745000 59 39 26
-0.803366 -0.146622 1.745000 59 43 33
-0.803366 -0.143567 1.745000 56 44 40
-0.803366 -0.140513 1.745000 53 44 29
-0.799222 -0.136749 1.736000 58 46 19
-0.799222 -0.133710 1.736000 63 44 25
-0.799222 -0.130671 1.736000 62 44 31
-0.799222 -0.127632 1.736000 62 43 36
-0.799222 -0.124594 1.736000 62 41 41
-0.803366 -0.122185 1.745000 63 44 34
-0.803366 -0.119130 1.745000 64 46 28
-0.799222 -0.115477 1.736000 65 46 23
-0.803366 -0.113021 1.745000 67 46 18
-0.803366 -0.109966 1.745000 70 44 13
-0.799222 -0.106360 1.736000 67 43 8
-0.795539 -0.102845 1.728000 65 47 16
-0.795539 -0.099820 1.728000 64 50 25
-0.795539 -0.096796 1.728000 64 48 30
-0.795539 -0.093771 1.728000 66 47 35
-0.795539 -0.090746 1.728000 68 47 28
-0.795539 -0.087721 1.728000 67 49 22
-0.795539 -0.084696 1.728000 66 47 19
-0.795539 -0.081671 1.728000 67 49 16
-0.795539 -0.078646 1.728000 69 47 25
-0.791396 -0.075228 1.719000 69 50 34
-0.791396 -0.072219 1.719000 69 50 38
-0.791396 -0.069210 1.719000 68 52 42
-0.791396 -0.066200 1.719000 67 51 37
-0.791396 -0.063191 1.719000 68 50 32
-0.791396 -0.060182 1.719000 69 50 34
-0.795539 -0.057472 1.728000 68 49 36
-0.795539 -0.054448 1.728000 68 47 42
-0.795539 -0.051423 1.728000 70 48 48
-0.791396 -0.048146 1.719000 72 50 41
-0.791396 -0.045137 1.719000 70 50 34
-0.791396 -0.042127 1.719000 69 52 28
-0.791396 -0.039118 1.719000 71 55 22
-0.791396 -0.036109 1.719000 74 52 28
-0.791396 -0.033100 1.719000 75 53 34
-0.791396 -0.030091 1.719000 76 51 36
-0.791396 -0.027082 1.719000 74 50 39
-0.791396 -0.024073 1.719000 73 49 41
-0.791396 -0.021064 1.719000 73 50 43
-0.783569 0.008938 1.702000 68 53 36
-0.779886 0.023723 1.694000 74 51 37
-0.783569 0.026814 1.702000 73 54 37
-0.696097 0.063522 1.512000 78 46 13
-0.511484 0.235322 1.111000 195 139 226
-0.511484 0.237266 1.111000 198 185 226
-0.511484 0.239211 1.111000 201 140 227
-0.512865 0.241807 1.114000 204 188 228
-0.514706 0.244632 1.118000 204 149 229
-0.512865 0.245707 1.114000 205 190 234
-0.512865 0.247657 1.114000 206 154 238
-0.514706 0.250504 1.118000 208 192 235
-0.514706 0.252461 1.118000 210 164 232
-0.512865 0.253507 1.114000 212 199 230
-0.514706 0.256375 1.118000 215 172 228
-0.514706 0.258332 1.118000 218 204 226
-0.514706 0.260289 1.118000 223 185 224
-0.514706 0.262246 1.118000 228 213 225
-0.514706 0.264203 1.118000 229 200 227
-0.514706 0.266160 1.118000 230 220 228
-0.514706 0.268117 1.118000 231 203 229
-0.514706 0.270074 1.118000 232 221 229
-0.514706 0.272031 1.118000 236 206 230
-0.514706 0.273988 1.118000 241 229 229
-0.514706 0.275945 1.118000 243 228 228
-0.512865 0.276908 1.114000 245 237 231
-0.512865 0.278858 1.114000 244 226 235
-0.512865 0.280808 1.114000 244 237 236
-0.511484 0.281997 1.111000 246 232 237
-0.511484 0.283942 1.111000 248 244 238
-0.511484 0.285886 1.111000 248 246 240
-0.511484 0.287831 1.111000 249 248 240
-0.512865 0.290559 1.114000 251 250 241
-0.512865 0.292509 1.114000 254 249 241
-0.512865 0.294459 1.114000 254 254 241
-0.511484 0.295611 1.111000 254 254 243
-0.511484 0.297555 1.111000 254 254 244
-0.509642 0.298422 1.107000 254 250 243
-0.509642 0.300360 1.107000 254 254 242
-0.511484 0.303390 1.111000 254 251 241
-0.511484 0.305335 1.111000 254 254 240
-0.511484 0.307279 1.111000 254 250 244
-0.511484 0.309224 1.111000 254 254 249
-0.511484 0.311169 1.111000 254 251 247
-0.511484 0.313114 1.111000 254 254 246
-0.511484 0.315059 1.111000 254 250 243
-0.511484 0.317003 1.111000 254 254 241
-0.511484 0.318948 1.111000 254 249 241
-0.511484 0.320893 1.111000 254 254 242
-0.511484 0.322838 1.111000 254 250 243
-0.511484 0.324783 1.111000 254 254 245
-0.512865 0.327610 1.114000 254 248 245
-0.512865 0.329560 1.114000 253 254 245
-0.511484 0.330617 1.111000 253 249 243
-0.511484 0.332562 1.111000 253 254 241
-0.511484 0.334507 1.111000 254 248 241
-0.511484 0.336451 1.111000 254 254 241
-0.511484 0.338396 1.111000 254 247 241
-0.509642 0.339116 1.107000 253 254 241
-0.509642 0.341053 1.107000 253 247 241
-0.509642 0.342991 1.107000 252 254 241
-0.509642 0.344929 1.107000 251 246 241
-0.511484 0.348120 1.111000 252 254 241
-0.511484 0.350065 1.111000 253 248 242
-0.511484 0.352010 1.111000 250 254 243
-0.511484 0.353955 1.111000 248 245 242
-0.511484 0.355899 1.111000 248 252 242
-0.511484 0.357844 1.111000 249 245 241
-0.511484 0.359789 1.111000 246 252 240
-0.509642 0.360431 1.107000 243 241 238
-0.509642 0.362369 1.107000 240 245 237
-0.508261 0.363320 1.104000 238 238 236
-0.509642 0.366245 1.107000 240 253 236
-0.509642 0.368183 1.107000 243 242 236
-0.509642 0.370121 1.107000 239 243 236
-0.509642 0.372058 1.107000 236 237 235
-0.509642 0.373996 1.107000 233 241 234
-0.509642 0.375934 1.107000 231 234 233
-0.509642 0.377872 1.107000 230 245 232
-0.509642 0.379809 1.107000 229 234 229
-0.509642 0.381747 1.107000 230 235 227
-0.509642 0.383685 1.107000 231 234 230
-0.509642 0.385623 1.107000 228 228 232
-0.509642 0.387561 1.107000 225 228 232
-0.509642 0.389499 1.107000 225 229 232
-0.509642 0.391436 1.107000 226 228 231
-0.509642 0.393374 1.107000 224 226 231
-0.509642 0.395312 1.107000 222 225 227
-0.509642 0.397250 1.107000 222 227 223
-0.509642 0.399188 1.107000 222 226 223
-0.509642 0.401125 1.107000 221 221 223
-0.511484 0.404520 1.111000 221 222 227
-0.511484 0.406464 1.111000 220 223 230
-0.511484 0.408409 1.111000 219 222 229
-0.511484 0.410354 1.111000 218 220 228
-0.511484 0.412299 1.111000 218 224 227
-0.511484 0.414244 1.111000 219 222 225
-0.512865 0.417312 1.114000 221 225 226
-0.511484 0.418133 1.111000 221 222 228
-0.511484 0.420078 1.111000 221 223 225
-0.511484 0.422023 1.111000 221 224 223
-0.511484 0.423968 1.111000 221 223 222
-0.509642 0.424379 1.107000 220 222 222
-0.509642 0.426317 1.107000 219 221 225
-0.509642 0.428255 1.107000 220 224 228
-0.509642 0.430192 1.107000 222 222 228
-0.509642 0.432130 1.107000 220 222 228
-0.511484 0.435637 1.111000 219 221 228
-0.511484 0.437581 1.111000 220 223 229
-0.511484 0.439526 1.111000 222 222 226
-0.511484 0.441471 1.111000 219 221 223
-0.509642 0.441819 1.107000 217 218 221
-0.511484 0.445361 1.111000 218 219 219
-0.511484 0.447305 1.111000 220 219 221
-0.511484 0.449250 1.111000 220 219 224
-0.509642 0.449571 1.107000 221 220 223
-0.509642 0.451508 1.107000 220 220 222
-0.511484 0.455085 1.111000 220 219 220
-0.511484 0.457029 1.111000 221 222 218
-0.825536 -0.664840 1.800000 50 30 17
-0.820950 -0.658013 1.790000 49 31 17
-0.825536 -0.658538 1.800000 51 30 17
-0.820950 -0.651746 1.790000 53 31 21
-0.820950 -0.648613 1.790000 51 31 25
-0.820950 -0.645479 1.790000 50 34 21
-0.820950 -0.642346 1.790000 49 34 18
-0.820950 -0.639213 1.790000 48 36 16
-0.820950 -0.636079 1.790000 50 35 15
-0.820950 -0.632946 1.790000 52 35 16
-0.820950 -0.629812 1.790000 53 31 18
-0.820950 -0.626679 1.790000 55 30 15
-0.820950 -0.623546 1.790000 54 30 13
-0.820950 -0.620412 1.790000 54 32 16
-0.820950 -0.617279 1.790000 55 30 20
-0.820950 -0.614145 1.790000 57 29 23
-0.820950 -0.611012 1.790000 54 25 26
-0.816822 -0.604822 1.781000 52 26 25
-0.816822 -0.601705 1.781000 51 30 25
-0.816822 -0.598587 1.781000 50 32 20
-0.816822 -0.595469 1.781000 51 31 16
-0.820950 -0.595345 1.790000 53 33 15
-0.820950 -0.592212 1.790000 53 35 14
-0.820950 -0.589078 1.790000 53 34 15
-0.820950 -0.585945 1.790000 53 30 17
-0.820950 -0.582811 1.790000 53 27 21
-0.820950 -0.579678 1.790000 52 30 26
-0.820950 -0.576545 1.790000 52 30 37
-0.820950 -0.573411 1.790000 51 29 49
-0.820950 -0.570278 1.790000 51 30 35
-0.820950 -0.567145 1.790000 49 34 21
-0.820950 -0.564011 1.790000 47 37 21
-0.816822 -0.558058 1.781000 50 34 21
-0.816822 -0.554940 1.781000 53 32 37
-0.816822 -0.551822 1.781000 52 31 53
-0.816822 -0.548705 1.781000 51 34 47
-0.816822 -0.545587 1.781000 50 34 41
-0.812694 -0.539728 1.772000 49 34 34
-0.816822 -0.539352 1.781000 49 33 27
-0.816822 -0.536234 1.781000 50 32 33
-0.816822 -0.533117 1.781000 50 31 39
-0.820950 -0.532677 1.790000 50 33 43
-0.816822 -0.526881 1.781000 54 33 48
-0.820950 -0.526410 1.790000 58 32 37
-0.816822 -0.520646 1.781000 56 32 27
-0.816822 -0.517528 1.781000 54 30 26
-0.816822 -0.514411 1.781000 53 32 26
-0.816822 -0.511293 1.781000 52 34 23
-0.812694 -0.505607 1.772000 51 35 21
-0.812694 -0.502506 1.772000 50 35 30
-0.812694 -0.499404 1.772000 52 33 39
-0.812694 -0.496302 1.772000 54 31 29
-0.812694 -0.493200 1.772000 51 31 19
-0.808567 -0.487609 1.763000 48 28 19
-0.808567 -0.484523 1.763000 41 21 20
-0.808567 -0.481437 1.763000 34 18 19
-0.808567 -0.478350 1.763000 41 25 18
-0.808567 -0.475264 1.763000 48 32 26
-0.808567 -0.472178 1.763000 51 32 34
-0.808567 -0.469092 1.763000 55 30 38
-0.808567 -0.466006 1.763000 54 24 42
-0.808567 -0.462920 1.763000 53 23 30
-0.808567 -0.459834 1.763000 55 27 19
-0.808567 -0.456748 1.763000 58 29 36
-0.808567 -0.453661 1.763000 55 28 53
-0.808567 -0.450575 1.763000 52 27 36
-0.804439 -0.445205 1.754000 51 31 20
-0.808567 -0.444403 1.763000 51 37 20
-0.804439 -0.439064 1.754000 51 33 20
-0.808567 -0.438231 1.763000 52 31 23
-0.808567 -0.435145 1.763000 52 31 26
-0.808567 -0.432058 1.763000 52 32 21
-0.808567 -0.428972 1.763000 53 33 16
-0.808567 -0.425886 1.763000 54 34 15
-0.808567 -0.422800 1.763000 52 35 15
-0.808567 -0.419714 1.763000 51 38 12
-0.808567 -0.416628 1.763000 54 35 9
-0.808567 -0.413542 1.763000 57 34 10
-0.808567 -0.410456 1.763000 55 35 11
-0.808567 -0.407369 1.763000 53 39 14
-0.808567 -0.404283 1.763000 52 32 17
-0.808567 -0.401197 1.763000 51 29 9
-0.808567 -0.398111 1.763000 49 32 2
-0.808567 -0.395025 1.763000 48 36 25
-0.808567 -0.391939 1.763000 50 33 48
-0.808567 -0.388853 1.763000 53 32 37
-0.808567 -0.385766 1.763000 54 32 26
-0.808567 -0.382680 1.763000 55 34 35
-0.804439 -0.377656 1.754000 51 33 44
-0.804439 -0.374586 1.754000 47 36 32
-0.804439 -0.371516 1.754000 50 33 20
-0.804439 -0.368445 1.754000 53 30 20
-0.804439 -0.365375 1.754000 52 27 21
-0.804439 -0.362304 1.754000 52 26 18
-0.804439 -0.359234 1.754000 50 29 16
-0.804439 -0.356164 1.754000 49 34 26
-0.804439 -0.353093 1.754000 51 34 36
-0.804439 -0.350023 1.754000 53 34 31
-0.804439 -0.346953 1.754000 52 30 27
-0.804439 -0.343882 1.754000 52 31 38
-0.804439 -0.340812 1.754000 52 32 49
-0.804439 -0.337741 1.754000 52 34 33
-0.804439 -0.334671 1.754000 52 32 18
-0.804439 -0.331601 1.754000 52 33 17
-0.804439 -0.328530 1.754000 50 34 16
-0.804439 -0.325460 1.754000 49 34 14
-0.804439 -0.322390 1.754000 50 32 12
-0.804439 -0.319319 1.754000 51 33 13
-0.804439 -0.316249 1.754000 50 36 14
-0.804439 -0.313178 1.754000 49 39 20
-0.804439 -0.310108 1.754000 50 34 27
-0.804439 -0.307038 1.754000 52 34 37
-0.804439 -0.303967 1.754000 52 31 47
-0.804439 -0.300897 1.754000 52 30 34
-0.804439 -0.297827 1.754000 51 33 21
-0.804439 -0.294756 1.754000 51 34 27
-0.804439 -0.291686 1.754000 51 34 34
-0.804439 -0.288615 1.754000 51 35 43
-0.804439 -0.285545 1.754000 52 35 53
-0.800311 -0.281025 1.745000 53 38 37
-0.800311 -0.277971 1.745000 54 36 22
-0.800311 -0.274916 1.745000 56 34 21
-0.800311 -0.271861 1.745000 54 36 21
-0.800311 -0.268807 1.745000 52 39 18
-0.800311 -0.265752 1.745000 54 38 15
-0.800311 -0.262698 1.745000 57 41 18
-0.796183 -0.258304 1.736000 55 41 21
-0.800311 -0.256588 1.745000 54 40 25
-0.796183 -0.252226 1.736000 53 37 29
-0.796183 -0.249187 1.736000 53 36 29
-0.796183 -0.246148 1.736000 54 36 29
-0.796183 -0.243109 1.736000 55 42 27
-0.796183 -0.240071 1.736000 56 38 26
-0.796183 -0.237032 1.736000 58 36 25
-0.792514 -0.232915 1.728000 56 38 25
-0.796183 -0.230954 1.736000 55 42 23
-0.792514 -0.226865 1.728000 58 39 21
-0.792514 -0.223840 1.728000 61 34 23
-0.792514 -0.220815 1.728000 59 35 25
-0.792514 -0.217790 1.728000 57 37 32
-0.792514 -0.214765 1.728000 57 36 39
-0.796183 -0.212721 1.736000 57 35 49
-0.796183 -0.209682 1.736000 59 35 59
-0.796183 -0.206643 1.736000 61 34 42
-0.800311 -0.204660 1.745000 59 39 26
-0.796183 -0.200565 1.736000 56 42 20
-0.800311 -0.198550 1.745000 60 41 14
-0.800311 -0.195496 1.745000 64 39 33
-0.800311 -0.192441 1.745000 62 36 52
-0.796183 -0.188410 1.736000 59 33 42
-0.796183 -0.185371 1.736000 60 36 33
-0.792514 -0.181492 1.728000 61 39 20
-0.796183 -0.179293 1.736000 60 41 8
-0.796183 -0.176254 1.736000 60 43 12
-0.796183 -0.173215 1.736000 60 42 17
-0.796183 -0.170177 1.736000 61 44 22
-0.796183 -0.167138 1.736000 62 44 27
-0.796183 -0.164099 1.736000 63 44 33
-0.800311 -0.161895 1.745000 63 42 39
-0.800311 -0.158840 1.745000 64 42 28
-0.800311 -0.155786 1.745000 62 43 18
-0.800311 -0.152731 1.745000 61 44 21
-0.802146 -0.150020 1.749000 61 41 24
-0.802146 -0.146958 1.749000 62 44 38
-0.802146 -0.143896 1.749000 59 44 53
-0.796183 -0.133710 1.736000 63 45 33
-0.796183 -0.130671 1.736000 63 44 39
-0.796183 -0.127632 1.736000 64 44 44
-0.800311 -0.125240 1.745000 64 43 49
-0.800311 -0.122185 1.745000 63 44 38
-0.800311 -0.119130 1.745000 62 46 28
-0.800311 -0.116076 1.745000 62 47 24
-0.802146 -0.113280 1.749000 64 46 21
-0.792514 -0.090746 1.728000 68 49 33
-0.792514 -0.087721 1.728000 67 47 25
-0.796183 -0.085088 1.736000 66 44 23
-0.792514 -0.081671 1.728000 70 45 21
-0.792514 -0.078646 1.728000 74 45 27
-0.792514 -0.075622 1.728000 72 49 34
-0.792514 -0.072597 1.728000 70 50 44
-0.792514 -0.069572 1.728000 68 51 55
-0.788387 -0.054164 1.719000 68 48 52
-0.792514 -0.051423 1.728000 70 50 63
-0.784718 -0.047922 1.711000 72 52 48
-0.784718 -0.041931 1.711000 72 55 30
-0.788387 -0.039118 1.719000 74 55 26
-0.788387 -0.036109 1.719000 77 53 29
-0.788387 -0.033100 1.719000 76 53 33
-0.609979 0.055876 1.330000 64 20 9
-0.521005 0.165051 1.136000 160 138 201
-0.521005 0.167040 1.136000 166 219 205
-0.514584 0.190514 1.122000 194 178 196
-0.514584 0.192478 1.122000 196 207 195
-0.515960 0.194962 1.125000 199 186 195
-0.515960 0.196931 1.125000 201 219 195
-0.515960 0.198901 1.125000 203 190 195
-0.514584 0.200334 1.122000 205 221 193
-0.514584 0.202298 1.122000 208 195 192
-0.517794 0.221347 1.129000 223 243 222
-0.517794 0.223324 1.129000 223 225 223
-0.515960 0.224502 1.125000 223 247 225
-0.515960 0.228440 1.125000 223 254 229
-0.514584 0.229795 1.122000 224 227 232
-0.514584 0.231759 1.122000 225 254 236
-0.514584 0.233723 1.122000 224 226 241
-0.514584 0.235687 1.122000 223 254 241
-0.512749 0.236804 1.118000 224 225 241
-0.510915 0.237907 1.114000 226 254 243
-0.512749 0.240718 1.118000 227 225 245
-0.512749 0.242675 1.118000 229 254 246
-0.512749 0.244632 1.118000 229 227 247
-0.512749 0.246589 1.118000 229 254 250
-0.510915 0.247657 1.114000 230 229 254
-0.510915 0.249607 1.114000 231 254 254
-0.510915 0.251557 1.114000 231 231 254
-0.510915 0.253507 1.114000 232 254 252
-0.512749 0.256375 1.118000 234 233 250
-0.512749 0.258332 1.118000 236 254 249
-0.512749 0.260289 1.118000 238 236 248
-0.512749 0.262246 1.118000 241 254 250
-0.512749 0.264203 1.118000 241 240 253
-0.512749 0.266160 1.118000 241 254 253
-0.512749 0.268117 1.118000 242 241 254
-0.512749 0.270074 1.118000 243 254 254
-0.512749 0.272031 1.118000 244 242 254
-0.512749 0.273988 1.118000 246 254 254
-0.512749 0.275945 1.118000 247 247 254
-0.512749 0.277902 1.118000 249 254 254
-0.510915 0.278858 1.114000 248 247 254
-0.510915 0.280808 1.114000 248 254 254
-0.509539 0.281997 1.111000 249 248 254
-0.509539 0.283942 1.111000 250 254 254
-0.509539 0.285886 1.111000 248 251 254
-0.509539 0.287831 1.111000 247 252 253
-0.509539 0.289776 1.111000 247 250 253
-0.510915 0.292509 1.114000 247 245 253
-0.510915 0.294459 1.114000 248 250 254
-0.509539 0.295611 1.111000 248 254 253
-0.509539 0.297555 1.111000 246 250 253
-0.507705 0.298422 1.107000 245 241 252
-0.507705 0.300360 1.107000 245 248 252
-0.509539 0.303390 1.111000 246 244 248
-0.509539 0.305335 1.111000 245 246 244
-0.509539 0.307279 1.111000 243 239 244
-0.509539 0.309224 1.111000 243 245 244
-0.509539 0.311169 1.111000 243 244 242
-0.509539 0.313114 1.111000 242 245 241
-0.509539 0.315059 1.111000 241 241 239
-0.509539 0.317003 1.111000 240 239 238
-0.509539 0.318948 1.111000 240 236 237
-0.509539 0.320893 1.111000 240 241 237
-0.509539 0.322838 1.111000 241 240 236
-0.509539 0.324783 1.111000 240 238 236
-0.510915 0.327610 1.114000 239 230 236
-0.509539 0.328672 1.111000 239 236 236
-0.509539 0.330617 1.111000 239 235 232
-0.509539 0.332562 1.111000 239 236 228
-0.509539 0.334507 1.111000 239 230 229
-0.509539 0.336451 1.111000 239 234 231
-0.509539 0.338396 1.111000 239 228 230
-0.509539 0.340341 1.111000 238 232 229
-0.507705 0.341053 1.107000 237 226 228
-0.507705 0.342991 1.107000 236 231 228
-0.507705 0.344929 1.107000 235 222 228
-0.509539 0.348120 1.111000 236 232 229
-0.507705 0.348805 1.107000 238 231 233
-0.509539 0.352010 1.111000 236 233 238
-0.509539 0.353955 1.111000 235 226 234
-0.509539 0.355899 1.111000 234 232 231
-0.509539 0.357844 1.111000 234 222 232
-0.509539 0.359789 1.111000 234 231 233
-0.507705 0.360431 1.107000 234 222 229
-0.507705 0.362369 1.107000 231 226 225
-0.507705 0.364307 1.107000 229 212 224
-0.507705 0.366245 1.107000 231 227 224
-0.507705 0.368183 1.107000 233 223 223
-0.507705 0.370121 1.107000 231 226 223
-0.507705 0.372058 1.107000 230 216 220
-0.507705 0.373996 1.107000 229 223 217
-0.507705 0.375934 1.107000 228 211 220
-0.507705 0.377872 1.107000 227 224 223
-0.507705 0.379809 1.107000 226 220 221
-0.507705 0.381747 1.107000 227 226 220
-0.507705 0.383685 1.107000 228 225 224
-0.507705 0.385623 1.107000 226 226 229
-0.507705 0.387561 1.107000 224 229 228
-0.507705 0.389499 1.107000 225 226 227
-0.507705 0.391436 1.107000 225 222 228
-0.507705 0.393374 1.107000 224 223 229
-0.507705 0.395312 1.107000 223 220 220
-0.507705 0.397250 1.107000 224 224 212
-0.507705 0.399188 1.107000 225 225 216
-0.509539 0.402575 1.111000 222 224 221
-0.509539 0.404520 1.111000 220 226 224
-0.509539 0.406464 1.111000 221 223 227
-0.509539 0.408409 1.111000 221 220 227
-0.507705 0.408877 1.107000 221 222 227
-0.509539 0.412299 1.111000 221 221 225
-0.509539 0.414244 1.111000 222 222 223
-0.509539 0.416188 1.111000 224 222 224
-0.509539 0.418133 1.111000 223 222 226
-0.509539 0.420078 1.111000 222 224 225
-0.507705 0.420503 1.107000 222 224 224
-0.509539 0.423968 1.111000 222 225 221
-0.509539 0.425913 1.111000 220 222 219
-0.507705 0.426317 1.107000 218 216 223
-0.507705 0.428255 1.107000 221 222 227
-0.509539 0.431747 1.111000 224 225 227
-0.510915 0.434863 1.114000 222 223 228
-0.509539 0.435637 1.111000 220 224 227
-0.510915 0.438763 1.114000 221 224 226
-0.510915 0.440713 1.114000 222 229 225
-0.509539 0.441471 1.111000 220 223 224
-0.509539 0.443416 1.111000 218 225 224
-0.509539 0.445361 1.111000 218 222 224
-0.509539 0.447305 1.111000 219 222 223
-0.509539 0.449250 1.111000 220 224 223
-0.509539 0.451195 1.111000 221 224 222
-0.509539 0.453140 1.111000 220 222 222
-0.509539 0.455085 1.111000 219 222 222
-0.510915 0.458263 1.114000 221 223 222
-0.817816 -0.661146 1.790000 52 30 16
-0.817816 -0.658013 1.790000 53 30 13
-0.817816 -0.654880 1.790000 53 30 10
-0.817816 -0.651746 1.790000 53 30 14
-0.822385 -0.652236 1.800000 51 31 17
-0.822385 -0.649085 1.800000 50 31 18
-0.822385 -0.645934 1.800000 50 32 19
-0.822385 -0.642784 1.800000 50 32 20
-0.822385 -0.639633 1.800000 52 36 22
-0.817816 -0.632946 1.790000 54 32 21
-0.822385 -0.633331 1.800000 54 31 21
-0.817816 -0.626679 1.790000 55 29 17
-0.817816 -0.623546 1.790000 54 26 14
-0.817816 -0.620412 1.790000 54 28 15
-0.817816 -0.617279 1.790000 57 28 17
-0.817816 -0.614145 1.790000 61 27 18
-0.817816 -0.611012 1.790000 57 25 20
-0.813704 -0.604822 1.781000 53 28 20
-0.813704 -0.601705 1.781000 51 31 20
-0.813704 -0.598587 1.781000 50 31 16
-0.813704 -0.595469 1.781000 51 30 12
-0.817816 -0.595345 1.790000 53 33 18
-0.817816 -0.592212 1.790000 53 42 23
-0.813704 -0.586116 1.781000 53 35 19
-0.817816 -0.585945 1.790000 53 32 14
-0.817816 -0.582811 1.790000 54 32 16
-0.817816 -0.579678 1.790000 52 36 18
-0.817816 -0.576545 1.790000 51 32 28
-0.817816 -0.573411 1.790000 50 27 38
-0.817816 -0.570278 1.790000 49 31 29
-0.817816 -0.567145 1.790000 46 35 20
-0.813704 -0.561175 1.781000 44 34 20
-0.813704 -0.558058 1.781000 47 34 20
-0.813704 -0.554940 1.781000 51 32 30
-0.813704 -0.551822 1.781000 51 30 40
-0.813704 -0.548705 1.781000 51 30 37
-0.813704 -0.545587 1.781000 49 34 34
-0.813704 -0.542470 1.781000 48 33 30
-0.813704 -0.539352 1.781000 48 34 26
-0.813704 -0.536234 1.781000 49 31 29
-0.813704 -0.533117 1.781000 50 28 32
-0.817816 -0.532677 1.790000 51 32 35
-0.813704 -0.526881 1.781000 56 36 38
-0.817816 -0.526410 1.790000 61 34 31
-0.817816 -0.523277 1.790000 58 35 24
-0.813704 -0.517528 1.781000 55 34 24
-0.813704 -0.514411 1.781000 55 33 25
-0.813704 -0.511293 1.781000 55 33 23
-0.813704 -0.508175 1.781000 55 34 21
-0.809592 -0.502506 1.772000 55 33 25
-0.813704 -0.501940 1.781000 54 32 29
-0.809592 -0.496302 1.772000 54 32 23
-0.809592 -0.493200 1.772000 52 33 16
-0.809592 -0.490098 1.772000 50 29 18
-0.809592 -0.486996 1.772000 44 21 21
-0.809592 -0.483894 1.772000 39 20 19
-0.809592 -0.480792 1.772000 44 26 17
-0.805480 -0.475264 1.763000 49 30 23
-0.805480 -0.472178 1.763000 53 33 29
-0.805480 -0.469092 1.763000 58 27 31
-0.805480 -0.466006 1.763000 55 21 32
-0.805480 -0.462920 1.763000 53 22 24
-0.805480 -0.459834 1.763000 53 30 15
-0.805480 -0.456748 1.763000 54 31 24
-0.805480 -0.453661 1.763000 53 32 32
-0.805480 -0.450575 1.763000 53 29 21
-0.805480 -0.447489 1.763000 51 31 10
-0.805480 -0.444403 1.763000 50 32 14
-0.805480 -0.441317 1.763000 50 31 18
-0.805480 -0.438231 1.763000 51 30 20
-0.805480 -0.435145 1.763000 50 30 21
-0.805480 -0.432058 1.763000 49 32 18
-0.805480 -0.428972 1.763000 51 34 16
-0.805480 -0.425886 1.763000 53 32 15
-0.805480 -0.422800 1.763000 52 31 14
-0.805480 -0.419714 1.763000 51 33 9
-0.805480 -0.416628 1.763000 55 34 5
-0.805480 -0.413542 1.763000 60 33 7
-0.805480 -0.410456 1.763000 57 32 9
-0.805480 -0.407369 1.763000 54 33 14
-0.805480 -0.404283 1.763000 52 31 19
-0.805480 -0.401197 1.763000 51 29 15
-0.805480 -0.398111 1.763000 50 31 11
-0.805480 -0.395025 1.763000 50 32 23
-0.805480 -0.391939 1.763000 51 31 36
-0.805480 -0.388853 1.763000 53 30 27
-0.805480 -0.385766 1.763000 54 30 18
-0.801368 -0.380727 1.754000 56 30 26
-0.801368 -0.377656 1.754000 53 29 34
-0.801368 -0.374586 1.754000 50 32 28
-0.801368 -0.371516 1.754000 51 34 22
-0.801368 -0.368445 1.754000 53 30 20
-0.801368 -0.365375 1.754000 53 27 18
-0.801368 -0.362304 1.754000 53 28 16
-0.801368 -0.359234 1.754000 51 30 15
-0.801368 -0.356164 1.754000 49 31 24
-0.805480 -0.354905 1.763000 52 34 34
-0.805480 -0.351819 1.763000 56 32 27
-0.801368 -0.346953 1.754000 55 32 21
-0.801368 -0.343882 1.754000 54 31 25
-0.801368 -0.340812 1.754000 52 32 30
-0.801368 -0.337741 1.754000 50 31 20
-0.801368 -0.334671 1.754000 50 30 9
-0.801368 -0.331601 1.754000 51 31 11
-0.801368 -0.328530 1.754000 50 31 14
-0.801368 -0.325460 1.754000 49 32 11
-0.801368 -0.322390 1.754000 49 34 8
-0.801368 -0.319319 1.754000 50 34 11
-0.797257 -0.314626 1.745000 50 37 14
-0.797257 -0.311571 1.745000 51 37 16
-0.797257 -0.308517 1.745000 50 36 19
-0.797257 -0.305462 1.745000 50 33 26
-0.797257 -0.302408 1.745000 50 32 32
-0.797257 -0.299353 1.745000 50 32 24
-0.797257 -0.296298 1.745000 50 34 17
-0.797257 -0.293244 1.745000 51 35 22
-0.797257 -0.290189 1.745000 51 35 27
-0.797257 -0.287135 1.745000 51 34 31
-0.797257 -0.284080 1.745000 52 36 35
-0.797257 -0.281025 1.745000 53 37 24
-0.797257 -0.277971 1.745000 56 35 13
-0.797257 -0.274916 1.745000 59 34 17
-0.797257 -0.271861 1.745000 57 35 21
-0.797257 -0.268807 1.745000 56 35 26
-0.797257 -0.265752 1.745000 57 31 30
-0.797257 -0.262698 1.745000 59 37 28
-0.797257 -0.259643 1.745000 56 44 26
-0.797257 -0.256588 1.745000 54 39 32
-0.793145 -0.252226 1.736000 54 36 38
-0.793145 -0.249187 1.736000 55 35 33
-0.793145 -0.246148 1.736000 55 34 29
-0.793145 -0.243109 1.736000 56 38 31
-0.793145 -0.240071 1.736000 58 39 33
-0.793145 -0.237032 1.736000 60 37 28
-0.789490 -0.232915 1.728000 59 36 24
-0.789490 -0.229890 1.728000 58 39 18
-0.789490 -0.226865 1.728000 61 42 13
-0.789490 -0.223840 1.728000 64 39 13
-0.789490 -0.220815 1.728000 61 39 13
-0.789490 -0.217790 1.728000 58 37 21
-0.789490 -0.214765 1.728000 57 36 29
-0.789490 -0.211740 1.728000 56 36 33
-0.793145 -0.209682 1.736000 57 36 37
-0.793145 -0.206643 1.736000 58 37 25
-0.797257 -0.204660 1.745000 58 39 13
-0.793145 -0.200565 1.736000 58 40 13
-0.797257 -0.198550 1.745000 60 42 14
-0.797257 -0.195496 1.745000 62 36 27
-0.797257 -0.192441 1.745000 61 32 41
-0.793145 -0.188410 1.736000 60 33 35
-0.789490 -0.184517 1.728000 60 35 29
-0.789490 -0.181492 1.728000 60 36 21
-0.793145 -0.179293 1.736000 62 38 14
-0.797257 -0.177168 1.745000 65 41 15
-0.793145 -0.173215 1.736000 62 44 17
-0.793145 -0.170177 1.736000 60 44 21
-0.785378 -0.165501 1.719000 62 46 26
-0.801368 -0.159660 1.754000 66 43 23
-0.801368 -0.150448 1.754000 63 40 12
-0.801368 -0.147378 1.754000 65 42 24
-0.801368 -0.144308 1.754000 62 45 36
-0.801368 -0.113604 1.754000 61 45 21
-0.524499 0.048230 1.148000 51 40 45
-0.519016 0.089486 1.136000 102 1 97
-0.519016 0.091474 1.136000 113 63 114
-0.517646 0.093216 1.133000 115 1 132
-0.515818 0.094863 1.129000 117 64 142
-0.512620 0.096239 1.122000 125 1 153
-0.510792 0.131123 1.118000 181 130 169
-0.510792 0.133080 1.118000 183 171 171
-0.517646 0.152715 1.133000 189 151 194
-0.517646 0.154699 1.133000 189 187 199
-0.517646 0.156682 1.133000 189 151 203
-0.517646 0.158665 1.133000 190 185 209
-0.517646 0.160649 1.133000 191 137 215
-0.517646 0.162632 1.133000 192 181 214
-0.519016 0.165051 1.136000 194 131 214
-0.517646 0.166599 1.133000 196 187 216
-0.513991 0.181177 1.125000 210 189 233
-0.515818 0.183797 1.129000 211 157 236
-0.515818 0.185774 1.129000 212 198 230
-0.515818 0.187750 1.129000 214 175 224
-0.512620 0.188550 1.122000 217 202 224
-0.512620 0.190514 1.122000 218 180 225
-0.512620 0.192478 1.122000 219 207 224
-0.512620 0.194442 1.122000 223 188 224
-0.512620 0.196406 1.122000 227 213 224
-0.512620 0.198370 1.122000 227 191 224
-0.512620 0.200334 1.122000 228 219 223
-0.512620 0.202298 1.122000 232 211 223
-0.513991 0.204809 1.125000 236 227 223
-0.513991 0.206778 1.125000 238 223 223
-0.513991 0.208747 1.125000 240 233 225
-0.513991 0.210716 1.125000 243 225 227
-0.512620 0.212119 1.122000 246 237 230
-0.512620 0.216047 1.122000 248 242 235
-0.512620 0.218011 1.122000 249 241 236
-0.512620 0.219975 1.122000 251 248 237
-0.512620 0.221939 1.122000 252 254 238
-0.512620 0.223903 1.122000 253 251 239
-0.513991 0.226471 1.125000 253 253 239
-0.513991 0.228440 1.125000 254 249 239
-0.512620 0.229795 1.122000 254 254 239
-0.512620 0.231759 1.122000 254 253 240
-0.512620 0.233723 1.122000 254 254 242
-0.512620 0.235687 1.122000 254 249 241
-0.510792 0.236804 1.118000 254 254 241
-0.510792 0.238761 1.118000 254 251 242
-0.508965 0.239857 1.114000 254 254 244
-0.508965 0.241807 1.114000 254 249 244
-0.510792 0.244632 1.118000 253 254 244
-0.508965 0.245707 1.114000 253 250 243
-0.508965 0.247657 1.114000 253 254 242
-0.508965 0.249607 1.114000 254 249 242
-0.508965 0.251557 1.114000 253 254 243
-0.508965 0.253507 1.114000 253 248 240
-0.508965 0.255458 1.114000 253 254 238
-0.510792 0.258332 1.118000 254 246 238
-0.510792 0.260289 1.118000 254 254 238
-0.510792 0.262246 1.118000 254 248 239
-0.510792 0.264203 1.118000 253 254 240
-0.510792 0.266160 1.118000 253 249 240
-0.510792 0.268117 1.118000 253 254 240
-0.510792 0.270074 1.118000 254 245 240
-0.510792 0.272031 1.118000 253 254 241
-0.510792 0.273988 1.118000 252 245 241
-0.508965 0.274958 1.114000 252 254 240
-0.508965 0.276908 1.114000 253 244 240
-0.508965 0.278858 1.114000 252 254 240
-0.508965 0.280808 1.114000 252 244 239
-0.507594 0.281997 1.111000 252 254 239
-0.507594 0.283942 1.111000 252 245 239
-0.508965 0.286658 1.114000 248 254 239
-0.507594 0.287831 1.111000 245 242 239
-0.508965 0.290559 1.114000 243 254 239
-0.508965 0.292509 1.114000 241 242 239
-0.508965 0.294459 1.114000 242 249 240
-0.507594 0.295611 1.111000 243 240 238
-0.507594 0.297555 1.111000 239 251 237
-0.507594 0.299500 1.111000 236 239 238
-0.507594 0.301445 1.111000 237 254 239
-0.507594 0.303390 1.111000 239 240 236
-0.507594 0.305335 1.111000 236 248 234
-0.507594 0.307279 1.111000 233 236 234
-0.507594 0.309224 1.111000 233 244 234
-0.507594 0.311169 1.111000 233 237 233
-0.507594 0.313114 1.111000 231 243 232
-0.507594 0.315059 1.111000 229 235 232
-0.507594 0.317003 1.111000 227 228 233
-0.505767 0.317800 1.107000 226 230 232
-0.505767 0.319738 1.107000 227 234 232
-0.505767 0.321675 1.107000 229 233 228
-0.505767 0.323613 1.107000 226 228 225
-0.507594 0.326727 1.111000 224 228 226
-0.507594 0.328672 1.111000 224 228 228
-0.507594 0.330617 1.111000 225 227 227
-0.507594 0.332562 1.111000 224 226 227
-0.507594 0.334507 1.111000 224 226 229
-0.507594 0.336451 1.111000 224 224 230
-0.505767 0.337178 1.107000 224 225 229
-0.505767 0.339116 1.107000 222 222 228
-0.505767 0.341053 1.107000 221 223 224
-0.505767 0.342991 1.107000 220 222 221
-0.505767 0.344929 1.107000 220 223 223
-0.507594 0.348120 1.111000 221 224 226
-0.507594 0.350065 1.111000 223 226 227
-0.507594 0.352010 1.111000 222 224 229
-0.507594 0.353955 1.111000 222 224 229
-0.507594 0.355899 1.111000 220 228 229
-0.507594 0.357844 1.111000 219 224 229
-0.507594 0.359789 1.111000 222 228 229
-0.507594 0.361734 1.111000 225 226 224
-0.507594 0.363679 1.111000 223 227 219
-0.505767 0.364307 1.107000 221 220 221
-0.505767 0.366245 1.107000 222 222 224
-0.505767 0.368183 1.107000 224 223 224
-0.505767 0.370121 1.107000 224 222 225
-0.505767 0.372058 1.107000 224 222 224
-0.505767 0.373996 1.107000 224 225 224
-0.505767 0.375934 1.107000 225 221 225
-0.505767 0.377872 1.107000 224 223 225
-0.505767 0.379809 1.107000 223 223 224
-0.505767 0.381747 1.107000 224 227 223
-0.505767 0.383685 1.107000 225 225 225
-0.505767 0.385623 1.107000 224 225 228
-0.505767 0.387561 1.107000 224 227 226
-0.505767 0.389499 1.107000 224 226 225
-0.505767 0.391436 1.107000 225 224 226
-0.505767 0.393374 1.107000 224 224 227
-0.505767 0.395312 1.107000 224 224 222
-0.507594 0.398685 1.111000 226 227 217
-0.507594 0.400630 1.111000 228 226 218
-0.507594 0.402575 1.111000 224 226 220
-0.507594 0.404520 1.111000 220 223 222
-0.507594 0.406464 1.111000 222 224 225
-0.507594 0.408409 1.111000 224 225 227
-0.505767 0.408877 1.107000 224 228 228
-0.507594 0.412299 1.111000 224 224 226
-0.507594 0.414244 1.111000 226 223 224
-0.507594 0.416188 1.111000 228 224 225
-0.505767 0.416628 1.107000 225 221 225
-0.507594 0.420078 1.111000 223 223 225
-0.507594 0.422023 1.111000 223 225 225
-0.507594 0.423968 1.111000 223 225 225
-0.507594 0.425913 1.111000 220 226 225
-0.507594 0.427857 1.111000 217 222 226
-0.508965 0.430963 1.114000 221 223 227
-0.510792 0.434467 1.118000 226 225 226
-0.510792 0.436424 1.118000 224 223 226
-0.508965 0.436813 1.114000 222 222 225
-0.508965 0.438763 1.114000 222 223 224
-0.508965 0.440713 1.114000 222 223 223
-0.508965 0.442663 1.114000 221 220 222
-0.507594 0.443416 1.111000 220 222 222
-0.507594 0.445361 1.111000 219 222 223
-0.507594 0.447305 1.111000 218 224 221
-0.507594 0.449250 1.111000 220 232 220
-0.507594 0.451195 1.111000 222 225 220
-0.507594 0.453140 1.111000 220 223 221
-0.508965 0.456313 1.114000 218 223 222
-0.508965 0.458263 1.114000 222 224 223
-0.819234 -0.664840 1.800000 51 27 16
-0.819234 -0.661689 1.800000 53 30 10
-0.819234 -0.658538 1.800000 53 30 4
-0.819234 -0.655387 1.800000 54 29 7
-0.819234 -0.652236 1.800000 52 29 10
-0.819234 -0.649085 1.800000 50 27 15
-0.819234 -0.645934 1.800000 51 28 21
-0.819234 -0.642784 1.800000 51 25 25
-0.819234 -0.639633 1.800000 52 30 29
-0.819234 -0.636482 1.800000 53 29 26
-0.819234 -0.633331 1.800000 53 29 24
-0.819234 -0.630180 1.800000 53 30 19
-0.819234 -0.627029 1.800000 51 27 15
-0.814683 -0.620412 1.790000 49 26 14
-0.814683 -0.617279 1.790000 53 28 14
-0.819234 -0.617576 1.800000 57 26 14
-0.819234 -0.614426 1.800000 54 26 14
-0.814683 -0.607879 1.790000 52 30 15
-0.810587 -0.601705 1.781000 50 29 16
-0.810587 -0.598587 1.781000 49 31 12
-0.810587 -0.595469 1.781000 50 30 9
-0.814683 -0.595345 1.790000 51 28 21
-0.814683 -0.592212 1.790000 51 34 33
-0.814683 -0.589078 1.790000 51 35 22
-0.814683 -0.585945 1.790000 51 32 12
-0.814683 -0.582811 1.790000 51 33 11
-0.814683 -0.579678 1.790000 52 33 10
-0.814683 -0.576545 1.790000 53 35 19
-0.814683 -0.573411 1.790000 51 32 28
-0.810587 -0.567411 1.781000 50 35 24
-0.810587 -0.564293 1.781000 49 34 20
-0.810587 -0.561175 1.781000 49 31 20
-0.810587 -0.558058 1.781000 52 33 20
-0.810587 -0.554940 1.781000 55 35 23
-0.810587 -0.551822 1.781000 53 29 27
-0.810587 -0.548705 1.781000 51 24 27
-0.810587 -0.545587 1.781000 49 28 28
-0.810587 -0.542470 1.781000 47 31 27
-0.810587 -0.539352 1.781000 51 32 26
-0.810587 -0.536234 1.781000 54 31 25
-0.810587 -0.533117 1.781000 52 32 25
-0.810587 -0.529999 1.781000 50 33 26
-0.810587 -0.526881 1.781000 52 34 28
-0.810587 -0.523764 1.781000 54 34 24
-0.810587 -0.520646 1.781000 53 36 21
-0.810587 -0.517528 1.781000 53 39 23
-0.810587 -0.514411 1.781000 53 36 25
-0.806490 -0.508709 1.772000 54 34 23
-0.806490 -0.505607 1.772000 54 33 21
-0.806490 -0.502506 1.772000 55 33 20
-0.806490 -0.499404 1.772000 56 32 20
-0.806490 -0.496302 1.772000 57 32 17
-0.810587 -0.495705 1.781000 53 32 14
-0.806490 -0.490098 1.772000 50 34 18
-0.806490 -0.486996 1.772000 40 25 22
-0.806490 -0.483894 1.772000 30 16 19
-0.806490 -0.480792 1.772000 38 24 16
-0.802394 -0.475264 1.763000 47 31 20
-0.802394 -0.472178 1.763000 50 29 25
-0.802394 -0.469092 1.763000 52 26 24
-0.802394 -0.466006 1.763000 48 21 23
-0.802394 -0.462920 1.763000 45 17 17
-0.802394 -0.459834 1.763000 48 27 12
-0.802394 -0.456748 1.763000 52 34 12
-0.802394 -0.453661 1.763000 52 29 12
-0.798298 -0.448275 1.754000 53 26 6
-0.798298 -0.445205 1.754000 51 28 1
-0.798298 -0.442134 1.754000 50 29 9
-0.798298 -0.439064 1.754000 49 30 17
-0.798298 -0.435994 1.754000 48 30 17
-0.802394 -0.435145 1.763000 48 30 17
-0.802394 -0.432058 1.763000 48 33 16
-0.802394 -0.428972 1.763000 49 31 16
-0.802394 -0.425886 1.763000 51 29 14
-0.802394 -0.422800 1.763000 49 29 13
-0.802394 -0.419714 1.763000 47 29 7
-0.802394 -0.416628 1.763000 52 32 2
-0.802394 -0.413542 1.763000 56 34 5
-0.802394 -0.410456 1.763000 55 33 8
-0.802394 -0.407369 1.763000 54 32 14
-0.802394 -0.404283 1.763000 52 29 21
-0.798298 -0.399149 1.754000 50 26 21
-0.802394 -0.398111 1.763000 49 30 21
-0.802394 -0.395025 1.763000 47 32 22
-0.798298 -0.389938 1.754000 49 29 24
-0.802394 -0.388853 1.763000 52 28 17
-0.798298 -0.383797 1.754000 52 30 10
-0.798298 -0.380727 1.754000 52 30 17
-0.798298 -0.377656 1.754000 49 31 24
-0.798298 -0.374586 1.754000 45 31 24
-0.798298 -0.371516 1.754000 48 33 24
-0.798298 -0.368445 1.754000 51 31 19
-0.798298 -0.365375 1.754000 52 30 15
-0.798298 -0.362304 1.754000 53 30 14
-0.798298 -0.359234 1.754000 51 29 14
-0.798298 -0.356164 1.754000 50 27 23
-0.798298 -0.353093 1.754000 51 30 33
-0.798298 -0.350023 1.754000 52 30 24
-0.798298 -0.346953 1.754000 52 31 15
-0.798298 -0.343882 1.754000 51 29 13
-0.798298 -0.340812 1.754000 49 31 12
-0.798298 -0.337741 1.754000 46 31 6
-0.798298 -0.334671 1.754000 48 28 1
-0.798298 -0.331601 1.754000 51 30 6
-0.798298 -0.328530 1.754000 49 32 12
-0.798298 -0.325460 1.754000 47 30 8
-0.798298 -0.322390 1.754000 50 32 4
-0.798298 -0.319319 1.754000 54 34 9
-0.794202 -0.314626 1.745000 52 35 14
-0.794202 -0.311571 1.745000 51 37 13
-0.794202 -0.308517 1.745000 50 34 12
-0.794202 -0.305462 1.745000 50 31 15
-0.794202 -0.302408 1.745000 47 33 18
-0.796022 -0.300039 1.749000 44 34 15
-0.796022 -0.296978 1.749000 46 34 13
-0.796022 -0.293916 1.749000 49 37 17
-0.796022 -0.290854 1.749000 49 35 21
-0.794202 -0.287135 1.745000 50 33 19
-0.794202 -0.284080 1.745000 52 35 18
-0.794202 -0.281025 1.745000 53 39 11
-0.794202 -0.277971 1.745000 55 37 4
-0.794202 -0.274916 1.745000 57 33 13
-0.794202 -0.271861 1.745000 56 34 22
-0.794202 -0.268807 1.745000 55 35 34
-0.794202 -0.265752 1.745000 56 34 46
-0.794202 -0.262698 1.745000 56 34 38
-0.794202 -0.259643 1.745000 54 38 31
-0.796022 -0.257176 1.749000 52 38 39
-0.794202 -0.244370 1.745000 56 37 34
-0.794202 -0.241315 1.745000 57 38 40
-0.790106 -0.237032 1.736000 58 37 31
-0.786465 -0.232915 1.728000 58 37 23
-0.782369 -0.225683 1.719000 60 41 5
-0.786465 -0.223840 1.728000 62 42 3
-0.786465 -0.220815 1.728000 58 39 1
-0.786465 -0.217790 1.728000 55 39 10
-0.786465 -0.214765 1.728000 55 39 20
-0.786465 -0.211740 1.728000 56 40 17
-0.790106 -0.209682 1.736000 57 40 15
-0.790106 -0.206643 1.736000 58 41 8
-0.790106 -0.203604 1.736000 59 40 1
-0.786465 -0.199641 1.728000 60 39 7
-0.786465 -0.196616 1.728000 60 39 14
-0.782369 -0.192583 1.719000 60 34 22
-0.782369 -0.189574 1.719000 59 34 31
-0.778727 -0.185697 1.711000 58 34 28
-0.778727 -0.182701 1.711000 56 36 25
-0.778727 -0.179706 1.711000 55 33 22
-0.782369 -0.177537 1.719000 59 38 20
-0.798298 -0.159660 1.754000 62 42 18
-0.517028 0.037783 1.136000 102 59 76
-0.517028 0.039771 1.136000 104 90 63
-0.517028 0.041760 1.136000 102 77 51
-0.518848 0.043903 1.140000 101 123 63
-0.520669 0.048062 1.144000 105 141 81
-0.520669 0.050064 1.144000 105 99 88
-0.518848 0.051885 1.140000 106 150 96
-0.520669 0.056072 1.144000 109 161 109
-0.513842 0.079053 1.129000 131 194 166
-0.518848 0.081818 1.140000 133 133 162
-0.518848 0.083814 1.140000 136 193 158
-0.517028 0.085508 1.136000 137 132 155
-0.517028 0.087497 1.136000 138 192 172
-0.517028 0.089486 1.136000 142 134 189
-0.517028 0.091474 1.136000 147 209 193
-0.515662 0.093216 1.133000 148 135 198
-0.515662 0.095199 1.133000 149 199 206
-0.515662 0.097183 1.133000 155 131 214
-0.515662 0.099166 1.133000 161 209 215
-0.517028 0.101417 1.136000 164 131 216
-0.517028 0.103406 1.136000 167 191 218
-0.517028 0.105394 1.136000 172 138 221
-0.517028 0.123291 1.136000 189 197 206
-0.515662 0.124949 1.133000 192 175 220
-0.510656 0.127664 1.122000 197 181 193
-0.510656 0.129628 1.122000 200 217 196
-0.510656 0.131592 1.122000 201 191 199
-0.512021 0.133913 1.125000 203 218 200
-0.510656 0.135520 1.122000 205 199 201
